ply
format ascii 1.0
element vertex 703
property float x
property float y
property float z
property uchar red
property uchar green
property uchar blue
property float nx
property float ny
property float nz
end_header
-0.684437 0.585592 -0.690961 27 216 220 0.000000 -1.000000 0.000000
-0.939455 0.545795 -0.256615 27 216 220 0.270045 0.412487 -0.870018
-0.621999 0.640016 -0.534417 27 216 220 0.000000 1.000000 0.000000
-0.409528 0.569230 -0.275304 27 216 220 -0.000003 -1.000000 -0.000002
-0.659653 0.640016 -0.495021 27 216 220 0.000000 1.000000 0.000000
-0.223549 0.569229 -0.197381 27 216 220 -0.000003 -1.000000 -0.000003
-0.621194 0.600088 -0.758414 27 216 220 -0.660467 0.000000 -0.750855
-0.308390 0.474114 -0.829651 27 216 220 0.000000 -1.000000 0.000000
-0.132931 0.640016 -0.554850 27 216 220 0.000000 1.000000 0.000000
-0.134669 0.569230 -0.433833 27 216 220 -0.000001 -1.000000 -0.000004
-0.958521 0.507072 -0.141882 27 216 220 -0.980397 0.000000 -0.197033
-0.513919 0.569230 -0.442905 27 216 220 0.000000 -1.000000 0.000000
-0.353289 0.569230 -0.525488 27 216 220 0.000000 -1.000000 0.000000
-0.304356 0.640016 -0.846823 27 216 220 0.000000 1.000000 -0.000001
-0.179957 0.640016 -0.919278 27 216 220 0.000000 1.000000 0.000000
-0.487388 0.492533 -0.838810 27 216 220 -0.446933 0.000000 -0.894567
-0.080440 0.640016 -0.384114 27 216 220 0.000000 1.000000 0.000000
-0.913929 0.610526 -0.386270 27 216 220 0.000000 -1.000000 0.000000
-0.009862 0.474128 -0.970505 27 216 220 -0.000243 -0.999993 -0.003602
-0.486559 0.532552 -0.498770 27 216 220 0.660488 0.000000 0.750836
-0.208186 0.640016 -0.010202 27 216 220 0.000000 1.000000 0.000000
-0.145136 0.496853 -0.968738 27 216 220 -0.135079 -0.002451 -0.990832
-0.462690 0.569230 -0.259413 27 216 220 -0.000003 -1.000000 -0.000002
-0.688333 0.640016 -0.268191 27 216 220 0.000000 1.000000 0.000000
-0.092787 0.640016 -0.906379 27 216 220 0.000000 1.000000 0.000000
-0.378467 0.640016 -0.332352 27 216 220 0.000000 1.000000 0.000000
-0.621956 0.474114 -0.588325 27 216 220 0.000000 -1.000000 0.000000
-0.611558 0.640016 -0.235336 27 216 220 0.000000 1.000000 0.000000
-0.982861 0.631194 -0.057462 27 216 220 0.000000 1.000000 0.000000
-0.486422 0.569230 -0.243172 27 216 220 0.000000 -1.000000 0.000000
-0.208779 0.640016 -0.264452 27 216 220 0.000000 1.000000 0.000000
-0.436338 0.564276 -0.542948 27 216 220 0.660488 0.000000 0.750836
-0.255866 0.569229 -0.231161 27 216 220 -0.000003 -1.000000 -0.000003
-0.051567 0.640016 -0.352965 27 216 220 0.000000 1.000000 0.000000
-0.696592 0.545825 -0.004627 27 216 220 0.997738 0.000000 0.067225
-0.707224 0.474114 -0.359148 27 216 220 0.000000 -1.000000 0.000000
-0.254698 0.569230 -0.350793 27 216 220 -0.000003 -1.000000 -0.000003
-0.625062 0.640016 -0.034382 27 216 220 0.000000 1.000000 0.000000
-0.555589 0.474114 -0.477957 27 216 220 0.000000 -1.000000 0.000000
-0.490471 0.640016 -0.460512 27 216 220 0.000000 1.000000 0.000000
-0.346502 0.640016 -0.212109 27 216 220 0.000000 1.000000 0.000000
-0.548702 0.511341 -0.429798 27 216 220 0.750827 0.000000 0.660499
-0.719497 0.587260 -0.665087 27 216 220 -0.712332 -0.316134 -0.626612
-0.979870 0.610526 -0.063367 27 216 220 0.000000 -1.000000 0.000000
-0.413293 0.640016 -0.221606 27 216 220 0.000000 1.000000 0.000000
-0.371180 0.478423 -0.589005 27 216 220 0.558877 0.000000 0.829251
-0.646537 0.640016 -0.602279 27 216 220 0.000000 1.000000 0.000000
-0.529157 0.590226 -0.824863 27 216 220 -0.558867 0.000000 -0.829257
-0.033092 0.640016 -0.791550 27 216 220 0.000000 1.000000 0.000000
-0.926329 0.640016 -0.049682 27 216 220 0.000000 1.000000 0.000000
-0.137602 0.640016 -0.962665 27 216 220 0.000000 1.000000 -0.000001
-0.949128 0.640016 -0.234303 27 216 220 0.000000 1.000000 0.000000
-0.393148 0.569230 -0.189247 27 216 220 -0.000003 -1.000000 -0.000002
-0.159923 0.640016 -0.678134 27 216 220 0.000000 1.000000 0.000000
-0.451394 0.640016 -0.013140 27 216 220 0.000000 1.000000 0.000000
-0.772861 0.640016 -0.283645 27 216 220 0.000000 1.000000 0.000000
-0.789312 0.474133 -0.566373 27 216 220 -0.002986 -0.999994 -0.002013
-0.694182 0.505735 -0.676765 27 216 220 -0.750882 0.000000 -0.660436
-0.556452 0.569230 -0.109897 27 216 220 0.000000 -1.000000 0.000000
-0.830459 0.640016 -0.484862 27 216 220 0.000000 1.000000 0.000000
-0.684372 0.474114 -0.401775 27 216 220 0.000000 -1.000000 0.000000
-0.069683 0.569230 -0.600908 27 216 220 0.000000 -1.000000 0.000000
-0.303887 0.569229 -0.156093 27 216 220 -0.000003 -1.000000 -0.000002
-0.175548 0.474114 -0.679759 27 216 220 0.000000 -1.000000 0.000000
-0.864883 0.544336 -0.456499 27 216 220 -0.667424 -0.261816 0.697135
-0.907368 0.516654 -0.362402 27 216 220 -0.124957 0.038669 -0.991408
-0.539539 0.569230 -0.364783 27 216 220 0.000000 -1.000000 0.000000
-0.431906 0.640016 -0.451609 27 216 220 0.000000 1.000000 0.000000
-0.470947 0.640016 -0.798789 27 216 220 0.000000 1.000000 0.000000
-0.094335 0.474114 -0.708008 27 216 220 0.000000 -1.000000 0.000000
-0.157591 0.640016 -0.484109 27 216 220 0.000000 1.000000 0.000000
-0.277912 0.640016 -0.442087 27 216 220 0.000000 1.000000 0.000000
-0.551737 0.569230 -0.117720 27 216 220 0.000000 -1.000000 0.000000
-0.824898 0.474114 -0.201860 27 216 220 0.000000 -1.000000 0.000000
-0.504228 0.474118 -0.826133 27 216 220 -0.002015 -0.999994 -0.002990
-0.330141 0.569230 -0.262639 27 216 220 -0.000003 -1.000000 -0.000003
-0.599987 0.640016 -0.539575 27 216 220 0.000000 1.000000 0.000000
-0.086595 0.640016 -0.439328 27 216 220 0.000000 1.000000 0.000000
-0.357035 0.640016 -0.588172 27 216 220 0.000000 1.000000 0.000000
-0.164608 0.474114 -0.859276 27 216 220 0.000000 -1.000000 0.000000
-0.017459 0.569230 -0.460413 27 216 220 0.000000 -1.000000 -0.000004
-0.346554 0.640016 -0.871781 27 216 220 0.000000 1.000000 -0.000001
-0.672698 0.554831 -0.182551 27 216 220 0.980403 0.000000 0.197002
-0.188209 0.569230 -0.525206 27 216 220 0.000000 -1.000000 0.000000
-0.311397 0.610526 -0.928862 27 216 220 0.000000 -1.000000 0.000000
-0.263036 0.640016 -0.410142 27 216 220 0.000000 1.000000 0.000000
-0.300681 0.640016 -0.561344 27 216 220 0.000000 1.000000 0.000000
-0.363705 0.640016 -0.381962 27 216 220 0.000000 1.000000 0.000000
-0.215707 0.569230 -0.461225 27 216 220 -0.000002 -1.000000 -0.000003
-0.542308 0.640016 -0.148944 27 216 220 0.000000 1.000000 0.000000
-0.245984 0.474114 -0.790662 27 216 220 0.000000 -1.000000 0.000000
-0.507976 0.530333 -0.825244 27 216 220 -0.558810 0.000000 -0.829296
-0.189584 0.640016 -0.281894 27 216 220 0.000000 1.000000 0.000000
-0.545483 0.474114 -0.677559 27 216 220 0.000000 -1.000000 0.000000
-0.930755 0.531139 -0.302626 27 216 220 -0.999721 0.015393 0.017897
-0.020010 0.474114 -0.909091 27 216 220 0.000000 -1.000000 0.000000
-0.337358 0.640016 -0.312088 27 216 220 0.000000 1.000000 0.000000
-0.492038 0.509597 -0.835983 27 216 220 -0.558810 0.000000 -0.829296
-0.938796 0.514397 -0.269991 27 216 220 -0.761130 0.342683 0.550682
-0.251135 0.640016 -0.381468 27 216 220 0.000000 1.000000 0.000000
-0.683148 0.474114 -0.610419 27 216 220 0.000000 -1.000000 0.000000
-0.097572 0.569229 -0.309006 27 216 220 -0.000001 -1.000000 -0.000004
-0.314601 0.640016 -0.868820 27 216 220 0.000000 1.000000 -0.000001
-0.752982 0.614461 -0.655745 27 216 220 -0.750913 0.000000 -0.660401
-0.206012 0.640016 -0.218874 27 216 220 0.000000 1.000000 0.000000
-0.229891 0.474114 -0.714179 27 216 220 0.000000 -1.000000 0.000000
-0.516859 0.501679 -0.829469 27 216 220 0.835986 0.064227 -0.544979
-0.680814 0.549236 -0.142163 27 216 220 0.980403 0.000000 0.197002
-0.197809 0.640016 -0.094651 27 216 220 0.000000 1.000000 0.000000
-0.581543 0.640016 -0.306826 27 216 220 0.000000 1.000000 0.000000
-0.018541 0.640016 -0.971378 27 216 220 0.000000 1.000000 0.000000
-0.614513 0.474114 -0.660051 27 216 220 0.000000 -1.000000 0.000000
-0.498873 0.474114 -0.676805 27 216 220 0.000000 -1.000000 0.000000
-0.666095 0.610526 -0.728773 27 216 220 0.000000 -1.000000 0.000000
-0.953156 0.489362 -0.168576 27 216 220 -0.980397 0.000000 -0.197033
-0.684621 0.474114 -0.624255 27 216 220 0.000000 -1.000000 0.000000
-0.818621 0.474114 -0.157623 27 216 220 0.000000 -1.000000 0.000000
-0.098636 0.640016 -0.543520 27 216 220 0.000000 1.000000 0.000000
-0.260893 0.549562 -0.645988 27 216 220 0.325713 0.000000 0.945469
-0.941863 0.582681 -0.224768 27 216 220 -0.980397 0.000000 -0.197033
-0.538499 0.503500 -0.441396 27 216 220 0.750827 0.000000 0.660499
-0.520902 0.640016 -0.214043 27 216 220 0.000000 1.000000 0.000000
-0.384399 0.512565 -0.580096 27 216 220 0.558877 0.000000 0.829251
-0.822883 0.640016 -0.436225 27 216 220 0.000000 1.000000 0.000000
-0.023867 0.640016 -0.817909 27 216 220 0.000000 1.000000 0.000000
-0.913119 0.640016 -0.317523 27 216 220 0.000000 1.000000 0.000000
-0.549676 0.640016 -0.392116 27 216 220 0.000000 1.000000 0.000000
-0.243472 0.569230 -0.613441 27 216 220 0.000000 -1.000000 0.000000
-0.433162 0.640016 -0.173700 27 216 220 0.000000 1.000000 0.000000
-0.083091 0.640016 -0.679191 27 216 220 0.000000 1.000000 0.000000
-0.125682 0.569229 -0.370209 27 216 220 -0.000001 -1.000000 -0.000004
-0.167467 0.474114 -0.805257 27 216 220 0.000000 -1.000000 0.000000
-0.018975 0.640016 -0.300077 27 216 220 0.000000 1.000000 0.000000
-0.260769 0.569229 -0.157074 27 216 220 -0.000003 -1.000000 -0.000002
-0.142806 0.540433 -0.680691 27 216 220 0.197002 0.000000 0.980403
-0.737721 0.474114 -0.577928 27 216 220 0.000000 -1.000000 0.000000
-0.656042 0.531309 -0.712416 27 216 220 -0.660516 0.000000 -0.750812
-0.009297 0.470141 -0.698109 27 216 220 0.000000 0.859595 0.510976
-0.069621 0.478338 -0.712230 27 216 220 0.000000 0.985486 0.169754
-0.684741 0.640016 -0.037636 27 216 220 0.000000 1.000000 0.000000
-0.568936 0.640016 -0.020700 27 216 220 0.000000 1.000000 0.000000
-0.980210 0.593771 -0.014845 27 216 220 -0.997747 0.000000 -0.067094
-0.218049 0.640016 -0.242451 27 216 220 0.000000 1.000000 0.000000
-0.371604 0.511990 -0.903566 27 216 220 -0.963560 -0.255881 -0.077951
-0.050709 0.640016 -0.465495 27 216 220 0.000000 1.000000 0.000000
-0.519724 0.569230 -0.068190 27 216 220 -0.000004 -1.000000 0.000000
-0.096832 0.640016 -0.695171 27 216 220 0.000000 1.000000 0.000000
-0.834156 0.640016 -0.441353 27 216 220 0.000000 1.000000 0.000000
-0.359216 0.569230 -0.277147 27 216 220 -0.000003 -1.000000 -0.000003
-0.949448 0.516480 -0.227475 27 216 220 -0.699244 0.499781 0.511152
-0.116131 0.510775 -0.961854 27 216 220 -0.067083 0.000000 -0.997747
-0.626786 0.640016 -0.398352 27 216 220 0.000000 1.000000 0.000000
-0.978614 0.630670 -0.191493 27 216 220 -0.309846 0.948745 -0.062283
-0.228873 0.569229 -0.012188 27 216 220 -0.000004 -1.000000 0.000000
-0.764431 0.640016 -0.222726 27 216 220 0.000000 1.000000 0.000000
-0.193735 0.569230 -0.576189 27 216 220 0.000000 -1.000000 0.000000
-0.004804 0.475899 -0.707796 27 216 220 0.000000 0.859595 0.510976
-0.337671 0.569229 -0.111794 27 216 220 -0.000004 -1.000000 -0.000001
-0.977846 0.600763 -0.049995 27 216 220 -0.997747 0.000000 -0.067094
-0.113238 0.569230 -0.677425 27 216 220 0.000000 -1.000000 0.000000
-0.139481 0.640016 -0.569867 27 216 220 0.000000 1.000000 0.000000
-0.007357 0.569230 -0.584267 27 216 220 0.000000 -1.000000 0.000000
-0.028438 0.474114 -0.842090 27 216 220 0.000000 -1.000000 0.000000
-0.855803 0.640016 -0.115224 27 216 220 0.000000 1.000000 0.000000
-0.537854 0.545847 -0.442129 27 216 220 0.750827 0.000000 0.660499
-0.570907 0.640016 -0.485414 27 216 220 0.000000 1.000000 0.000000
-0.209972 0.640016 -0.179677 27 216 220 0.000000 1.000000 0.000000
-0.341997 0.569230 -0.565637 27 216 220 0.000000 -1.000000 0.000000
-0.173992 0.529448 -0.963216 27 216 220 0.843634 0.167872 -0.510001
-0.077316 0.589442 -0.976005 27 216 220 -0.067216 0.000000 -0.997738
-0.864404 0.495848 -0.436153 27 216 220 -0.894567 0.000000 -0.446934
-0.452161 0.474114 -0.829662 27 216 220 0.000000 -1.000000 0.000000
-0.746429 0.640016 -0.268978 27 216 220 0.000000 1.000000 0.000000
-0.860037 0.640016 -0.125352 27 216 220 0.000000 1.000000 0.000000
-0.547316 0.569230 -0.025228 27 216 220 0.000000 -1.000000 0.000000
-0.829741 0.640016 -0.024738 27 216 220 0.000000 1.000000 0.000000
-0.494948 0.474114 -0.597499 27 216 220 0.000000 -1.000000 0.000000
-0.111305 0.640016 -0.279838 27 216 220 0.000000 1.000000 0.000000
-0.318313 0.474114 -0.689482 27 216 220 0.000000 -1.000000 0.000000
-0.560235 0.640016 -0.479945 27 216 220 0.000000 1.000000 0.000000
-0.036393 0.505441 -0.694448 27 216 220 0.067035 0.000000 0.997751
-0.941169 0.640016 -0.244104 27 216 220 0.000000 1.000000 0.000000
-0.182765 0.474114 -0.853162 27 216 220 0.000000 -1.000000 0.000000
-0.075895 0.479640 -0.825325 27 216 220 -0.000022 0.986374 -0.164519
-0.012697 0.483360 -0.696040 27 216 220 0.067035 0.000000 0.997751
-0.501923 0.588603 -0.843218 27 216 220 -0.558867 0.000000 -0.829257
-0.841909 0.640016 -0.299515 27 216 220 0.000000 1.000000 0.000000
-0.407853 0.569230 -0.077113 27 216 220 -0.000004 -1.000000 0.000000
-0.005328 0.488047 -0.768594 27 216 220 0.000000 0.985486 0.169754
-0.946389 0.474125 -0.205544 27 216 220 -0.003537 -0.999993 -0.000711
-0.543997 0.640016 -0.264976 27 216 220 0.000000 1.000000 0.000000
-0.910201 0.640016 -0.095487 27 216 220 0.000000 1.000000 0.000000
-0.308300 0.520388 -0.623839 27 216 220 0.446886 0.000000 0.894591
-0.174331 0.640016 -0.839306 27 216 220 0.000000 1.000000 0.000000
-0.064517 0.525465 -0.973964 27 216 220 -0.873419 0.104432 -0.475640
-0.001883 0.474114 -0.944143 27 216 220 0.000000 -1.000000 0.000000
-0.431894 0.529259 -0.878279 27 216 220 0.890500 0.100192 -0.443814
-0.580196 0.523947 -0.384237 27 216 220 0.829324 0.000000 0.558769
-0.154111 0.640016 -0.896150 27 216 220 0.000000 1.000000 0.000000
-0.815720 0.640016 -0.453850 27 216 220 0.000000 1.000000 0.000000
-0.472184 0.640016 -0.353095 27 216 220 0.000000 1.000000 0.000000
-0.054192 0.640016 -0.398548 27 216 220 0.000000 1.000000 0.000000
-0.297671 0.569230 -0.430876 27 216 220 -0.000003 -1.000000 -0.000003
-0.574294 0.640016 -0.010072 27 216 220 0.000000 1.000000 0.000000
-0.334940 0.489146 -0.920165 27 216 220 -0.332918 -0.107840 -0.936769
-0.260414 0.640016 -0.227910 27 216 220 0.000000 1.000000 0.000000
-0.488286 0.569230 -0.016829 27 216 220 -0.000004 -1.000000 0.000000
-0.961880 0.481356 -0.192902 27 216 220 -0.980410 0.000000 -0.196968
-0.311887 0.569230 -0.598490 27 216 220 0.000000 -1.000000 0.000000
-0.236651 0.640016 -0.826530 27 216 220 0.000000 1.000000 0.000000
-0.057840 0.569229 -0.280649 27 216 220 0.000000 -1.000000 -0.000004
-0.795977 0.543185 -0.567222 27 216 220 -0.541987 0.326691 0.774289
-0.137921 0.569229 -0.142312 27 216 220 -0.000003 -1.000000 -0.000003
-0.847123 0.640016 -0.482689 27 216 220 0.000000 1.000000 0.000000
-0.589642 0.521456 -0.774546 27 216 220 -0.780810 -0.072181 0.620585
-0.599776 0.640016 -0.687812 27 216 220 0.000000 1.000000 0.000000
-0.189821 0.640016 -0.360793 27 216 220 0.000000 1.000000 0.000000
-0.327952 0.569230 -0.451498 27 216 220 0.000000 -1.000000 0.000000
-0.328736 0.487008 -0.920650 27 216 220 -0.003544 0.999941 -0.010290
-0.240358 0.569230 -0.478762 27 216 220 0.000000 -1.000000 0.000000
-0.046874 0.569230 -0.524543 27 216 220 0.000000 -1.000000 -0.000004
-0.722034 0.640016 -0.650819 27 216 220 0.000000 1.000000 0.000000
-0.913734 0.474114 -0.233197 27 216 220 0.000000 -1.000000 0.000000
-0.651563 0.474114 -0.437821 27 216 220 0.000000 -1.000000 0.000000
-0.760544 0.474114 -0.387554 27 216 220 0.000000 -1.000000 0.000000
-0.809447 0.640016 -0.526586 27 216 220 0.000000 1.000000 0.000000
-0.011247 0.640016 -0.389017 27 216 220 0.000000 1.000000 0.000000
-0.200000 0.640016 -0.742421 27 216 220 0.000000 1.000000 0.000000
-0.463870 0.640016 -0.705086 27 216 220 0.000000 1.000000 0.000000
-0.349913 0.640016 -0.852430 27 216 220 0.000000 1.000000 -0.000001
-0.417605 0.640016 -0.706914 27 216 220 0.000000 1.000000 0.000000
-0.925191 0.585592 -0.309794 27 216 220 0.000000 -1.000000 0.000000
-0.625010 0.569230 -0.170784 27 216 220 0.000000 -1.000000 0.000000
-0.772432 0.575836 -0.586329 27 216 220 -0.829246 0.000000 -0.558884
-0.304268 0.640016 -0.221654 27 216 220 0.000000 1.000000 0.000000
-0.551653 0.474114 -0.515466 27 216 220 0.000000 -1.000000 0.000000
-0.553318 0.610526 -0.825448 27 216 220 0.000000 -1.000000 0.000000
-0.658741 0.640016 -0.263649 27 216 220 0.000000 1.000000 0.000000
-0.127877 0.569230 -0.647141 27 216 220 0.000000 -1.000000 0.000000
-0.849289 0.547082 -0.466405 27 216 220 -0.894567 0.000000 -0.446934
-0.813917 0.542208 -0.544071 27 216 220 -0.747651 0.057008 -0.661640
-0.308770 0.640016 -0.486541 27 216 220 0.000000 1.000000 0.000000
-0.465098 0.474114 -0.602613 27 216 220 0.000000 -1.000000 0.000000
-0.796052 0.502789 -0.561906 27 216 220 -0.639807 0.409573 0.650305
-0.886652 0.532450 -0.408539 27 216 220 0.418361 -0.161769 -0.893759
-0.817446 0.490358 -0.530135 27 216 220 0.284699 -0.900450 0.328841
-0.822540 0.541604 -0.511981 27 216 220 -0.829246 0.000000 -0.558884
-0.054612 0.569228 -0.037897 27 216 220 -0.000003 -1.000000 -0.000002
-0.459283 0.600840 -0.865734 27 216 220 -0.446993 0.000000 -0.894537
-0.581399 0.640016 -0.562569 27 216 220 0.000000 1.000000 0.000000
-0.938317 0.474339 -0.283654 27 216 220 -0.292824 -0.950830 -0.100875
-0.550481 0.640016 -0.683421 27 216 220 0.000000 1.000000 0.000000
-0.014997 0.569230 -0.579223 27 216 220 0.000000 -1.000000 0.000000
-0.103304 0.640016 -0.113651 27 216 220 0.000000 1.000000 0.000000
-0.622745 0.474114 -0.410409 27 216 220 0.000000 -1.000000 0.000000
-0.568507 0.640016 -0.681439 27 216 220 0.000000 1.000000 0.000000
-0.095984 0.569230 -0.608995 27 216 220 0.000000 -1.000000 0.000000
-0.774958 0.543054 -0.582580 27 216 220 -0.829246 0.000000 -0.558884
-0.600632 0.640016 -0.551121 27 216 220 0.000000 1.000000 0.000000
-0.609948 0.640016 -0.565339 27 216 220 0.000000 1.000000 0.000000
-0.363648 0.640016 -0.117112 27 216 220 0.000000 1.000000 0.000000
-0.883789 0.474123 -0.397786 27 216 220 -0.003221 -0.999994 -0.001609
-0.546126 0.640016 -0.799640 27 216 220 0.000000 1.000000 0.000000
-0.620600 0.569230 -0.136539 27 216 220 0.000000 -1.000000 0.000000
-0.296129 0.506309 -0.629919 27 216 220 0.446886 0.000000 0.894591
-0.337104 0.569230 -0.415760 27 216 220 0.000000 -1.000000 0.000000
-0.166554 0.569229 -0.243891 27 216 220 -0.000003 -1.000000 -0.000003
-0.473865 0.640016 -0.267683 27 216 220 0.000000 1.000000 0.000000
-0.554694 0.544540 -0.422088 27 216 220 0.829324 0.000000 0.558769
-0.618634 0.640016 -0.214996 27 216 220 0.000000 1.000000 0.000000
-0.365166 0.474114 -0.604901 27 216 220 0.000000 -1.000000 0.000000
-0.172362 0.569229 -0.112159 27 216 220 -0.000003 -1.000000 -0.000002
-0.272255 0.474114 -0.909084 27 216 220 0.000000 -1.000000 0.000000
-0.201623 0.474114 -0.916823 27 216 220 0.000000 -1.000000 0.000000
-0.182703 0.608776 -0.962072 27 216 220 -0.196910 0.000000 -0.980422
-0.459116 0.610526 -0.882974 27 216 220 0.000000 -1.000000 0.000000
-0.961248 0.486989 -0.185099 27 216 220 -0.010616 0.999941 -0.002132
-0.831654 0.640016 -0.120654 27 216 220 0.000000 1.000000 0.000000
-0.742535 0.487021 -0.634404 27 216 220 -0.008385 0.999938 -0.007376
-0.865131 0.640016 -0.444704 27 216 220 0.000000 1.000000 0.000000
-0.394661 0.569230 -0.372900 27 216 220 0.000000 -1.000000 0.000000
-0.613251 0.605575 -0.765401 27 216 220 -0.660467 0.000000 -0.750855
-0.750138 0.570729 -0.613146 27 216 220 -0.750882 0.000000 -0.660436
-0.899360 0.474114 -0.308692 27 216 220 0.000000 -1.000000 0.000000
-0.005707 0.506382 -0.974166 27 216 220 -0.748257 -0.626899 0.217047
-0.942722 0.493938 -0.220494 27 216 220 -0.980397 0.000000 -0.197033
-0.050002 0.474114 -0.943015 27 216 220 0.000000 -1.000000 0.000000
-0.973805 0.553003 -0.071264 27 216 220 0.126471 0.233287 -0.964149
-0.010527 0.474114 -0.908203 27 216 220 0.000000 -1.000000 0.000000
-0.023512 0.569230 -0.616174 27 216 220 0.000000 -1.000000 0.000000
-0.607291 0.569230 -0.096957 27 216 220 0.000000 -1.000000 0.000000
-0.857613 0.474114 -0.355956 27 216 220 0.000000 -1.000000 0.000000
-0.222500 0.474114 -0.735804 27 216 220 0.000000 -1.000000 0.000000
-0.854290 0.474371 -0.482353 27 216 220 -0.276140 -0.951162 -0.137980
-0.623486 0.640016 -0.016111 27 216 220 0.000000 1.000000 0.000000
-0.111472 0.640016 -0.405165 27 216 220 0.000000 1.000000 0.000000
-0.598413 0.640016 -0.650255 27 216 220 0.000000 1.000000 0.000000
-0.968254 0.575608 -0.021051 27 216 220 -0.997738 0.000000 -0.067219
-0.083121 0.640016 -0.692870 27 216 220 0.000000 1.000000 0.000000
-0.759979 0.493398 -0.609212 27 216 220 0.671077 -0.642031 -0.370744
-0.021495 0.503517 -0.978095 27 216 220 0.700220 0.544111 -0.462207
-0.440005 0.474114 -0.693277 27 216 220 0.000000 -1.000000 0.000000
-0.253303 0.640016 -0.007562 27 216 220 0.000000 1.000000 0.000000
-0.333078 0.640016 -0.327002 27 216 220 0.000000 1.000000 0.000000
-0.970277 0.519625 -0.130696 27 216 220 -0.842088 0.161777 -0.514505
-0.747218 0.640016 -0.602592 27 216 220 0.000000 1.000000 0.000000
-0.580983 0.519910 -0.383069 27 216 220 0.829324 0.000000 0.558769
-0.095241 0.640016 -0.635998 27 216 220 0.000000 1.000000 0.000000
-0.017977 0.576259 -0.976046 27 216 220 -0.341831 0.857830 0.383769
-0.684194 0.640016 -0.240821 27 216 220 0.000000 1.000000 0.000000
-0.549672 0.569230 -0.013803 27 216 220 0.000000 -1.000000 0.000000
-0.174718 0.640016 -0.875020 27 216 220 0.000000 1.000000 0.000000
-0.403468 0.528754 -0.880737 27 216 220 -0.446933 0.000000 -0.894567
-0.507949 0.569230 -0.315790 27 216 220 0.000000 -1.000000 0.000000
-0.305410 0.640016 -0.297785 27 216 220 0.000000 1.000000 0.000000
-0.307712 0.550060 -0.624133 27 216 220 0.446886 0.000000 0.894591
-0.294969 0.640016 -0.930636 27 216 220 0.000000 1.000000 0.000000
-0.048649 0.640016 -0.029244 27 216 220 0.000000 1.000000 0.000000
-0.012623 0.569229 -0.262631 27 216 220 0.000000 -1.000000 -0.000004
-0.455900 0.569230 -0.126959 27 216 220 -0.000004 -1.000000 -0.000001
-0.025652 0.640016 -0.472232 27 216 220 0.000000 1.000000 0.000000
-0.261198 0.640016 -0.752266 27 216 220 0.000000 1.000000 0.000000
-0.274658 0.640016 -0.556201 27 216 220 0.000000 1.000000 0.000000
-0.625483 0.474114 -0.499534 27 216 220 0.000000 -1.000000 0.000000
-0.456706 0.474114 -0.680591 27 216 220 0.000000 -1.000000 0.000000
-0.623280 0.640016 -0.585318 27 216 220 0.000000 1.000000 0.000000
-0.382181 0.640016 -0.436559 27 216 220 0.000000 1.000000 0.000000
-0.041604 0.569230 -0.428654 27 216 220 0.000000 -1.000000 -0.000004
-0.424656 0.584718 -0.870152 27 216 220 -0.446933 0.000000 -0.894567
-0.520210 0.618914 -0.853495 27 216 220 -0.558811 0.000000 -0.829295
-0.346357 0.474114 -0.624187 27 216 220 0.000000 -1.000000 0.000000
-0.681094 0.640016 -0.169167 27 216 220 0.000000 1.000000 0.000000
-0.097138 0.569229 -0.155165 27 216 220 -0.000003 -1.000000 -0.000003
-0.543404 0.610201 -0.815262 27 216 220 -0.558867 0.000000 -0.829257
-0.256835 0.640016 -0.659335 27 216 220 0.000000 1.000000 0.000000
-0.390458 0.569230 -0.550920 27 216 220 0.000000 -1.000000 0.000000
-0.889871 0.530444 -0.399446 27 216 220 -0.976452 0.049231 -0.210044
-0.742472 0.474114 -0.226608 27 216 220 0.000000 -1.000000 0.000000
-0.960704 0.586692 -0.187389 27 216 220 -0.929531 -0.317932 -0.186794
-0.051957 0.640016 -0.369893 27 216 220 0.000000 1.000000 0.000000
-0.791264 0.474114 -0.211270 27 216 220 0.000000 -1.000000 0.000000
-0.058045 0.569229 -0.179184 27 216 220 -0.000001 -1.000000 -0.000004
-0.368447 0.626419 -0.928953 27 216 220 -0.325891 0.000000 -0.945407
-0.563198 0.567025 -0.409465 27 216 220 0.829324 0.000000 0.558769
-0.020069 0.525697 -0.968312 27 216 220 -0.067083 0.000000 -0.997747
-0.809145 0.474114 -0.279411 27 216 220 0.000000 -1.000000 0.000000
-0.120619 0.640016 -0.858925 27 216 220 0.000000 1.000000 0.000000
-0.051842 0.569230 -0.672236 27 216 220 0.000000 -1.000000 0.000000
-0.609607 0.640016 -0.530332 27 216 220 0.000000 1.000000 0.000000
-0.500781 0.569230 -0.308474 27 216 220 0.000000 -1.000000 0.000000
-0.847680 0.640016 -0.120178 27 216 220 0.000000 1.000000 0.000000
-0.842721 0.610526 -0.531848 27 216 220 0.000000 -1.000000 0.000000
-0.824475 0.640016 -0.395562 27 216 220 0.000000 1.000000 0.000000
-0.058487 0.569230 -0.646524 27 216 220 0.000000 -1.000000 0.000000
-0.242705 0.569230 -0.539648 27 216 220 0.000000 -1.000000 0.000000
-0.355887 0.640016 -0.626819 27 216 220 0.000000 1.000000 0.000000
-0.493539 0.565648 -0.492504 27 216 220 0.750827 0.000000 0.660499
-0.336122 0.569230 -0.544670 27 216 220 0.000000 -1.000000 0.000000
-0.773464 0.640016 -0.563836 27 216 220 0.000000 1.000000 0.000000
-0.045726 0.505017 -0.966587 27 216 220 -0.067083 0.000000 -0.997747
-0.474153 0.569230 -0.058981 27 216 220 -0.000004 -1.000000 0.000000
-0.938169 0.474114 -0.191287 27 216 220 0.000000 -1.000000 0.000000
-0.576220 0.640016 -0.249909 27 216 220 0.000000 1.000000 0.000000
-0.607119 0.551901 -0.768451 27 216 220 -0.620326 0.010511 -0.784274
-0.208027 0.640016 -0.088389 27 216 220 0.000000 1.000000 0.000000
-0.209173 0.474114 -0.758786 27 216 220 0.000000 -1.000000 0.000000
-0.083165 0.640016 -0.073924 27 216 220 0.000000 1.000000 0.000000
-0.129833 0.630888 -0.989806 27 216 220 -0.021427 0.947801 -0.318143
-0.053017 0.476691 -0.693332 27 216 220 0.067035 0.000000 0.997751
-0.458571 0.474124 -0.853556 27 216 220 -0.001612 -0.999993 -0.003227
-0.436544 0.640016 -0.493961 27 216 220 0.000000 1.000000 0.000000
-0.876423 0.474114 -0.393354 27 216 220 0.000000 -1.000000 0.000000
-0.267414 0.569229 -0.079450 27 216 220 -0.000004 -1.000000 -0.000001
-0.758165 0.474114 -0.456392 27 216 220 0.000000 -1.000000 0.000000
-0.426609 0.569230 -0.217184 27 216 220 -0.000003 -1.000000 -0.000002
-0.506054 0.474114 -0.649323 27 216 220 0.000000 -1.000000 0.000000
-0.841623 0.548594 -0.492618 27 216 220 -0.944146 0.078328 -0.320084
-0.555612 0.545970 -0.801677 27 216 220 0.377681 -0.830587 -0.409247
-0.420321 0.640016 -0.498656 27 216 220 0.000000 1.000000 0.000000
-0.156074 0.584181 -0.955675 27 216 220 -0.197047 0.000000 -0.980394
-0.976058 0.586672 -0.070222 27 216 220 -0.946214 -0.317215 -0.063672
-0.885260 0.603577 -0.420188 27 216 220 -0.894562 0.000000 -0.446943
-0.694768 0.474114 -0.253479 27 216 220 0.000000 -1.000000 0.000000
-0.109054 0.640016 -0.038784 27 216 220 0.000000 1.000000 0.000000
-0.916156 0.474114 -0.293319 27 216 220 0.000000 -1.000000 0.000000
-0.078154 0.640016 -0.460888 27 216 220 0.000000 1.000000 0.000000
-0.338319 0.640016 -0.402961 27 216 220 0.000000 1.000000 0.000000
-0.647192 0.569230 -0.125729 27 216 220 0.000000 -1.000000 0.000000
-0.368702 0.474114 -0.873524 27 216 220 0.000000 -1.000000 0.000000
-0.275597 0.640016 -0.366811 27 216 220 0.000000 1.000000 0.000000
-0.662537 0.640016 -0.068699 27 216 220 0.000000 1.000000 0.000000
-0.569805 0.520934 -0.783581 27 216 220 -0.558810 0.000000 -0.829296
-0.428667 0.569230 -0.149735 27 216 220 -0.000004 -1.000000 -0.000001
-0.657437 0.515655 -0.227647 27 216 220 0.945473 0.000000 0.325700
-0.187482 0.615701 -0.980229 27 216 220 -0.196939 0.000000 -0.980416
-0.337822 0.569230 -0.340223 27 216 220 -0.000003 -1.000000 -0.000003
-0.471679 0.640016 -0.469040 27 216 220 0.000000 1.000000 0.000000
-0.372241 0.569230 -0.275415 27 216 220 -0.000003 -1.000000 -0.000002
-0.072586 0.640016 -0.631985 27 216 220 0.000000 1.000000 0.000000
-0.360439 0.569230 -0.417458 27 216 220 0.000000 -1.000000 0.000000
-0.284321 0.515437 -0.925926 27 216 220 -0.325714 0.000000 -0.945468
-0.816734 0.487081 -0.525942 27 216 220 -0.009261 0.999938 -0.006242
-0.907111 0.474114 -0.224734 27 216 220 0.000000 -1.000000 0.000000
-0.363706 0.569230 -0.574573 27 216 220 0.000000 -1.000000 0.000000
-0.891115 0.500559 -0.382688 27 216 220 -0.894567 0.000000 -0.446934
-0.788931 0.626784 -0.614869 27 216 220 -0.750913 0.000000 -0.660401
-0.207591 0.474114 -0.684511 27 216 220 0.000000 -1.000000 0.000000
-0.303415 0.569229 -0.125552 27 216 220 -0.000004 -1.000000 -0.000001
-0.655514 0.640016 -0.035045 27 216 220 0.000000 1.000000 0.000000
-0.216338 0.474114 -0.883985 27 216 220 0.000000 -1.000000 0.000000
-0.524829 0.575474 -0.813887 27 216 220 -0.558810 0.000000 -0.829296
-0.086139 0.474114 -0.955031 27 216 220 0.000000 -1.000000 0.000000
-0.153886 0.569230 -0.424799 27 216 220 -0.000001 -1.000000 -0.000004
-0.348271 0.640016 -0.335399 27 216 220 0.000000 1.000000 0.000000
-0.940446 0.513094 -0.231820 27 216 220 -0.980397 0.000000 -0.197033
-0.045714 0.569229 -0.340256 27 216 220 0.000000 -1.000000 -0.000004
-0.040645 0.640016 -0.203212 27 216 220 0.000000 1.000000 0.000000
-0.087512 0.640016 -0.891064 27 216 220 0.000000 1.000000 0.000000
-0.011190 0.569230 -0.458931 27 216 220 0.000000 -1.000000 -0.000004
-0.795467 0.640016 -0.360640 27 216 220 0.000000 1.000000 0.000000
-0.093921 0.528830 -0.690514 27 216 220 0.197002 0.000000 0.980403
-0.094948 0.476682 -0.772862 27 216 220 -0.657499 0.742242 -0.129508
-0.337046 0.569230 -0.400306 27 216 220 -0.000003 -1.000000 -0.000003
-0.489234 0.580546 -0.837873 27 216 220 -0.558810 0.000000 -0.829296
-0.307427 0.474114 -0.847215 27 216 220 0.000000 -1.000000 0.000000
-0.542923 0.640016 -0.067149 27 216 220 0.000000 1.000000 0.000000
-0.364468 0.524317 -0.593528 27 216 220 0.558877 0.000000 0.829251
-0.794719 0.501207 -0.553260 27 216 220 -0.829246 0.000000 -0.558884
-0.339887 0.521714 -0.608060 27 216 220 0.446886 0.000000 0.894591
-0.847781 0.640016 -0.423204 27 216 220 0.000000 1.000000 0.000000
-0.213495 0.640016 -0.770750 27 216 220 0.000000 1.000000 0.000000
-0.694320 0.536528 -0.038350 27 216 220 0.997738 0.000000 0.067225
-0.551433 0.485375 -0.426694 27 216 220 0.750827 0.000000 0.660499
-0.545978 0.640016 -0.722506 27 216 220 0.000000 1.000000 0.000000
-0.204337 0.516285 -0.945974 27 216 220 -0.197047 0.000000 -0.980394
-0.941416 0.490715 -0.226991 27 216 220 -0.980397 0.000000 -0.197033
-0.490478 0.569230 0.125089 238 160 130 -0.000004 -1.000000 0.000000
-0.369456 0.569230 0.165507 238 160 130 -0.000003 -1.000000 0.000002
-0.772169 0.474114 0.282563 238 160 130 0.000000 -1.000000 0.000000
-0.410377 0.640016 0.381372 238 160 130 0.000000 1.000000 0.000000
-0.082591 0.640016 0.893629 238 160 130 0.000000 1.000000 0.000000
-0.857115 0.474114 0.405052 238 160 130 0.000000 -1.000000 0.000000
-0.722375 0.640016 0.613291 238 160 130 0.000000 1.000000 0.000000
-0.733043 0.474114 0.252447 238 160 130 0.000000 -1.000000 0.000000
-0.768000 0.640016 0.090695 238 160 130 0.000000 1.000000 0.000000
-0.774312 0.621212 0.631508 238 160 130 -0.750845 0.000000 0.660478
-0.940828 0.509101 0.270242 238 160 130 -0.758875 0.235392 -0.607206
-0.268244 0.569229 0.232154 238 160 130 -0.000003 -1.000000 0.000003
-0.822837 0.640016 0.008759 238 160 130 0.000000 1.000000 0.000000
-0.789126 0.640016 0.423809 238 160 130 0.000000 1.000000 0.000000
-0.237809 0.569230 0.478854 238 160 130 0.000000 -1.000000 0.000000
-0.061919 0.640016 0.110185 238 160 130 0.000000 1.000000 0.000000
-0.704876 0.474114 0.262678 238 160 130 0.000000 -1.000000 0.000000
-0.912181 0.566345 0.324208 238 160 130 -0.945464 0.000000 0.325728
-0.040024 0.569229 0.144716 238 160 130 -0.000001 -1.000000 0.000004
-0.756729 0.563937 0.611867 238 160 130 0.197911 0.948142 -0.248712
-0.141081 0.640016 0.966980 238 160 130 0.000000 1.000000 0.000000
-0.375803 0.474114 0.891994 238 160 130 -0.001174 -0.999993 0.003409
-0.889327 0.631194 0.420595 238 160 130 0.000000 1.000000 0.000000
-0.232980 0.640016 0.262354 238 160 130 0.000000 1.000000 0.000000
-0.280641 0.519977 0.927195 238 160 130 -0.325728 0.000000 0.945464
-0.210506 0.640016 0.415758 238 160 130 0.000000 1.000000 0.000000
-0.914722 0.474114 0.017787 238 160 130 0.000000 -1.000000 0.000000
-0.605698 0.474114 0.731483 238 160 130 0.000000 -1.000000 0.000000
-0.526645 0.569230 0.162879 238 160 130 0.000000 -1.000000 0.000000
-0.672086 0.474114 0.675237 238 160 130 0.000000 -1.000000 0.000000
-0.700865 0.640016 0.402159 238 160 130 0.000000 1.000000 0.000000
-0.618743 0.569230 0.140559 238 160 130 0.000000 -1.000000 0.000000
-0.779567 0.474114 0.210435 238 160 130 0.000000 -1.000000 0.000000
-0.207463 0.474114 0.939762 238 160 130 0.000000 -1.000000 0.000000
-0.069200 0.569229 0.305810 238 160 130 0.000000 -1.000000 0.000004
-0.779950 0.530082 0.592162 238 160 130 -0.584688 -0.035965 0.810461
-0.660422 0.499038 0.708562 238 160 130 -0.660516 0.000000 0.750812
-0.759973 0.640016 0.534406 238 160 130 0.000000 1.000000 0.000000
-0.548246 0.569230 0.370193 238 160 130 0.000000 -1.000000 0.000000
-0.200108 0.631194 0.974109 238 160 130 0.000000 1.000000 0.000000
-0.693382 0.540811 0.690477 238 160 130 -0.873670 0.250557 0.417040
-0.924707 0.568692 0.287849 238 160 130 -0.945464 0.000000 0.325728
-0.952345 0.625581 0.300579 238 160 130 -0.945467 0.000000 0.325717
-0.226243 0.640016 0.720266 238 160 130 0.000000 1.000000 0.000000
-0.436445 0.474114 0.622679 238 160 130 0.000000 -1.000000 0.000000
-0.752329 0.640016 0.508662 238 160 130 0.000000 1.000000 0.000000
-0.672247 0.640016 0.568497 238 160 130 0.000000 1.000000 0.000000
-0.477117 0.640016 0.703238 238 160 130 0.000000 1.000000 0.000000
-0.686691 0.474114 0.264620 238 160 130 0.000000 -1.000000 0.000000
-0.457275 0.640016 0.351351 238 160 130 0.000000 1.000000 0.000000
-0.116862 0.569229 0.351067 238 160 130 -0.000001 -1.000000 0.000004
-0.579007 0.610526 0.796381 238 160 130 0.000000 -1.000000 0.000000
-0.211864 0.474114 0.870183 238 160 130 0.000000 -1.000000 0.000000
-0.513596 0.640016 0.625402 238 160 130 0.000000 1.000000 0.000000
-0.492759 0.474114 0.502564 238 160 130 0.000000 -1.000000 0.000000
0.000667 0.640016 0.021621 238 160 130 0.000000 1.000000 0.000000
-0.592568 0.474114 0.547018 238 160 130 0.000000 -1.000000 0.000000
-0.563536 0.569230 0.286999 238 160 130 0.000000 -1.000000 0.000000
-0.743047 0.474114 0.478333 238 160 130 0.000000 -1.000000 0.000000
-0.386448 0.587721 0.902041 238 160 130 -0.423565 -0.319495 0.847653
-0.708757 0.474114 0.527637 238 160 130 0.000000 -1.000000 0.000000
-0.150088 0.618440 0.987742 238 160 130 -0.196965 0.000000 0.980411
-0.415818 0.569230 0.373227 238 160 130 0.000000 -1.000000 0.000000
-0.603647 0.640016 0.181404 238 160 130 0.000000 1.000000 0.000000
-0.053541 0.579601 0.966063 238 160 130 -0.067068 0.000000 0.997748
-0.235118 0.640016 0.075223 238 160 130 0.000000 1.000000 0.000000
-0.611647 0.474114 0.643773 238 160 130 0.000000 -1.000000 0.000000
-0.078591 0.640016 0.846576 238 160 130 0.000000 1.000000 0.000000
-0.262708 0.640016 0.606034 238 160 130 0.000000 1.000000 0.000000
-0.920191 0.640016 0.235428 238 160 130 0.000000 1.000000 0.000000
-0.831716 0.640016 0.182900 238 160 130 0.000000 1.000000 0.000000
-0.430074 0.640016 0.269403 238 160 130 0.000000 1.000000 0.000000
-0.598148 0.640016 0.395652 238 160 130 0.000000 1.000000 0.000000
-0.812403 0.474114 0.461998 238 160 130 0.000000 -1.000000 0.000000
-0.733423 0.474114 0.189775 238 160 130 0.000000 -1.000000 0.000000
-0.477121 0.640016 0.570141 238 160 130 0.000000 1.000000 0.000000
-0.688231 0.640016 0.505025 238 160 130 0.000000 1.000000 0.000000
-0.195150 0.640016 0.574968 238 160 130 0.000000 1.000000 0.000000
-0.198397 0.474114 0.892104 238 160 130 0.000000 -1.000000 0.000000
-0.094902 0.569229 0.279807 238 160 130 -0.000001 -1.000000 0.000004
-0.208602 0.474114 0.666722 238 160 130 0.000000 -1.000000 0.000000
-0.523766 0.542761 0.458145 238 160 130 0.750827 0.000000 -0.660499
-0.519796 0.474114 0.804861 238 160 130 0.000000 -1.000000 0.000000
-0.812051 0.575492 0.527552 238 160 130 -0.829291 0.000000 0.558817
-0.290594 0.640016 0.235549 238 160 130 0.000000 1.000000 0.000000
-0.539021 0.640016 0.486372 238 160 130 0.000000 1.000000 0.000000
-0.798385 0.640016 0.442498 238 160 130 0.000000 1.000000 0.000000
-0.653974 0.558985 0.237700 238 160 130 0.945475 0.000000 -0.325693
-0.157356 0.561583 0.955419 238 160 130 -0.197047 0.000000 0.980394
-0.676985 0.640016 0.266204 238 160 130 0.000000 1.000000 0.000000
-0.948981 0.534535 0.189352 238 160 130 -0.980397 0.000000 0.197032
-0.718105 0.533825 0.657129 238 160 130 0.671678 -0.076146 0.736920
-0.835174 0.493690 0.493237 238 160 130 -0.829291 0.000000 0.558817
-0.883479 0.640016 0.050864 238 160 130 0.000000 1.000000 0.000000
-0.623878 0.640016 0.001179 238 160 130 0.000000 1.000000 0.000000
-0.571003 0.640016 0.392123 238 160 130 0.000000 1.000000 0.000000
-0.326969 0.640016 0.097997 238 160 130 0.000000 1.000000 0.000000
-0.863987 0.639696 0.459813 238 160 130 -0.265433 0.954966 0.132611
-0.100677 0.640016 0.698079 238 160 130 0.000000 1.000000 0.000000
-0.427976 0.569230 0.254428 238 160 130 -0.000003 -1.000000 0.000002
-0.243663 0.613974 0.968943 238 160 130 -0.196965 0.000000 0.980411
-0.779095 0.485019 0.600343 238 160 130 -0.829292 0.000000 0.558816
-0.947675 0.640016 0.235319 238 160 130 0.000000 1.000000 0.000000
-0.343600 0.640016 0.573709 238 160 130 0.000000 1.000000 0.000000
-0.793350 0.474114 0.252839 238 160 130 0.000000 -1.000000 0.000000
-0.973926 0.551185 0.084985 238 160 130 0.153153 0.415389 0.896658
-0.510047 0.569230 0.075300 238 160 130 -0.000004 -1.000000 0.000000
-0.356815 0.569230 0.433108 238 160 130 0.000000 -1.000000 0.000000
-0.126672 0.640016 0.562837 238 160 130 0.000000 1.000000 0.000000
-0.641426 0.640016 0.224210 238 160 130 0.000000 1.000000 0.000000
-0.437391 0.585592 0.873846 238 160 130 0.000000 -1.000000 0.000000
-0.925588 0.576713 0.285294 238 160 130 -0.945464 0.000000 0.325728
-0.484055 0.640016 0.551799 238 160 130 0.000000 1.000000 0.000000
-0.137295 0.640016 0.240253 238 160 130 0.000000 1.000000 0.000000
-0.105972 0.569228 0.054971 238 160 130 -0.000003 -1.000000 0.000002
-0.623983 0.640016 0.393426 238 160 130 0.000000 1.000000 0.000000
-0.008413 0.640016 0.948223 238 160 130 0.000000 1.000000 0.000000
-0.324927 0.569230 0.496223 238 160 130 0.000000 -1.000000 0.000000
-0.914334 0.487231 0.317960 238 160 130 -0.945464 0.000000 0.325728
-0.177688 0.640016 0.230613 238 160 130 0.000000 1.000000 0.000000
-0.311479 0.616001 0.948589 238 160 130 -0.325848 0.000000 0.945422
-0.481799 0.640016 0.731708 238 160 130 0.000000 1.000000 0.000000
-0.312943 0.474114 0.734577 238 160 130 0.000000 -1.000000 0.000000
-0.111809 0.631194 0.985127 238 160 130 0.000000 1.000000 0.000000
-0.167360 0.569230 0.515977 238 160 130 0.000000 -1.000000 0.000000
-0.439353 0.571935 0.873695 238 160 130 0.645672 0.156699 0.747364
-0.055694 0.640016 0.326183 238 160 130 0.000000 1.000000 0.000000
-0.167894 0.476526 0.966910 238 160 130 -0.197085 0.000000 0.980387
-0.425343 0.474114 0.678812 238 160 130 0.000000 -1.000000 0.000000
-0.963765 0.493690 0.087673 238 160 130 -0.997738 0.000000 0.067220
-0.749875 0.640016 0.348301 238 160 130 0.000000 1.000000 0.000000
-0.080123 0.474114 0.925676 238 160 130 0.000000 -1.000000 0.000000
-0.561050 0.569230 0.132764 238 160 130 0.000000 -1.000000 0.000000
-0.122943 0.640016 0.743377 238 160 130 0.000000 1.000000 0.000000
-0.646362 0.640016 0.571333 238 160 130 0.000000 1.000000 0.000000
-0.779874 0.474114 0.255111 238 160 130 0.000000 -1.000000 0.000000
-0.012136 0.569229 0.205209 238 160 130 0.000000 -1.000000 0.000004
-0.269873 0.474114 0.770354 238 160 130 0.000000 -1.000000 0.000000
-0.965808 0.554144 0.057362 238 160 130 -0.997738 0.000000 0.067220
-0.463525 0.640016 0.600413 238 160 130 0.000000 1.000000 0.000000
-0.513049 0.569230 0.021543 238 160 130 -0.000004 -1.000000 0.000000
-0.170231 0.640016 0.909503 238 160 130 0.000000 1.000000 0.000000
-0.938375 0.474150 0.271724 238 160 130 -0.003406 -0.999994 0.001173
-0.866837 0.640016 0.000866 238 160 130 0.000000 1.000000 0.000000
-0.748270 0.474114 0.125074 238 160 130 0.000000 -1.000000 0.000000
-0.492172 0.569230 0.169980 238 160 130 -0.000004 -1.000000 0.000001
-0.509782 0.640016 0.462141 238 160 130 0.000000 1.000000 0.000000
-0.860291 0.640016 0.137089 238 160 130 0.000000 1.000000 0.000000
-0.311403 0.569229 0.202954 238 160 130 -0.000003 -1.000000 0.000002
-0.636420 0.640016 0.297798 238 160 130 0.000000 1.000000 0.000000
-0.471942 0.569230 0.144142 238 160 130 -0.000004 -1.000000 0.000001
-0.194937 0.488271 0.947866 238 160 130 -0.197047 0.000000 0.980394
-0.631660 0.487028 0.744076 238 160 130 -0.007383 0.999938 0.008394
-0.165718 0.568567 0.676089 238 160 130 0.197002 0.000000 -0.980403
-0.296113 0.640016 0.806711 238 160 130 0.000000 1.000000 0.000000
-0.035781 0.640016 0.612372 238 160 130 0.000000 1.000000 0.000000
-0.146747 0.560997 0.957551 238 160 130 -0.197047 0.000000 0.980394
-0.418542 0.487050 0.879612 238 160 130 -0.004995 0.999938 0.009997
-0.731876 0.474114 0.229641 238 160 130 0.000000 -1.000000 0.000000
-0.159119 0.569230 0.409210 238 160 130 -0.000001 -1.000000 0.000004
-0.471318 0.474114 0.564451 238 160 130 0.000000 -1.000000 0.000000
-0.202158 0.640016 0.274796 238 160 130 0.000000 1.000000 0.000000
-0.308243 0.550030 0.925724 238 160 130 -0.969687 0.008157 0.244214
-0.714212 0.640016 0.406058 238 160 130 0.000000 1.000000 0.000000
-0.077496 0.524587 0.691692 238 160 130 0.067227 0.000000 -0.997738
-0.898532 0.640016 0.357840 238 160 130 0.000000 1.000000 0.000000
-0.076499 0.640016 0.590266 238 160 130 0.000000 1.000000 0.000000
-0.572122 0.640016 0.350539 238 160 130 0.000000 1.000000 0.000000
-0.652400 0.487089 0.718630 238 160 130 -0.007377 0.999938 0.008385
-0.585885 0.640016 0.540646 238 160 130 0.000000 1.000000 0.000000
-0.577279 0.640016 0.655890 238 160 130 0.000000 1.000000 0.000000
-0.018734 0.522518 0.980044 238 160 130 -0.124041 0.034771 0.991668
-0.025020 0.569229 0.311765 238 160 130 0.000000 -1.000000 0.000004
-0.485762 0.569230 0.132138 238 160 130 -0.000004 -1.000000 0.000000
-0.219636 0.474114 0.747021 238 160 130 0.000000 -1.000000 0.000000
-0.324691 0.640016 0.665394 238 160 130 0.000000 1.000000 0.000000
-0.256965 0.474114 0.794166 238 160 130 0.000000 -1.000000 0.000000
-0.278187 0.640016 0.702821 238 160 130 0.000000 1.000000 0.000000
-0.357565 0.640016 0.241334 238 160 130 0.000000 1.000000 0.000000
-0.255322 0.640016 0.574314 238 160 130 0.000000 1.000000 0.000000
-0.216879 0.640016 0.200862 238 160 130 0.000000 1.000000 0.000000
-0.037500 0.569228 0.073238 238 160 130 -0.000002 -1.000000 0.000003
-0.373776 0.506204 0.904380 238 160 130 -0.672078 -0.256701 0.694561
-0.620666 0.640016 0.318298 238 160 130 0.000000 1.000000 0.000000
-0.235117 0.487041 0.946482 238 160 130 -0.002202 0.999938 0.010958
-0.415586 0.569230 0.399180 238 160 130 0.000000 -1.000000 0.000000
-0.493555 0.514042 0.492488 238 160 130 0.750827 0.000000 -0.660499
-0.178677 0.640016 0.545016 238 160 130 0.000000 1.000000 0.000000
-0.884523 0.573544 0.395885 238 160 130 -0.894567 0.000000 0.446934
-0.241292 0.553953 0.944724 238 160 130 -0.401804 -0.041161 0.914800
-0.278757 0.640016 0.741190 238 160 130 0.000000 1.000000 0.000000
-0.142738 0.640016 0.556752 238 160 130 0.000000 1.000000 0.000000
-0.796608 0.474114 0.520499 238 160 130 0.000000 -1.000000 0.000000
-0.494086 0.640016 0.206906 238 160 130 0.000000 1.000000 0.000000
-0.015778 0.569228 0.024961 238 160 130 -0.000002 -1.000000 0.000004
-0.393381 0.525427 0.574044 238 160 130 0.558877 0.000000 -0.829251
-0.713024 0.640016 0.156725 238 160 130 0.000000 1.000000 0.000000
-0.140523 0.640016 0.669070 238 160 130 0.000000 1.000000 0.000000
-0.431686 0.640016 0.675863 238 160 130 0.000000 1.000000 0.000000
-0.233214 0.569230 0.334597 238 160 130 -0.000002 -1.000000 0.000004
-0.463790 0.474114 0.843950 238 160 130 0.000000 -1.000000 0.000000
-0.276831 0.640016 0.926101 238 160 130 0.000000 1.000000 -0.000001
-0.283753 0.640016 0.217059 238 160 130 0.000000 1.000000 0.000000
-0.004231 0.640016 0.678484 238 160 130 0.000000 1.000000 0.000000
-0.229983 0.516248 0.656640 238 160 130 0.325694 0.000000 -0.945475
-0.168910 0.474114 0.903461 238 160 130 0.000000 -1.000000 0.000000
-0.896108 0.580597 0.370862 238 160 130 -0.945464 0.000000 0.325728
-0.824738 0.640016 0.295305 238 160 130 0.000000 1.000000 0.000000
-0.901939 0.541670 0.382524 238 160 130 -0.952344 -0.058784 0.299308
-0.691561 0.474114 0.542899 238 160 130 0.000000 -1.000000 0.000000
-0.937936 0.531159 0.280602 238 160 130 -0.993638 -0.071846 -0.086729
-0.521553 0.640016 0.494224 238 160 130 0.000000 1.000000 0.000000
-0.402813 0.569230 0.095607 238 160 130 -0.000004 -1.000000 0.000000
-0.877987 0.568252 0.408968 238 160 130 -0.894567 0.000000 0.446934
-0.802545 0.638005 0.562165 238 160 130 -0.782285 0.332019 0.527061
-0.687070 0.474114 0.369940 238 160 130 0.000000 -1.000000 0.000000
-0.064964 0.640016 0.707736 238 160 130 0.000000 1.000000 0.000000
-0.578730 0.505793 0.788440 238 160 130 0.156525 0.872249 0.463338
-0.486703 0.640016 0.193327 238 160 130 0.000000 1.000000 0.000000
-0.765264 0.640016 0.056649 238 160 130 0.000000 1.000000 0.000000
-0.622033 0.640016 0.493112 238 160 130 0.000000 1.000000 0.000000
-0.912588 0.515778 0.351160 238 160 130 -0.036340 0.453395 0.890568
-0.009866 0.569230 0.403535 238 160 130 0.000000 -1.000000 0.000004
-0.551927 0.640016 0.016119 238 160 130 0.000000 1.000000 0.000000
-0.222089 0.640016 0.041574 238 160 130 0.000000 1.000000 0.000000
-0.295253 0.501211 0.934192 238 160 130 -0.538699 -0.008272 0.842458
-0.555960 0.539456 0.420211 238 160 130 0.829261 0.000000 -0.558862
-0.571467 0.631194 0.807733 238 160 130 0.000000 1.000000 0.000000
-0.174998 0.569230 0.571439 238 160 130 0.000000 -1.000000 0.000000
-0.019699 0.640016 0.279594 238 160 130 0.000000 1.000000 0.000000
-0.598554 0.474114 0.391365 238 160 130 0.000000 -1.000000 0.000000
-0.129513 0.569229 0.262554 238 160 130 -0.000002 -1.000000 0.000003
-0.435689 0.640016 0.495595 238 160 130 0.000000 1.000000 0.000000
-0.796665 0.474114 0.406866 238 160 130 0.000000 -1.000000 0.000000
-0.125573 0.569230 0.428873 238 160 130 -0.000001 -1.000000 0.000004
-0.216131 0.640016 0.863951 238 160 130 0.000000 1.000000 0.000000
-0.886526 0.574947 0.391875 238 160 130 -0.894567 0.000000 0.446934
-0.687866 0.569230 0.033396 238 160 130 0.000000 -1.000000 0.000000
-0.900914 0.563923 0.369039 238 160 130 0.314769 0.947549 -0.055427
-0.673945 0.474114 0.541808 238 160 130 0.000000 -1.000000 0.000000
-0.278709 0.640016 0.189822 238 160 130 0.000000 1.000000 0.000000
-0.763029 0.474114 0.171123 238 160 130 0.000000 -1.000000 0.000000
-0.975655 0.484592 0.109628 238 160 130 -0.997747 0.000000 0.067089
-0.062010 0.533970 0.977039 238 160 130 -0.406428 -0.143829 0.902291
-0.221390 0.569229 0.254267 238 160 130 -0.000003 -1.000000 0.000003
-0.587399 0.569230 0.246634 238 160 130 0.000000 -1.000000 0.000000
-0.855839 0.474114 0.268852 238 160 130 0.000000 -1.000000 0.000000
-0.004520 0.512161 0.696609 238 160 130 0.067227 0.000000 -0.997738
-0.667377 0.497550 0.198791 238 160 130 0.945475 0.000000 -0.325693
-0.523100 0.569230 0.164096 238 160 130 0.000000 -1.000000 0.000000
-0.244782 0.640016 0.070483 238 160 130 0.000000 1.000000 0.000000
-0.715979 0.534056 0.651990 238 160 130 -0.750812 0.000000 0.660516
-0.967938 0.549535 0.025743 238 160 130 -0.997738 0.000000 0.067220
-0.547721 0.553345 0.430914 238 160 130 0.750827 0.000000 -0.660499
-0.359670 0.569229 0.030828 238 160 130 -0.000004 -1.000000 0.000000
-0.321579 0.640016 0.234336 238 160 130 0.000000 1.000000 0.000000
-0.452554 0.569230 0.118594 238 160 130 -0.000004 -1.000000 0.000000
-0.966696 0.570584 0.159418 238 160 130 -0.986760 -0.040681 0.157004
-0.305173 0.538773 0.918744 238 160 130 -0.325728 0.000000 0.945464
-0.899638 0.558670 0.360615 238 160 130 -0.945464 0.000000 0.325728
-0.503969 0.492311 0.480650 238 160 130 0.750827 0.000000 -0.660499
-0.210125 0.640016 0.416407 238 160 130 0.000000 1.000000 0.000000
-0.824524 0.474114 0.172506 238 160 130 0.000000 -1.000000 0.000000
-0.969704 0.610526 0.204163 238 160 130 0.000000 -1.000000 0.000000
-0.688798 0.640016 0.014472 238 160 130 0.000000 1.000000 0.000000
-0.683722 0.585592 0.696168 238 160 130 0.000000 -1.000000 0.000000
-0.926237 0.555973 0.318970 238 160 130 -0.954939 0.016740 0.296330
