ply
format ascii 1.0
element vertex 728
property float x
property float y
property float z
property uchar red
property uchar green
property uchar blue
property float nx
property float ny
property float nz
end_header
0.320954 0.622323 0.919016 59 128 235 0.310318 0.000000 0.950633
0.455229 0.491684 0.151230 59 128 235 0.000000 -1.000000 0.000000
0.641381 0.638306 0.409159 59 128 235 0.000000 1.000000 0.000000
0.538174 0.638306 0.404937 59 128 235 0.000000 1.000000 0.000000
0.483783 0.491684 0.163482 59 128 235 0.000000 -1.000000 0.000000
0.084619 0.638306 0.534534 59 128 235 0.000000 1.000000 0.000000
0.552524 0.638306 0.403687 59 128 235 0.000000 1.000000 0.000000
0.127631 0.491684 0.479183 59 128 235 0.000000 -1.000000 0.000000
0.441084 0.638306 0.217162 59 128 235 0.000000 1.000000 0.000000
0.161696 0.638306 0.948698 59 128 235 0.000000 1.000000 0.000000
0.295036 0.638306 0.275655 59 128 235 0.000000 1.000000 0.000000
0.334223 0.491684 0.451336 59 128 235 0.000000 -1.000000 0.000000
0.977287 0.489283 0.085702 59 128 235 -0.954621 0.286696 -0.080652
0.771434 0.638306 0.231233 59 128 235 0.000000 1.000000 0.000000
0.658837 0.491684 0.359523 59 128 235 0.000000 -1.000000 0.000000
0.598603 0.617484 0.761260 59 128 235 -0.617725 0.110238 -0.778629
0.134331 0.638306 0.650425 59 128 235 0.000000 1.000000 0.000000
0.522183 0.491684 0.718561 59 128 235 0.000000 -1.000000 0.000000
0.430796 0.638306 0.696991 59 128 235 0.000000 1.000000 0.000000
0.678231 0.491684 0.223310 59 128 235 0.000000 -1.000000 0.000000
0.954762 0.495588 0.232471 59 128 235 -0.787860 0.576867 -0.215640
0.184375 0.638306 0.106440 59 128 235 0.000000 1.000000 0.000000
0.172101 0.638306 0.386100 59 128 235 0.000000 1.000000 0.000000
0.154895 0.491684 0.240296 59 128 235 0.000000 -1.000000 0.000000
0.324570 0.638306 0.433781 59 128 235 0.000000 1.000000 0.000000
0.606089 0.638306 0.707365 59 128 235 0.000000 1.000000 0.000000
0.472763 0.491684 0.640765 59 128 235 0.000000 -1.000000 0.000000
0.326430 0.638306 0.794788 59 128 235 0.000000 1.000000 0.000000
0.403898 0.563285 0.886996 59 128 235 0.393198 0.000000 0.919454
0.973536 0.494754 0.180980 59 128 235 0.984575 0.000000 0.174962
0.192643 0.638306 0.543150 59 128 235 0.000000 1.000000 0.000000
0.635675 0.638306 0.240428 59 128 235 0.000000 1.000000 0.000000
0.929880 0.491684 0.214736 59 128 235 0.000000 -1.000000 0.000000
0.885905 0.634477 0.426076 59 128 235 -0.726446 0.591275 -0.350242
0.581942 0.638306 0.578744 59 128 235 0.000000 1.000000 0.000000
0.246313 0.491684 0.118388 59 128 235 0.000000 -1.000000 0.000000
0.757711 0.496547 0.630372 59 128 235 0.592425 0.614973 0.520424
0.486064 0.638306 0.309510 59 128 235 0.000000 1.000000 0.000000
0.152690 0.638306 0.304480 59 128 235 0.000000 1.000000 0.000000
0.752312 0.491684 0.078595 59 128 235 0.000000 -1.000000 0.000000
0.310176 0.491684 0.108145 59 128 235 0.000000 -1.000000 0.000000
0.335915 0.638306 0.300202 59 128 235 0.000000 1.000000 0.000000
0.417789 0.491684 0.794681 59 128 235 0.000000 -1.000000 0.000000
0.515853 0.638306 0.659789 59 128 235 0.000000 1.000000 0.000000
0.128919 0.541140 0.963212 59 128 235 0.138727 0.000000 0.990331
0.278756 0.638306 0.493347 59 128 235 0.000000 1.000000 0.000000
0.342204 0.638306 0.193916 59 128 235 0.000000 1.000000 0.000000
0.851780 0.638306 0.217399 59 128 235 0.000000 1.000000 0.000000
0.995604 0.467391 0.015204 59 128 235 0.958220 -0.285951 -0.006816
0.157089 0.491684 0.162135 59 128 235 0.000000 -1.000000 0.000000
0.850793 0.638306 0.289303 59 128 235 0.000000 1.000000 0.000000
0.589895 0.491684 0.408586 59 128 235 0.000000 -1.000000 0.000000
0.706591 0.491684 0.010195 59 128 235 0.000000 -1.000000 0.000000
0.132416 0.491684 0.471439 59 128 235 0.000000 -1.000000 0.000000
0.154209 0.481171 0.968945 59 128 235 0.137717 0.119191 0.983274
0.045714 0.629725 0.961947 59 128 235 -0.047961 0.355590 -0.933411
0.394052 0.638306 0.470982 59 128 235 0.000000 1.000000 0.000000
0.540542 0.638306 0.144301 59 128 235 0.000000 1.000000 0.000000
0.387561 0.491684 0.441092 59 128 235 0.000000 -1.000000 0.000000
0.157236 0.638306 0.201662 59 128 235 0.000000 1.000000 0.000000
0.594909 0.491684 0.345896 59 128 235 0.000000 -1.000000 0.000000
0.075584 0.638306 0.056244 59 128 235 0.000000 1.000000 0.000000
0.595475 0.491684 0.065115 59 128 235 0.000000 -1.000000 0.000000
0.228941 0.638306 0.175858 59 128 235 0.000000 1.000000 0.000000
0.846174 0.613826 0.505387 59 128 235 0.857608 0.000000 0.514305
0.217344 0.638306 0.373946 59 128 235 0.000000 1.000000 0.000000
0.315946 0.638306 0.350626 59 128 235 0.000000 1.000000 0.000000
0.546343 0.638306 0.431048 59 128 235 0.000000 1.000000 0.000000
0.442207 0.638306 0.414573 59 128 235 0.000000 1.000000 0.000000
0.525076 0.491684 0.315952 59 128 235 0.000000 -1.000000 0.000000
0.670424 0.638306 0.114032 59 128 235 0.000000 1.000000 0.000000
0.780592 0.638306 0.018144 59 128 235 0.000000 1.000000 0.000000
0.594667 0.491684 0.685730 59 128 235 0.000000 -1.000000 0.000000
0.259785 0.491684 0.436611 59 128 235 0.000000 -1.000000 0.000000
0.721663 0.491684 0.493842 59 128 235 0.000000 -1.000000 0.000000
0.897866 0.590923 0.410584 59 128 235 0.900756 0.000000 0.434325
0.722359 0.618159 0.651029 59 128 235 -0.747070 0.105637 -0.656298
0.691392 0.544382 0.695651 59 128 235 0.689204 0.000000 0.724568
0.643057 0.524640 0.739297 59 128 235 0.621531 0.000000 0.783390
0.313653 0.638306 0.020147 59 128 235 0.000000 1.000000 0.000000
0.336459 0.638306 0.473915 59 128 235 0.000000 1.000000 0.000000
0.416669 0.579173 0.881535 59 128 235 0.393198 0.000000 0.919454
0.256885 0.491684 0.140571 59 128 235 0.000000 -1.000000 0.000000
0.049325 0.638306 0.554225 59 128 235 0.000000 1.000000 0.000000
0.618428 0.638306 0.364454 59 128 235 0.000000 1.000000 0.000000
0.686459 0.529551 0.700343 59 128 235 0.689204 0.000000 0.724568
0.208398 0.491684 0.374459 59 128 235 0.000000 -1.000000 0.000000
0.695138 0.638306 0.289839 59 128 235 0.000000 1.000000 0.000000
0.157329 0.499297 0.956553 59 128 235 -0.046860 0.941252 -0.334437
0.991059 0.539927 0.030475 59 128 235 0.999975 0.000000 -0.007105
0.899399 0.634644 0.398369 59 128 235 -0.726446 0.591275 -0.350242
0.213519 0.638306 0.012260 59 128 235 0.000000 1.000000 0.000000
0.978258 0.498974 0.135778 59 128 235 -0.405736 0.911140 -0.072125
0.535695 0.491684 0.537636 59 128 235 0.000000 -1.000000 0.000000
0.124438 0.638306 0.021024 59 128 235 0.000000 1.000000 0.000000
0.147365 0.491684 0.774615 59 128 235 0.000000 -1.000000 0.000000
0.796864 0.638306 0.211071 59 128 235 0.000000 1.000000 0.000000
0.742418 0.491684 0.461133 59 128 235 0.000000 -1.000000 0.000000
0.897623 0.491684 0.273019 59 128 235 0.000000 -1.000000 0.000000
0.483387 0.638306 0.656826 59 128 235 0.000000 1.000000 0.000000
0.167277 0.491684 0.954933 59 128 235 0.000000 -1.000000 0.000000
0.970511 0.473669 0.226570 59 128 235 0.960105 -0.095894 0.262683
0.165193 0.491684 0.147389 59 128 235 0.000000 -1.000000 0.000000
0.507555 0.638306 0.043836 59 128 235 0.000000 1.000000 0.000000
0.990202 0.633761 0.098586 59 128 235 0.818929 0.569723 0.069075
0.238866 0.571366 0.942797 59 128 235 0.225471 0.000000 0.974250
0.678873 0.638306 0.453258 59 128 235 0.000000 1.000000 0.000000
0.362217 0.491684 0.529539 59 128 235 0.000000 -1.000000 0.000000
0.515572 0.491684 0.397746 59 128 235 0.000000 -1.000000 0.000000
0.631492 0.638306 0.514057 59 128 235 0.000000 1.000000 0.000000
0.266410 0.491684 0.151816 59 128 235 0.000000 -1.000000 0.000000
0.415509 0.491684 0.715906 59 128 235 0.000000 -1.000000 0.000000
0.053897 0.638306 0.802867 59 128 235 0.000000 1.000000 0.000000
0.943148 0.623870 0.299747 59 128 235 0.936456 0.000000 0.350786
0.967946 0.598173 0.217225 59 128 235 0.393206 -0.913133 0.107597
0.573959 0.491684 0.289429 59 128 235 0.000000 -1.000000 0.000000
0.312017 0.638306 0.891461 59 128 235 0.000000 1.000000 0.000000
0.981167 0.519216 0.138038 59 128 235 0.984575 0.000000 0.174962
0.717086 0.638306 0.114476 59 128 235 0.000000 1.000000 0.000000
0.893457 0.491684 0.374180 59 128 235 0.000000 -1.000000 0.000000
0.050144 0.491684 0.923814 59 128 235 0.000000 -1.000000 0.000000
0.214354 0.491684 0.697470 59 128 235 0.000000 -1.000000 0.000000
0.167833 0.638306 0.686125 59 128 235 0.000000 1.000000 0.000000
0.594108 0.491684 0.373234 59 128 235 0.000000 -1.000000 0.000000
0.842957 0.469300 0.491783 59 128 235 -0.816118 -0.307171 -0.489486
0.306221 0.491684 0.320637 59 128 235 0.000000 -1.000000 0.000000
0.151664 0.491684 0.450731 59 128 235 0.000000 -1.000000 0.000000
0.155074 0.503536 0.959548 59 128 235 0.138727 0.000000 0.990331
0.201380 0.638306 0.245016 59 128 235 0.000000 1.000000 0.000000
0.436302 0.491684 0.412002 59 128 235 0.000000 -1.000000 0.000000
0.247563 0.638306 0.145749 59 128 235 0.000000 1.000000 0.000000
0.681414 0.491684 0.380823 59 128 235 0.000000 -1.000000 0.000000
0.671949 0.638306 0.547802 59 128 235 0.000000 1.000000 0.000000
0.412439 0.638306 0.500584 59 128 235 0.000000 1.000000 0.000000
0.370400 0.638306 0.632572 59 128 235 0.000000 1.000000 0.000000
0.591078 0.638306 0.184089 59 128 235 0.000000 1.000000 0.000000
0.728483 0.609320 0.672978 59 128 235 0.711864 -0.319741 0.625312
0.827195 0.491684 0.261942 59 128 235 0.000000 -1.000000 0.000000
0.522030 0.638306 0.709613 59 128 235 0.000000 1.000000 0.000000
0.011774 0.491684 0.857134 59 128 235 0.000000 -1.000000 0.000000
0.614721 0.608192 0.773459 59 128 235 0.586464 -0.331315 0.739114
0.332799 0.638306 0.447846 59 128 235 0.000000 1.000000 0.000000
0.957619 0.620247 0.249109 59 128 235 0.964524 0.000000 0.263996
0.973879 0.518126 0.179052 59 128 235 0.984575 0.000000 0.174962
0.603918 0.638306 0.528363 59 128 235 0.000000 1.000000 0.000000
0.448395 0.638306 0.622528 59 128 235 0.000000 1.000000 0.000000
0.663002 0.638306 0.018740 59 128 235 0.000000 1.000000 0.000000
0.310501 0.481013 0.908825 59 128 235 -0.308160 0.116773 -0.944141
0.221311 0.488873 0.954909 59 128 235 0.211037 0.352441 0.911729
0.845128 0.561044 0.507132 59 128 235 0.857608 0.000000 0.514305
0.190905 0.638306 0.317342 59 128 235 0.000000 1.000000 0.000000
0.088680 0.465922 0.958502 59 128 235 -0.038480 -0.660630 -0.749725
0.742628 0.596624 0.642997 59 128 235 0.751304 0.000000 0.659957
0.722460 0.482046 0.677220 59 128 235 0.685202 0.107861 0.720322
0.939665 0.621809 0.334059 59 128 235 0.931978 0.097603 0.349130
0.511013 0.638306 0.027211 59 128 235 0.000000 1.000000 0.000000
0.092713 0.491684 0.335605 59 128 235 0.000000 -1.000000 0.000000
0.025791 0.638306 0.750532 59 128 235 0.000000 1.000000 0.000000
0.730899 0.491684 0.200227 59 128 235 0.000000 -1.000000 0.000000
0.696851 0.541558 0.690458 59 128 235 0.689204 0.000000 0.724568
0.807074 0.638306 0.184988 59 128 235 0.000000 1.000000 0.000000
0.475450 0.491684 0.842603 59 128 235 0.000000 -1.000000 -0.000001
0.248640 0.499214 0.939499 59 128 235 0.076638 0.940469 0.331126
0.383368 0.638306 0.790017 59 128 235 0.000000 1.000000 0.000000
0.158418 0.538716 0.959079 59 128 235 0.138727 0.000000 0.990331
0.114500 0.491684 0.218853 59 128 235 0.000000 -1.000000 0.000000
0.400878 0.619610 0.899927 59 128 235 0.390611 0.115594 0.913270
0.318292 0.491684 0.382009 59 128 235 0.000000 -1.000000 0.000000
0.778601 0.638306 0.408547 59 128 235 0.000000 1.000000 0.000000
0.830443 0.638306 0.206481 59 128 235 0.000000 1.000000 0.000000
0.633484 0.638306 0.119672 59 128 235 0.000000 1.000000 0.000000
0.354478 0.638306 0.660590 59 128 235 0.000000 1.000000 0.000000
0.744422 0.638306 0.410461 59 128 235 0.000000 1.000000 0.000000
0.521626 0.638306 0.413838 59 128 235 0.000000 1.000000 0.000000
0.037460 0.491684 0.527826 59 128 235 0.000000 -1.000000 0.000000
0.446887 0.638306 0.322248 59 128 235 0.000000 1.000000 0.000000
0.386507 0.487245 0.881292 59 128 235 -0.390564 0.115465 -0.913306
0.255768 0.532153 0.938885 59 128 235 0.225471 0.000000 0.974250
0.712611 0.501019 0.675467 59 128 235 0.689204 0.000000 0.724568
0.045088 0.491684 0.781949 59 128 235 0.000000 -1.000000 0.000000
0.115602 0.627832 0.974314 59 128 235 0.129678 0.355278 0.925722
0.268673 0.491684 0.454379 59 128 235 0.000000 -1.000000 0.000000
0.055354 0.638306 0.763505 59 128 235 0.000000 1.000000 0.000000
0.671835 0.635467 0.718367 59 128 235 0.253488 0.929908 0.266488
0.316042 0.638306 0.664069 59 128 235 0.000000 1.000000 0.000000
0.673979 0.544866 0.712213 59 128 235 0.689204 0.000000 0.724568
0.949170 0.604141 0.254574 59 128 235 -0.922463 -0.292083 -0.252487
0.290574 0.638306 0.244743 59 128 235 0.000000 1.000000 0.000000
0.562473 0.638306 0.780435 59 128 235 0.000000 1.000000 0.000000
0.694534 0.638306 0.489205 59 128 235 0.000000 1.000000 0.000000
0.364614 0.491684 0.361523 59 128 235 0.000000 -1.000000 0.000000
0.029045 0.638306 0.793611 59 128 235 0.000000 1.000000 0.000000
0.476773 0.491684 0.232784 59 128 235 0.000000 -1.000000 0.000000
0.112034 0.556576 0.027205 59 128 235 0.875664 -0.404023 0.264535
0.066630 0.491684 0.877495 59 128 235 0.000000 -1.000000 0.000000
0.867323 0.638306 0.012953 59 128 235 0.000000 1.000000 0.000000
0.236381 0.491684 0.884149 59 128 235 0.000000 -1.000000 0.000000
0.165100 0.491684 0.723636 59 128 235 0.000000 -1.000000 0.000000
0.647947 0.491684 0.465679 59 128 235 0.000000 -1.000000 0.000000
0.624798 0.638306 0.619164 59 128 235 0.000000 1.000000 0.000000
0.092947 0.594551 0.093243 59 128 235 0.557152 -0.466215 0.687186
0.456128 0.638306 0.668921 59 128 235 0.000000 1.000000 0.000000
0.205382 0.638306 0.588390 59 128 235 0.000000 1.000000 0.000000
0.879558 0.491684 0.021805 59 128 235 0.000000 -1.000000 0.000000
0.755289 0.491684 0.289712 59 128 235 0.000000 -1.000000 0.000000
0.411664 0.491684 0.050420 59 128 235 0.000000 -1.000000 0.000000
0.583393 0.491684 0.031747 59 128 235 0.000000 -1.000000 0.000000
0.618832 0.491684 0.273866 59 128 235 0.000000 -1.000000 0.000000
0.790983 0.491684 0.105459 59 128 235 0.000000 -1.000000 0.000000
0.617544 0.598743 0.763688 59 128 235 0.224681 -0.932381 0.283168
0.488530 0.491684 0.138249 59 128 235 0.000000 -1.000000 0.000000
0.234006 0.491684 0.679591 59 128 235 0.000000 -1.000000 0.000000
0.892532 0.484533 0.396510 59 128 235 -0.896342 0.098650 -0.432249
0.725765 0.638306 0.138265 59 128 235 0.000000 1.000000 0.000000
0.115865 0.491684 0.100151 59 128 235 0.000000 -1.000000 0.000000
0.652487 0.491684 0.335274 59 128 235 0.000000 -1.000000 0.000000
0.736360 0.638306 0.105171 59 128 235 0.000000 1.000000 0.000000
0.206923 0.491684 0.418571 59 128 235 0.000000 -1.000000 0.000000
0.225998 0.491684 0.144151 59 128 235 0.000000 -1.000000 0.000000
0.001481 0.498835 0.968250 59 128 235 0.012440 0.941364 -0.337164
0.257903 0.638306 0.613292 59 128 235 0.000000 1.000000 0.000000
0.467911 0.491684 0.764832 59 128 235 0.000000 -1.000000 0.000000
0.005742 0.491684 0.905302 59 128 235 0.000000 -1.000000 0.000000
0.795176 0.491684 0.467138 59 128 235 0.000000 -1.000000 0.000000
0.057796 0.638306 0.252305 59 128 235 0.000000 1.000000 0.000000
0.563147 0.638306 0.238942 59 128 235 0.000000 1.000000 0.000000
0.692234 0.491684 0.665766 59 128 235 0.000000 -1.000000 0.000000
0.734418 0.471496 0.662819 59 128 235 0.711927 -0.319528 0.625349
0.081896 0.511257 0.052455 59 128 235 0.744184 -0.258401 0.615970
0.479420 0.469615 0.837720 59 128 235 -0.444400 -0.341920 -0.828009
0.957527 0.480453 0.276180 59 128 235 0.960108 0.095894 0.262671
0.772357 0.491684 0.131464 59 128 235 0.000000 -1.000000 0.000000
0.359323 0.491684 0.639504 59 128 235 0.000000 -1.000000 0.000000
0.206880 0.638306 0.833985 59 128 235 0.000000 1.000000 0.000000
0.836154 0.638306 0.283237 59 128 235 0.000000 1.000000 0.000000
0.799315 0.638306 0.328769 59 128 235 0.000000 1.000000 0.000000
0.842383 0.618753 0.530073 59 128 235 0.853263 0.101154 0.511576
0.035969 0.496249 0.974838 59 128 235 0.038473 0.659853 0.750409
0.072375 0.632973 0.975240 59 128 235 0.038460 0.660374 0.749951
0.375119 0.638306 0.680367 59 128 235 0.000000 1.000000 0.000000
0.076765 0.491684 0.873357 59 128 235 0.000000 -1.000000 0.000000
0.631707 0.623002 0.748303 59 128 235 0.621531 0.000000 0.783390
0.743463 0.491684 0.520356 59 128 235 0.000000 -1.000000 0.000000
0.436084 0.491684 0.546185 59 128 235 0.000000 -1.000000 0.000000
0.875717 0.638306 0.267252 59 128 235 0.000000 1.000000 0.000000
0.183651 0.491684 0.492976 59 128 235 0.000000 -1.000000 0.000000
0.175469 0.491684 0.014551 59 128 235 0.000000 -1.000000 0.000000
0.073921 0.491684 0.138300 59 128 235 0.000000 -1.000000 0.000000
0.506400 0.638306 0.531841 59 128 235 0.000000 1.000000 0.000000
0.477908 0.638306 0.124345 59 128 235 0.000000 1.000000 0.000000
0.525372 0.491684 0.704624 59 128 235 0.000000 -1.000000 0.000000
0.072427 0.638306 0.658327 59 128 235 0.000000 1.000000 0.000000
0.747477 0.638306 0.222553 59 128 235 0.000000 1.000000 0.000000
0.176138 0.638306 0.291148 59 128 235 0.000000 1.000000 0.000000
0.214672 0.461396 0.943766 59 128 235 -0.076613 -0.940492 -0.331066
0.776501 0.491684 0.107977 59 128 235 0.000000 -1.000000 0.000000
0.374055 0.638306 0.014633 59 128 235 0.000000 1.000000 0.000000
0.941544 0.494824 0.314938 59 128 235 0.760972 0.582759 0.285154
0.664083 0.491684 0.086443 59 128 235 0.000000 -1.000000 0.000000
0.426369 0.638306 0.733982 59 128 235 0.000000 1.000000 0.000000
0.087400 0.638306 0.864745 59 128 235 0.000000 1.000000 0.000000
0.430867 0.617667 0.875463 59 128 235 0.393198 0.000000 0.919454
0.242155 0.638306 0.935291 59 128 235 0.000000 1.000000 0.000000
0.197042 0.627657 0.961880 59 128 235 0.211001 0.353012 0.911516
0.519333 0.567762 0.828050 59 128 235 0.549446 0.000000 0.835529
0.888980 0.491684 0.362031 59 128 235 0.000000 -1.000000 0.000000
0.452901 0.584119 0.864266 59 128 235 0.472920 0.000000 0.881105
0.294314 0.638306 0.346761 59 128 235 0.000000 1.000000 0.000000
0.009368 0.638306 0.937833 59 128 235 0.000000 1.000000 0.000000
0.418001 0.474024 0.890026 59 128 235 0.390596 -0.115811 0.913248
0.011720 0.520745 0.972156 59 128 235 0.051219 0.000000 0.998687
0.500359 0.469667 0.826460 59 128 235 -0.444400 -0.341920 -0.828009
0.560317 0.603225 0.810126 59 128 235 0.517252 -0.337277 0.786572
0.136737 0.491684 0.404272 59 128 235 0.000000 -1.000000 0.000000
0.765274 0.638306 0.524245 59 128 235 0.000000 1.000000 0.000000
0.166168 0.491684 0.043991 59 128 235 0.000000 -1.000000 0.000000
0.485710 0.638306 0.229386 59 128 235 0.000000 1.000000 0.000000
0.640474 0.638306 0.295389 59 128 235 0.000000 1.000000 0.000000
0.649639 0.627876 0.744885 59 128 235 0.586453 0.331316 0.739123
0.323874 0.638306 0.773673 59 128 235 0.000000 1.000000 0.000000
0.129210 0.491684 0.206179 59 128 235 0.000000 -1.000000 0.000000
0.293862 0.638306 0.883472 59 128 235 0.000000 1.000000 0.000000
0.285035 0.491684 0.132766 59 128 235 0.000000 -1.000000 0.000000
0.097211 0.638306 0.587329 59 128 235 0.000000 1.000000 0.000000
0.186542 0.491684 0.237191 59 128 235 0.000000 -1.000000 0.000000
0.294010 0.491684 0.469954 59 128 235 0.000000 -1.000000 0.000000
0.306217 0.636252 0.922690 59 128 235 -0.106313 0.939484 -0.325681
0.166444 0.491684 0.160184 59 128 235 0.000000 -1.000000 0.000000
0.068348 0.491684 0.086213 59 128 235 0.000000 -1.000000 0.000000
0.576160 0.638306 0.077487 59 128 235 0.000000 1.000000 0.000000
0.081495 0.491684 0.488508 59 128 235 0.000000 -1.000000 0.000000
0.978346 0.503606 0.153917 59 128 235 0.984575 0.000000 0.174962
0.366085 0.491684 0.707439 59 128 235 0.000000 -1.000000 0.000000
0.758104 0.491691 0.625379 59 128 235 0.751304 0.000000 0.659957
0.157888 0.515252 0.959154 59 128 235 0.138727 0.000000 0.990331
0.672457 0.638306 0.154798 59 128 235 0.000000 1.000000 0.000000
0.057115 0.491684 0.102302 59 128 235 0.000000 -1.000000 0.000000
0.407871 0.638306 0.231206 59 128 235 0.000000 1.000000 0.000000
0.660643 0.491684 0.380434 59 128 235 0.000000 -1.000000 0.000000
0.589349 0.638306 0.388099 59 128 235 0.000000 1.000000 0.000000
0.270115 0.638306 0.252556 59 128 235 0.000000 1.000000 0.000000
0.699677 0.491684 0.193853 59 128 235 0.000000 -1.000000 0.000000
0.603413 0.638306 0.059561 59 128 235 0.000000 1.000000 0.000000
0.464864 0.491684 0.803952 59 128 235 0.000000 -1.000000 0.000000
0.414919 0.638306 0.174166 59 128 235 0.000000 1.000000 0.000000
0.783287 0.618632 0.595899 59 128 235 0.807774 0.000000 0.589492
0.917114 0.554578 0.369247 59 128 235 0.936456 0.000000 0.350786
0.579474 0.491684 0.778214 59 128 235 0.000000 -1.000000 0.000000
0.716547 0.638306 0.139146 59 128 235 0.000000 1.000000 0.000000
0.235602 0.491684 0.417633 59 128 235 0.000000 -1.000000 0.000000
0.433492 0.629456 0.883379 59 128 235 0.368885 0.346377 0.862524
0.970719 0.620386 0.147323 59 128 235 -0.980130 0.094851 -0.174211
0.712023 0.638306 0.134134 59 128 235 0.000000 1.000000 0.000000
0.439598 0.491684 0.130792 59 128 235 0.000000 -1.000000 0.000000
0.631676 0.638306 0.292178 59 128 235 0.000000 1.000000 0.000000
0.861505 0.586974 0.479823 59 128 235 0.857608 0.000000 0.514305
0.897875 0.599522 0.401473 59 128 235 -0.727254 -0.590050 -0.350631
0.028486 0.491684 0.103735 59 128 235 0.000000 -1.000000 0.000000
0.397854 0.638306 0.639422 59 128 235 0.000000 1.000000 0.000000
0.819758 0.491684 0.103264 59 128 235 0.000000 -1.000000 0.000000
0.158066 0.491684 0.609693 59 128 235 0.000000 -1.000000 0.000000
0.898158 0.509851 0.409979 59 128 235 0.900756 0.000000 0.434325
0.207824 0.491684 0.611291 59 128 235 0.000000 -1.000000 0.000000
0.877803 0.491684 0.219992 59 128 235 0.000000 -1.000000 0.000000
0.295416 0.638306 0.906891 59 128 235 0.000000 1.000000 0.000000
0.275920 0.491684 0.364252 59 128 235 0.000000 -1.000000 0.000000
0.836118 0.530823 0.522156 59 128 235 0.857608 0.000000 0.514305
0.020610 0.491684 0.785109 59 128 235 0.000000 -1.000000 0.000000
0.306136 0.638306 0.623065 59 128 235 0.000000 1.000000 0.000000
0.744473 0.491684 0.297979 59 128 235 0.000000 -1.000000 0.000000
0.086435 0.638306 0.935160 59 128 235 0.000000 1.000000 0.000000
0.463231 0.638306 0.284634 59 128 235 0.000000 1.000000 0.000000
0.621955 0.601023 0.763207 59 128 235 0.482184 -0.631030 0.607701
0.067366 0.491684 0.410671 59 128 235 0.000000 -1.000000 0.000000
0.217639 0.491684 0.799145 59 128 235 0.000000 -1.000000 0.000000
0.672161 0.638306 0.419235 59 128 235 0.000000 1.000000 0.000000
0.778034 0.638306 0.196940 59 128 235 0.000000 1.000000 0.000000
0.376233 0.491684 0.530602 59 128 235 0.000000 -1.000000 0.000000
0.180718 0.570109 0.955956 59 128 235 0.138727 0.000000 0.990331
0.585160 0.476070 0.794633 59 128 235 0.545984 -0.112296 0.830236
0.016319 0.529000 0.098292 59 128 235 0.100315 -0.254911 0.961747
0.145217 0.603413 0.952794 59 128 235 -0.129710 -0.354107 -0.926166
0.978293 0.495992 0.154213 59 128 235 0.984575 0.000000 0.174962
0.736368 0.601931 0.640890 59 128 235 -0.592309 -0.615157 -0.520339
0.115023 0.491684 0.942426 59 128 235 0.000000 -1.000000 0.000000
0.285971 0.491684 0.789764 59 128 235 0.000000 -1.000000 0.000000
0.881864 0.498176 0.431873 59 128 235 -0.356489 0.918348 -0.171911
0.690612 0.491684 0.554142 59 128 235 0.000000 -1.000000 0.000000
0.091989 0.614703 0.956981 59 128 235 -0.050913 -0.119074 -0.991579
0.488601 0.638306 0.008194 59 128 235 0.000000 1.000000 0.000000
0.756434 0.491684 0.437677 59 128 235 0.000000 -1.000000 0.000000
0.357284 0.574203 0.906931 59 128 235 0.393198 0.000000 0.919454
0.310648 0.638306 0.898238 59 128 235 0.000000 1.000000 0.000000
0.900016 0.638306 0.223655 59 128 235 0.000000 1.000000 0.000000
0.031866 0.491684 0.822822 59 128 235 0.000000 -1.000000 0.000000
0.917413 0.636294 0.368450 59 128 235 0.936456 0.000000 0.350786
0.135124 0.638306 0.713840 59 128 235 0.000000 1.000000 0.000000
0.070255 0.620206 0.980120 59 128 235 0.050884 0.119074 0.991581
0.134883 0.638306 0.042071 59 128 235 0.000000 1.000000 0.000000
0.508144 0.638306 0.156756 59 128 235 0.000000 1.000000 0.000000
0.679601 0.638306 0.663202 59 128 235 0.000000 1.000000 0.000000
0.793300 0.629692 0.594646 59 128 235 0.767330 0.312388 0.560016
0.216181 0.609675 0.948047 59 128 235 0.225471 0.000000 0.974250
0.623403 0.638306 0.215224 59 128 235 0.000000 1.000000 0.000000
0.263555 0.491684 0.877292 59 128 235 0.000000 -1.000000 0.000000
0.828334 0.491684 0.371597 59 128 235 0.000000 -1.000000 0.000000
0.419197 0.638306 0.778950 59 128 235 0.000000 1.000000 0.000000
0.392408 0.508446 0.891910 59 128 235 0.393198 0.000000 0.919454
0.140503 0.638306 0.204389 59 128 235 0.000000 1.000000 0.000000
0.065012 0.491684 0.152907 59 128 235 0.000000 -1.000000 0.000000
0.427293 0.638306 0.091178 59 128 235 0.000000 1.000000 0.000000
0.009915 0.599273 0.131823 59 128 235 0.091968 -0.462694 0.881735
0.479909 0.638306 0.277209 59 128 235 0.000000 1.000000 0.000000
0.416409 0.491684 0.533620 59 128 235 0.000000 -1.000000 0.000000
0.235863 0.638306 0.470518 59 128 235 0.000000 1.000000 0.000000
0.466866 0.608806 0.867779 59 128 235 0.444388 -0.342168 0.827913
0.445620 0.603356 0.859413 59 128 235 -0.444356 -0.342047 -0.827981
0.303853 0.638306 0.711927 59 128 235 0.000000 1.000000 0.000000
0.431548 0.491684 0.043492 59 128 235 0.000000 -1.000000 0.000000
0.314417 0.638306 0.159217 59 128 235 0.000000 1.000000 0.000000
0.989399 0.504948 0.056659 59 128 235 0.996455 0.000000 0.084130
0.089206 0.491684 0.527839 59 128 235 0.000000 -1.000000 0.000000
0.149082 0.635350 0.964027 59 128 235 0.046933 0.941025 0.335065
0.795180 0.491684 0.342745 59 128 235 0.000000 -1.000000 0.000000
0.956425 0.599815 0.253469 59 128 235 0.964524 0.000000 0.263996
0.056973 0.480707 0.979126 59 128 235 0.050958 0.119244 0.991556
0.860483 0.469617 0.462363 59 128 235 -0.816117 -0.307175 -0.489486
0.060605 0.491684 0.840925 59 128 235 0.000000 -1.000000 0.000000
0.464038 0.638306 0.389102 59 128 235 0.000000 1.000000 0.000000
0.681193 0.638306 0.087201 59 128 235 0.000000 1.000000 0.000000
0.241994 0.492989 0.931625 59 128 235 -0.210990 0.352430 -0.911744
0.742876 0.491684 0.080620 59 128 235 0.000000 -1.000000 0.000000
0.024577 0.638306 0.492702 59 128 235 0.000000 1.000000 0.000000
0.372013 0.578530 0.900632 59 128 235 0.393198 0.000000 0.919454
0.895085 0.491684 0.339775 59 128 235 0.000000 -1.000000 0.000000
0.034976 0.638306 0.113678 59 128 235 0.000000 1.000000 0.000000
0.321331 0.638306 0.196886 59 128 235 0.000000 1.000000 0.000000
0.543125 0.460906 0.808688 59 128 235 -0.195394 -0.934631 -0.297131
0.819300 0.597461 0.546551 59 128 235 0.807774 0.000000 0.589492
0.911214 0.471188 0.397278 59 128 235 0.859116 -0.300688 0.414134
0.034470 0.638306 0.629858 59 128 235 0.000000 1.000000 0.000000
0.472032 0.631148 0.853997 59 128 235 0.472920 0.000000 0.881105
0.203868 0.638306 0.343623 59 128 235 0.000000 1.000000 0.000000
0.381865 0.638306 0.520876 59 128 235 0.000000 1.000000 0.000000
0.009438 0.491684 0.087019 59 128 235 0.000000 -1.000000 0.000000
0.182868 0.491684 0.423620 59 128 235 0.000000 -1.000000 0.000000
0.607197 0.499346 0.765929 59 128 235 0.224593 0.932427 0.283086
0.938340 0.638306 0.222117 59 128 235 0.000000 1.000000 0.000000
0.530269 0.628295 0.831005 59 128 235 0.517276 0.337275 0.786556
0.003356 0.491684 0.558789 59 128 235 0.000000 -1.000000 0.000000
0.849489 0.638306 0.148823 59 128 235 0.000000 1.000000 0.000000
0.462607 0.638306 0.493288 59 128 235 0.000000 1.000000 0.000000
0.227173 0.638306 0.321309 59 128 235 0.000000 1.000000 0.000000
0.721844 0.636372 0.666658 59 128 235 0.751304 0.000000 0.659957
0.449485 0.638306 0.260325 59 128 235 0.000000 1.000000 0.000000
0.475439 0.638306 0.828976 59 128 235 0.000000 1.000000 0.000000
0.839346 0.638306 0.039743 59 128 235 0.000000 1.000000 0.000000
0.338501 0.491684 0.006006 59 128 235 0.000000 -1.000000 0.000000
0.111852 0.638306 0.036308 59 128 235 0.000000 1.000000 0.000000
0.726212 0.597552 0.661430 59 128 235 -0.281433 -0.927189 -0.247215
0.919100 0.494779 0.374942 59 128 235 0.760349 0.583723 0.284845
0.024255 0.491684 0.407424 59 128 235 0.000000 -1.000000 0.000000
0.955691 0.591361 0.256151 59 128 235 0.964524 0.000000 0.263996
0.718902 0.624848 0.669483 59 128 235 0.689204 0.000000 0.724568
0.883796 0.638306 0.117329 59 128 235 0.000000 1.000000 0.000000
0.507455 0.491684 0.549235 59 128 235 0.000000 -1.000000 0.000000
0.530017 0.491684 0.164424 59 128 235 0.000000 -1.000000 0.000000
0.914588 0.465734 0.385877 59 128 235 0.726648 -0.590967 0.350343
0.257500 0.493194 0.938485 59 128 235 0.225471 0.000000 0.974250
0.433540 0.613021 0.862872 59 128 235 -0.390544 -0.115663 -0.913290
0.201426 0.638306 0.852338 59 128 235 0.000000 1.000000 0.000000
0.649207 0.491684 0.160444 59 128 235 0.000000 -1.000000 0.000000
0.835627 0.544617 0.522975 59 128 235 0.857608 0.000000 0.514305
0.650685 0.491684 0.162046 59 128 235 0.000000 -1.000000 0.000000
0.491009 0.491684 0.773587 59 128 235 0.000000 -1.000000 0.000000
0.099977 0.491684 0.056382 59 128 235 0.000000 -1.000000 0.000000
0.430585 0.491684 0.295351 59 128 235 0.000000 -1.000000 0.000000
0.697943 0.491684 0.622062 59 128 235 0.000000 -1.000000 0.000000
0.648947 0.638306 0.727971 59 128 235 0.000000 1.000000 0.000000
0.809548 0.491684 0.543058 59 128 235 0.000000 -1.000000 0.000000
0.778244 0.491684 0.089472 59 128 235 0.000000 -1.000000 0.000000
0.250637 0.491684 0.155650 59 128 235 0.000000 -1.000000 0.000000
0.258599 0.638306 0.046698 59 128 235 0.000000 1.000000 0.000000
0.717164 0.618716 0.685049 59 128 235 0.685193 0.107852 0.720332
0.425432 0.638306 0.032909 59 128 235 0.000000 1.000000 0.000000
0.110906 0.638306 0.552486 59 128 235 0.000000 1.000000 0.000000
0.772944 0.603840 0.619561 59 128 235 0.711864 -0.319741 0.625312
0.571199 0.464953 0.783827 59 128 235 -0.422827 -0.638539 -0.643029
0.458214 0.491684 0.655652 59 128 235 0.000000 -1.000000 0.000000
0.335013 0.491684 0.699130 59 128 235 0.000000 -1.000000 0.000000
0.304745 0.638306 0.297973 59 128 235 0.000000 1.000000 0.000000
0.256183 0.491684 0.189540 59 128 235 0.000000 -1.000000 0.000000
0.216134 0.638306 0.727589 59 128 235 0.000000 1.000000 0.000000
0.001159 0.491684 0.093567 59 128 235 0.000000 -1.000000 0.000000
0.166829 0.491684 0.519649 59 128 235 0.000000 -1.000000 0.000000
0.605616 0.491684 0.161882 59 128 235 0.000000 -1.000000 0.000000
0.408727 0.638306 0.104895 59 128 235 0.000000 1.000000 0.000000
0.164958 0.619189 0.958163 59 128 235 0.138727 0.000000 0.990331
0.803612 0.638306 0.184511 59 128 235 0.000000 1.000000 0.000000
0.398648 0.604263 0.898116 59 128 235 0.368873 -0.346457 0.862497
0.573342 0.491684 0.191406 59 128 235 0.000000 -1.000000 0.000000
0.714747 0.491684 0.422026 59 128 235 0.000000 -1.000000 0.000000
0.023990 0.638306 0.287503 59 128 235 0.000000 1.000000 0.000000
0.675904 0.638306 0.607394 59 128 235 0.000000 1.000000 0.000000
0.973229 0.638306 0.110751 59 128 235 0.000000 1.000000 0.000000
0.610889 0.638306 0.240442 59 128 235 0.000000 1.000000 0.000000
0.517832 0.488636 0.837930 59 128 235 0.517304 0.336983 0.786663
0.535062 0.638306 0.417829 59 128 235 0.000000 1.000000 0.000000
0.388454 0.638306 0.461009 59 128 235 0.000000 1.000000 0.000000
0.451487 0.638306 0.721147 59 128 235 0.000000 1.000000 0.000000
0.270302 0.491684 0.055149 59 128 235 0.000000 -1.000000 0.000000
0.459012 0.491684 0.353233 59 128 235 0.000000 -1.000000 0.000000
0.397180 0.598025 0.891465 59 128 235 0.136050 -0.938231 0.318139
0.910755 0.638306 0.227490 59 128 235 0.000000 1.000000 0.000000
0.420005 0.491684 0.734306 59 128 235 0.000000 -1.000000 0.000000
0.137901 0.638306 0.403170 59 128 235 0.000000 1.000000 0.000000
0.309704 0.597584 0.922399 59 128 235 -0.106358 -0.939431 -0.325818
0.716406 0.491684 0.057973 59 128 235 0.000000 -1.000000 0.000000
0.105257 0.491684 0.123928 59 128 235 0.000000 -1.000000 0.000000
0.828856 0.491684 0.412303 59 128 235 0.000000 -1.000000 0.000000
0.055680 0.638306 0.499802 59 128 235 0.000000 1.000000 0.000000
0.082512 0.638306 0.566795 59 128 235 0.000000 1.000000 0.000000
0.519636 0.491684 0.569391 59 128 235 0.000000 -1.000000 0.000000
0.189069 0.491684 0.492030 59 128 235 0.000000 -1.000000 0.000000
0.964935 0.638306 0.056860 59 128 235 0.000000 1.000000 0.000000
0.237562 0.491684 0.918028 59 128 235 0.000000 -1.000000 0.000000
0.880333 0.513463 0.446946 59 128 235 0.900756 0.000000 0.434325
0.179101 0.491684 0.535527 59 128 235 0.000000 -1.000000 0.000000
0.296416 0.491684 0.714434 59 128 235 0.000000 -1.000000 0.000000
0.287889 0.491684 0.532295 59 128 235 0.000000 -1.000000 0.000000
0.626947 0.491684 0.417772 59 128 235 0.000000 -1.000000 0.000000
0.384586 0.491684 0.083460 59 128 235 0.000000 -1.000000 0.000000
0.094689 0.491684 0.884263 59 128 235 0.000000 -1.000000 0.000000
0.198648 0.638306 0.061893 59 128 235 0.000000 1.000000 0.000000
0.305362 0.613430 0.912851 59 128 235 -0.308169 -0.116841 -0.944129
0.718628 0.491684 0.291834 59 128 235 0.000000 -1.000000 0.000000
0.373315 0.573104 0.900075 59 128 235 0.393198 0.000000 0.919454
0.153723 0.638306 0.154660 59 128 235 0.000000 1.000000 0.000000
0.781872 0.638306 0.060254 59 128 235 0.000000 1.000000 0.000000
0.061581 0.638306 0.940973 59 128 235 0.000000 1.000000 0.000000
0.764429 0.491684 0.295755 59 128 235 0.000000 -1.000000 0.000000
0.075137 0.479528 0.955699 59 128 235 -0.050909 -0.118971 -0.991592
0.851772 0.605910 0.496052 59 128 235 0.857608 0.000000 0.514305
0.535375 0.638306 0.222580 59 128 235 0.000000 1.000000 0.000000
0.359525 0.610784 0.905972 59 128 235 0.393198 0.000000 0.919454
0.092047 0.638306 0.016847 59 128 235 0.000000 1.000000 0.000000
0.196893 0.491684 0.308527 59 128 235 0.000000 -1.000000 0.000000
0.319619 0.491684 0.639292 59 128 235 0.000000 -1.000000 0.000000
0.670239 0.491684 0.298982 59 128 235 0.000000 -1.000000 0.000000
0.410831 0.491684 0.679286 59 128 235 0.000000 -1.000000 0.000000
0.692041 0.491684 0.215219 59 128 235 0.000000 -1.000000 0.000000
0.104231 0.620260 0.977689 59 128 235 0.137761 0.118737 0.983323
0.647582 0.491684 0.374818 59 128 235 0.000000 -1.000000 0.000000
0.622680 0.638306 0.677384 59 128 235 0.000000 1.000000 0.000000
0.178823 0.491684 0.901195 59 128 235 0.000000 -1.000000 0.000000
0.024077 0.491684 0.826274 59 128 235 0.000000 -1.000000 0.000000
0.290206 0.491684 0.504797 59 128 235 0.000000 -1.000000 0.000000
0.654608 0.638306 0.136038 59 128 235 0.000000 1.000000 0.000000
0.456702 0.491684 0.586554 59 128 235 0.000000 -1.000000 0.000000
0.108001 0.638306 0.942959 59 128 235 0.000000 1.000000 0.000000
0.340729 0.638306 0.734039 59 128 235 0.000000 1.000000 0.000000
0.109475 0.638306 0.380577 59 128 235 0.000000 1.000000 0.000000
0.285260 0.491684 0.590411 59 128 235 0.000000 -1.000000 0.000000
0.502412 0.607169 0.848022 59 128 235 0.444388 -0.342168 0.827913
0.000279 0.491684 0.530505 59 128 235 0.000000 -1.000000 0.000000
0.227409 0.491684 0.189807 59 128 235 0.000000 -1.000000 0.000000
0.991098 0.595489 0.035955 59 128 235 0.999975 0.000000 -0.007105
0.696676 0.638306 0.045843 59 128 235 0.000000 1.000000 0.000000
0.659160 0.491684 0.032990 59 128 235 0.000000 -1.000000 0.000000
0.119172 0.491684 0.034079 59 128 235 0.000000 -1.000000 0.000000
0.683309 0.638306 0.687077 59 128 235 0.000000 1.000000 0.000000
0.690375 0.638306 0.020764 59 128 235 0.000000 1.000000 0.000000
0.487172 0.491684 0.633827 59 128 235 0.000000 -1.000000 0.000000
0.941524 0.603780 0.323201 59 128 235 0.894371 -0.296308 0.335116
0.742919 0.491684 0.284429 59 128 235 0.000000 -1.000000 0.000000
0.372821 0.638306 0.111863 59 128 235 0.000000 1.000000 0.000000
0.713907 0.491684 0.039496 59 128 235 0.000000 -1.000000 0.000000
0.808240 0.638306 0.511056 59 128 235 0.000000 1.000000 0.000000
0.593130 0.491684 0.611584 59 128 235 0.000000 -1.000000 0.000000
0.744549 0.510529 0.640811 59 128 235 0.751304 0.000000 0.659957
0.960814 0.538993 0.237434 59 128 235 0.964524 0.000000 0.263996
0.010412 0.491684 0.663338 59 128 235 0.000000 -1.000000 0.000000
0.137061 0.600152 0.017019 59 128 235 0.877876 -0.471608 0.083186
0.914304 0.638306 0.053406 59 128 235 0.000000 1.000000 0.000000
0.549245 0.491684 0.691519 59 128 235 0.000000 -1.000000 0.000000
0.241098 0.638306 0.135917 59 128 235 0.000000 1.000000 0.000000
0.069111 0.499495 0.967112 59 128 235 -0.017269 0.941366 -0.336944
0.450379 0.638306 0.393305 59 128 235 0.000000 1.000000 0.000000
0.214562 0.491684 0.046319 59 128 235 0.000000 -1.000000 0.000000
0.751525 0.638306 0.610967 59 128 235 0.000000 1.000000 0.000000
0.905068 0.491684 0.367021 59 128 235 0.000000 -1.000000 0.000000
0.442679 0.638306 0.389646 59 128 235 0.000000 1.000000 0.000000
0.686798 0.491684 0.431366 59 128 235 0.000000 -1.000000 0.000000
0.971221 0.638306 0.168528 59 128 235 0.000000 1.000000 0.000000
0.970439 0.544170 0.198409 59 128 235 0.984575 0.000000 0.174962
0.568056 0.583353 0.796010 59 128 235 0.549446 0.000000 0.835529
0.193089 0.638306 0.102168 59 128 235 0.000000 1.000000 0.000000
0.418352 0.638306 0.434423 59 128 235 0.000000 1.000000 0.000000
0.546903 0.466464 0.798456 59 128 235 -0.517354 -0.336680 -0.786760
0.731242 0.491684 0.205144 59 128 235 0.000000 -1.000000 0.000000
0.874264 0.619225 0.438354 59 128 235 -0.896333 0.098895 -0.432212
0.189822 0.491684 0.510172 59 128 235 0.000000 -1.000000 0.000000
0.003325 0.491684 0.731718 59 128 235 0.000000 -1.000000 0.000000
0.833748 0.638306 0.240501 59 128 235 0.000000 1.000000 0.000000
0.203135 0.491684 0.740702 59 128 235 0.000000 -1.000000 0.000000
0.010721 0.638306 0.290407 59 128 235 0.000000 1.000000 0.000000
0.225904 0.574638 0.945797 59 128 235 0.225471 0.000000 0.974250
0.906873 0.638306 0.069364 59 128 235 0.000000 1.000000 0.000000
0.622971 0.493777 0.755233 59 128 235 0.621531 0.000000 0.783390
0.333433 0.491684 0.498301 59 128 235 0.000000 -1.000000 0.000000
0.909042 0.524461 0.387407 59 128 235 0.900756 0.000000 0.434325
0.532507 0.491684 0.401782 59 128 235 0.000000 -1.000000 0.000000
0.956719 0.524619 0.252397 59 128 235 0.964524 0.000000 0.263996
0.452190 0.638306 0.418268 59 128 235 0.000000 1.000000 0.000000
0.397011 0.636258 0.889942 59 128 235 0.393198 0.000000 0.919454
0.988050 0.499715 0.072637 59 128 235 0.996455 0.000000 0.084130
0.855032 0.572823 0.490616 59 128 235 0.857608 0.000000 0.514305
0.929134 0.484154 0.356655 59 128 235 0.931948 0.097959 0.349110
0.540230 0.638306 0.543733 59 128 235 0.000000 1.000000 0.000000
0.887534 0.491684 0.255345 59 128 235 0.000000 -1.000000 0.000000
0.174542 0.491684 0.335821 59 128 235 0.000000 -1.000000 0.000000
0.917356 0.491684 0.087935 59 128 235 0.000000 -1.000000 0.000000
0.933270 0.491684 0.158427 59 128 235 0.000000 -1.000000 0.000000
0.727875 0.638306 0.193004 59 128 235 0.000000 1.000000 0.000000
0.822626 0.491684 0.386148 59 128 235 0.000000 -1.000000 0.000000
0.093455 0.491684 0.600329 59 128 235 0.000000 -1.000000 0.000000
0.421954 0.491684 0.141048 59 128 235 0.000000 -1.000000 0.000000
0.010235 0.638306 0.953777 59 128 235 0.000000 1.000000 0.000000
0.419814 0.491684 0.367215 59 128 235 0.000000 -1.000000 0.000000
0.240967 0.491684 0.196627 59 128 235 0.000000 -1.000000 0.000000
0.040294 0.566507 0.970691 59 128 235 0.051219 0.000000 0.998687
0.932147 0.608416 0.352323 59 128 235 0.894651 -0.295425 0.335147
0.007815 0.638306 0.947058 59 128 235 0.000000 1.000000 0.000000
0.172551 0.491684 0.569334 59 128 235 0.000000 -1.000000 0.000000
0.148157 0.491684 0.039749 59 128 235 0.000000 -1.000000 0.000000
0.433890 0.638306 0.193631 59 128 235 0.000000 1.000000 0.000000
0.394449 0.638306 0.444307 59 128 235 0.000000 1.000000 0.000000
0.255900 0.600392 0.933242 59 128 235 -0.169952 -0.657228 -0.734280
0.601787 0.638306 0.402343 59 128 235 0.000000 1.000000 0.000000
0.179243 0.491684 0.571528 59 128 235 0.000000 -1.000000 0.000000
0.659221 0.491684 0.530579 59 128 235 0.000000 -1.000000 0.000000
0.446548 0.614971 0.879710 59 128 235 0.469860 -0.113851 0.875368
0.095808 0.596096 0.091972 59 128 235 0.557152 -0.466215 0.687186
0.414856 0.533171 0.882310 59 128 235 0.393198 0.000000 0.919454
0.151097 0.619151 0.948955 59 128 235 -0.137712 0.118839 -0.983317
0.398276 0.491684 0.584324 59 128 235 0.000000 -1.000000 0.000000
0.336092 0.496818 0.906492 59 128 235 -0.234754 0.653917 -0.719224
0.675703 0.602752 0.720069 59 128 235 0.539036 -0.623179 0.566647
0.075674 0.563267 0.086875 59 128 235 0.577300 -0.399660 0.712037
0.882660 0.632005 0.428634 59 128 235 -0.727094 0.590243 -0.350639
0.197990 0.491684 0.421593 59 128 235 0.000000 -1.000000 0.000000
0.293199 0.638306 0.752623 59 128 235 0.000000 1.000000 0.000000
0.463346 0.638306 0.830693 59 128 235 0.000000 1.000000 0.000000
0.858751 0.491684 0.126719 59 128 235 0.000000 -1.000000 0.000000
0.064637 0.491684 0.868698 59 128 235 0.000000 -1.000000 0.000000
0.159056 0.491684 0.669344 59 128 235 0.000000 -1.000000 0.000000
0.031907 0.491684 0.430870 59 128 235 0.000000 -1.000000 0.000000
0.637910 0.576596 0.743381 59 128 235 0.621531 0.000000 0.783390
0.358870 0.491684 0.274514 59 128 235 0.000000 -1.000000 0.000000
0.486886 0.638306 0.601891 59 128 235 0.000000 1.000000 0.000000
0.162359 0.638306 0.300144 59 128 235 0.000000 1.000000 0.000000
0.685550 0.491684 0.463909 59 128 235 0.000000 -1.000000 0.000000
0.069426 0.491684 0.039300 59 128 235 0.000000 -1.000000 0.000000
0.969549 0.606072 0.203416 59 128 235 0.984575 0.000000 0.174962
0.988814 0.542006 0.063591 59 128 235 0.996455 0.000000 0.084130
0.232550 0.491684 0.541622 59 128 235 0.000000 -1.000000 0.000000
0.178236 0.491684 0.942076 59 128 235 0.000000 -1.000000 0.000000
0.691554 0.638306 0.472797 59 128 235 0.000000 1.000000 0.000000
0.008604 0.603338 0.972316 59 128 235 0.051219 0.000000 0.998687
0.984810 0.595218 0.111013 59 128 235 0.996455 0.000000 0.084130
0.383297 0.602605 0.903690 59 128 235 0.298954 -0.649620 0.699014
0.806629 0.607509 0.549733 59 128 235 -0.767123 -0.313191 -0.559852
0.276823 0.491684 0.113800 59 128 235 0.000000 -1.000000 0.000000
0.254417 0.491684 0.929339 59 128 235 0.000000 -1.000000 0.000000
0.761541 0.638306 0.251096 59 128 235 0.000000 1.000000 0.000000
0.053754 0.491684 0.642971 59 128 235 0.000000 -1.000000 0.000000
0.678703 0.638306 0.358169 59 128 235 0.000000 1.000000 0.000000
0.077599 0.465348 0.974091 59 128 235 0.038427 -0.660875 0.749512
0.417935 0.638306 0.647560 59 128 235 0.000000 1.000000 0.000000
0.711967 0.491684 0.018618 59 128 235 0.000000 -1.000000 0.000000
0.077595 0.548253 0.076890 59 128 235 0.577295 -0.399656 0.712044
0.256389 0.491684 0.493484 59 128 235 0.000000 -1.000000 0.000000
0.927694 0.579581 0.341001 59 128 235 0.936456 0.000000 0.350786
0.748321 0.491684 0.247743 59 128 235 0.000000 -1.000000 0.000000
0.447550 0.638306 0.266845 59 128 235 0.000000 1.000000 0.000000
0.274613 0.638306 0.164255 59 128 235 0.000000 1.000000 0.000000
0.357137 0.570533 0.906993 59 128 235 0.393198 0.000000 0.919454
0.640440 0.605640 0.730842 59 128 235 -0.586420 -0.331318 -0.739148
0.293883 0.567734 0.927853 59 128 235 0.310318 0.000000 0.950633
0.101545 0.566704 0.061461 59 128 235 0.805376 -0.402816 0.434866
0.352987 0.491684 0.553627 59 128 235 0.000000 -1.000000 0.000000
0.964802 0.600529 0.240014 59 128 235 0.787824 -0.576950 0.215551
0.983135 0.625745 0.015767 59 128 235 -0.958453 0.285170 0.006817
0.838469 0.528128 0.518235 59 128 235 0.857608 0.000000 0.514305
0.134173 0.491684 0.620942 59 128 235 0.000000 -1.000000 0.000000
0.408167 0.624305 0.885171 59 128 235 0.393198 0.000000 0.919454
0.399653 0.491684 0.060225 59 128 235 0.000000 -1.000000 0.000000
0.129181 0.638306 0.212198 59 128 235 0.000000 1.000000 0.000000
0.666432 0.499043 0.718465 59 128 235 0.253404 0.929958 0.266393
0.925436 0.491684 0.090087 59 128 235 0.000000 -1.000000 0.000000
0.979835 0.608890 0.145535 59 128 235 0.984575 0.000000 0.174962
0.964514 0.569447 0.223915 59 128 235 0.964524 0.000000 0.263996
0.168422 0.638306 0.785149 59 128 235 0.000000 1.000000 0.000000
0.852053 0.491684 0.319366 59 128 235 0.000000 -1.000000 0.000000
0.113080 0.491684 0.649429 59 128 235 0.000000 -1.000000 0.000000
0.435048 0.491684 0.083175 59 128 235 0.000000 -1.000000 0.000000
0.828355 0.638306 0.350271 59 128 235 0.000000 1.000000 0.000000
0.318703 0.638306 0.729099 59 128 235 0.000000 1.000000 0.000000
0.578295 0.638306 0.469398 59 128 235 0.000000 1.000000 0.000000
0.240293 0.491684 0.499105 59 128 235 0.000000 -1.000000 0.000000
0.836705 0.548895 0.521176 59 128 235 0.857608 0.000000 0.514305
0.449656 0.638306 0.442099 59 128 235 0.000000 1.000000 0.000000
0.405419 0.638306 0.340819 59 128 235 0.000000 1.000000 0.000000
0.380770 0.491684 0.866169 59 128 235 0.000000 -1.000000 0.000000
0.550844 0.638306 0.452696 59 128 235 0.000000 1.000000 0.000000
0.119205 0.638306 0.123329 59 128 235 0.000000 1.000000 0.000000
0.102943 0.638306 0.290753 59 128 235 0.000000 1.000000 0.000000
0.459967 0.638306 0.763742 59 128 235 0.000000 1.000000 0.000000
0.197828 0.491684 0.056423 59 128 235 0.000000 -1.000000 0.000000
0.804418 0.491684 0.055006 59 128 235 0.000000 -1.000000 0.000000
0.498202 0.521909 0.839951 59 128 235 0.472920 0.000000 0.881105
0.413196 0.491684 0.637151 59 128 235 0.000000 -1.000000 0.000000
0.764969 0.491684 0.377530 59 128 235 0.000000 -1.000000 0.000000
0.959420 0.624153 0.274386 59 128 235 0.960037 0.096720 0.262630
0.366963 0.491684 0.046313 59 128 235 0.000000 -1.000000 0.000000
0.667872 0.638306 0.130921 59 128 235 0.000000 1.000000 0.000000
0.077710 0.638306 0.477168 59 128 235 0.000000 1.000000 0.000000
0.055392 0.498319 0.964526 59 128 235 -0.017271 0.941564 -0.336390
0.798972 0.491684 0.466164 59 128 235 0.000000 -1.000000 0.000000
0.924917 0.566396 0.348416 59 128 235 0.936456 0.000000 0.350786
0.382758 0.638306 0.819673 59 128 235 0.000000 1.000000 0.000000
0.562136 0.491684 0.041792 59 128 235 0.000000 -1.000000 0.000000
0.197753 0.638306 0.216147 59 128 235 0.000000 1.000000 0.000000
0.830449 0.638306 0.457327 59 128 235 0.000000 1.000000 0.000000
0.722347 0.544573 0.666085 59 128 235 0.751304 0.000000 0.659957
0.068651 0.493656 0.959227 59 128 235 -0.047910 0.355500 -0.933448
0.331009 0.491684 0.342943 59 128 235 0.000000 -1.000000 0.000000
0.732342 0.466099 0.641102 59 128 235 -0.592157 -0.615415 -0.520206
0.346756 0.603913 0.910593 59 128 235 0.310318 0.000000 0.950633
0.652728 0.491684 0.276873 59 128 235 0.000000 -1.000000 0.000000
0.055989 0.638306 0.021608 59 128 235 0.000000 1.000000 0.000000
0.192358 0.491684 0.667413 59 128 235 0.000000 -1.000000 0.000000
0.557430 0.491684 0.589560 59 128 235 0.000000 -1.000000 0.000000
0.607088 0.638306 0.686737 59 128 235 0.000000 1.000000 0.000000
0.774209 0.491684 0.026244 59 128 235 0.000000 -1.000000 0.000000
0.062468 0.630613 0.969553 59 128 235 0.051219 0.000000 0.998687
0.928350 0.491684 0.139417 59 128 235 0.000000 -1.000000 0.000000
0.004448 0.491684 0.252384 59 128 235 0.000000 -1.000000 0.000000
0.522528 0.638306 0.602838 59 128 235 0.000000 1.000000 0.000000
0.910667 0.604837 0.366407 59 128 235 -0.894321 -0.296409 -0.335160
0.986164 0.604766 0.148880 59 128 235 0.942971 -0.287614 0.167581
0.442840 0.491684 0.088654 59 128 235 0.000000 -1.000000 0.000000
0.408069 0.491684 0.220533 59 128 235 0.000000 -1.000000 0.000000
0.795310 0.491684 0.448393 59 128 235 0.000000 -1.000000 0.000000
0.844052 0.638306 0.015023 59 128 235 0.000000 1.000000 0.000000
0.108920 0.491684 0.716118 59 128 235 0.000000 -1.000000 0.000000
0.359077 0.491684 0.443566 59 128 235 0.000000 -1.000000 0.000000
0.764083 0.491684 0.166261 59 128 235 0.000000 -1.000000 0.000000
0.943146 0.622584 0.269573 59 128 235 -0.960096 0.095854 -0.262730
0.583724 0.491684 0.087221 59 128 235 0.000000 -1.000000 0.000000
0.094393 0.638306 0.920959 59 128 235 0.000000 1.000000 0.000000
0.859620 0.487832 0.496083 59 128 235 0.816372 0.306410 0.489540
0.693466 0.491684 0.080351 59 128 235 0.000000 -1.000000 0.000000
0.958217 0.495381 0.219294 59 128 235 -0.787860 0.576867 -0.215640
0.281067 0.638306 0.024224 59 128 235 0.000000 1.000000 0.000000
0.236856 0.491684 0.335924 59 128 235 0.000000 -1.000000 0.000000
0.258548 0.491684 0.590476 59 128 235 0.000000 -1.000000 0.000000
0.016628 0.638306 0.293858 59 128 235 0.000000 1.000000 0.000000
