ply
format ascii 1.0
element vertex 698
property float x
property float y
property float z
property uchar red
property uchar green
property uchar blue
property float nx
property float ny
property float nz
end_header
-0.673725 0.539921 -0.622916 24 168 141 -0.735026 0.000000 -0.678039
-0.138156 0.508467 -0.899620 24 168 141 -0.989135 0.000000 0.147013
-0.881779 0.770132 -0.048831 24 168 141 0.000000 1.000000 0.000000
-0.053360 0.625218 -0.915850 24 168 141 -0.058093 0.000000 -0.998311
-0.877973 0.759936 -0.002115 24 168 141 0.999888 0.000000 0.014964
-0.106651 0.644278 -0.931527 24 168 141 0.956553 -0.268903 -0.112681
-0.883219 0.675937 -0.250550 24 168 141 -0.966148 0.000000 -0.257989
-0.114520 0.781337 -0.905161 24 168 141 0.237989 0.000000 0.971268
-0.188220 0.597424 -0.898101 24 168 141 -0.191746 -0.000008 -0.981445
-0.941388 0.583613 -0.083256 24 168 141 0.092335 0.000000 -0.995728
-0.908115 0.588370 -0.131081 24 168 141 -0.989626 0.000000 -0.143666
-0.854496 0.700678 -0.335498 24 168 141 -0.941644 0.000000 -0.336610
-0.107520 0.772832 -0.906876 24 168 141 0.237989 0.000000 0.971268
-0.862041 0.542119 -0.175428 24 168 141 0.981674 0.000166 0.190566
-0.746098 0.645348 -0.533937 24 168 141 -0.824251 0.000000 -0.566225
-0.185374 0.550180 -0.874994 24 168 141 0.000000 1.000000 0.000000
-0.128748 0.533001 -0.850130 24 168 141 0.126965 0.000214 0.991907
-0.885815 0.654288 -0.240828 24 168 141 -0.966148 0.000000 -0.257989
-0.681325 0.608471 -0.624275 24 168 141 -0.808164 0.492598 -0.322827
-0.635262 0.714766 -0.578831 24 168 141 0.745238 0.000027 0.666799
-0.781171 0.609526 -0.481619 24 168 141 -0.850443 0.000000 -0.526068
-0.958501 0.535729 -0.017426 24 168 141 -0.562227 -0.444918 -0.697100
-0.917080 0.799099 -0.038678 24 168 141 -0.999956 0.000000 -0.009358
-0.141177 0.556497 -0.919947 24 168 141 -0.989129 0.000013 0.147050
-0.710785 0.704640 -0.586637 24 168 141 -0.677482 -0.400936 -0.616660
-0.255116 0.798577 -0.881806 24 168 141 -0.273054 -0.000011 -0.961999
-0.860647 0.756074 -0.232147 24 168 141 0.000000 -1.000000 0.000000
-0.779169 0.778135 -0.364012 24 168 141 0.917337 -0.000221 0.398113
-0.691135 0.587430 -0.603565 24 168 141 -0.756158 0.000000 -0.654389
-0.079617 0.718452 -0.911859 24 168 141 0.153992 0.000000 0.988072
-0.853750 0.791298 -0.337374 24 168 141 -0.917663 0.000000 -0.397359
-0.699046 0.602763 -0.607252 24 168 141 -0.753266 -0.003285 -0.657708
-0.622226 0.714734 -0.678694 24 168 141 -0.548954 0.547667 -0.631435
-0.946460 0.572063 -0.083726 24 168 141 0.092335 0.000000 -0.995728
-0.286683 0.526318 -0.811001 24 168 141 0.338073 -0.000499 0.941120
-0.039099 0.612648 -0.936091 24 168 141 -0.067756 0.068578 -0.995342
-0.709400 0.679536 -0.582389 24 168 141 -0.771144 0.001209 -0.636660
-0.046200 0.506206 -0.944536 24 168 141 -0.067578 0.094837 -0.993196
-0.221988 0.756074 -0.869202 24 168 141 0.000000 -1.000000 0.000001
-0.884325 0.729863 -0.018886 24 168 141 0.999702 0.000000 -0.024399
-0.411618 0.665982 -0.755131 24 168 141 0.487596 -0.000712 0.873069
-0.886000 0.770132 -0.119832 24 168 141 0.000000 1.000000 0.000000
-0.866574 0.501586 -0.140066 24 168 141 0.000000 -1.000000 0.000000
-0.721878 0.708824 -0.565894 24 168 141 -0.786499 0.000000 -0.617592
-0.306279 0.738194 -0.865356 24 168 141 -0.336150 0.000000 -0.941808
-0.913923 0.673300 -0.081202 24 168 141 -0.997045 0.000000 -0.076824
-0.320107 0.673749 -0.821323 24 168 141 0.340806 0.000000 0.940133
-0.242050 0.752470 -0.885515 24 168 141 -0.273037 0.000000 -0.962004
-0.096062 0.757192 -0.932860 24 168 141 0.000000 1.000000 0.000000
-0.398368 0.734973 -0.762091 24 168 141 0.443016 -0.000220 0.896513
-0.343854 0.597164 -0.850730 24 168 141 -0.382113 0.000000 -0.924116
-0.913090 0.675556 -0.092007 24 168 141 -0.997045 0.000000 -0.076824
-0.357002 0.654807 -0.782634 24 168 141 0.443988 -0.001355 0.896032
-0.137645 0.550180 -0.881318 24 168 141 0.000000 1.000000 0.000000
-0.043897 0.522675 -0.881120 24 168 141 0.024409 0.000000 0.999702
-0.002657 0.538252 -0.882127 24 168 141 0.024409 0.000000 0.999702
-0.650025 0.587685 -0.658115 24 168 141 -0.925042 0.275598 -0.261426
-0.898508 0.553667 -0.006860 24 168 141 -0.006428 0.300522 0.953753
-0.903401 0.721256 -0.163373 24 168 141 -0.981168 0.000000 -0.193154
-0.705228 0.617225 -0.600094 24 168 141 -0.761652 0.003964 -0.647974
-0.050449 0.702515 -0.916019 24 168 141 -0.058095 0.000000 -0.998311
-0.056259 0.550180 -0.917256 24 168 141 0.000000 1.000000 0.000000
-0.022927 0.559097 -0.859676 24 168 141 0.058588 0.000000 0.998282
-0.082379 0.629054 -0.930368 24 168 141 -0.153981 0.021125 -0.987848
-0.826491 0.772892 -0.238293 24 168 141 0.957088 -0.000431 0.289798
-0.025095 0.501590 -0.928027 24 168 141 0.000000 -1.000000 0.000000
-0.957656 0.718234 -0.094795 24 168 141 -0.103026 0.000000 0.994679
-0.173600 0.550180 -0.896404 24 168 141 0.000000 1.000000 0.000000
-0.311970 0.530080 -0.801571 24 168 141 0.384104 -0.001000 0.923289
-0.019636 0.770801 -0.917626 24 168 141 0.009327 0.000000 -0.999957
-0.748787 0.582106 -0.530451 24 168 141 -0.815079 -0.000041 -0.579349
-0.338213 0.673973 -0.790539 24 168 141 0.383288 -0.000536 0.923629
-0.523806 0.599970 -0.746861 24 168 141 0.346504 -0.905456 -0.245120
-0.832907 0.665381 -0.214702 24 168 141 0.965866 -0.000249 0.259043
-0.697149 0.543413 -0.596616 24 168 141 -0.756201 -0.000032 -0.654340
-0.595112 0.580901 -0.620489 24 168 141 0.691767 -0.000097 0.722121
-0.384384 0.780991 -0.768956 24 168 141 0.442219 -0.001287 0.896906
-0.838400 0.506982 -0.238283 24 168 141 0.062403 -0.979831 -0.189836
-0.939084 0.545891 -0.083042 24 168 141 0.092335 0.000000 -0.995728
-0.429873 0.603047 -0.792328 24 168 141 -0.337001 -0.921945 0.190912
-0.844820 0.687046 -0.266116 24 168 141 0.024362 0.000000 0.999703
-0.049991 0.664337 -0.951773 24 168 141 0.708517 0.585458 -0.394008
-0.884220 0.606098 -0.014583 24 168 141 0.999702 0.000000 -0.024399
-0.878872 0.501586 -0.135619 24 168 141 0.000000 -1.000000 0.000000
-0.876111 0.650603 -0.274121 24 168 141 -0.957099 0.000000 -0.289760
-0.958833 0.510297 -0.045543 24 168 141 -0.989790 0.000000 -0.142535
-0.033410 0.674907 -0.905601 24 168 141 -0.968238 0.247413 0.036076
-0.936370 0.603386 -0.001918 24 168 141 0.000110 0.998531 -0.054181
-0.914670 0.559421 -0.048586 24 168 141 0.994408 0.000000 0.105604
-0.240164 0.688961 -0.886050 24 168 141 -0.273037 0.000000 -0.962004
-0.473528 0.657424 -0.786200 24 168 141 -0.512741 0.000053 -0.858543
-0.478529 0.669096 -0.783212 24 168 141 -0.512844 0.000000 -0.858482
-0.190846 0.501590 -0.870078 24 168 141 0.000000 -1.000000 0.000000
-0.096209 0.723095 -0.912600 24 168 141 -0.125389 -0.000005 -0.992108
-0.645433 0.717996 -0.651703 24 168 141 -0.701862 0.000000 -0.712313
-0.769393 0.712068 -0.383541 24 168 141 0.889343 -0.000842 0.457239
-0.838122 0.800296 -0.193075 24 168 141 0.974180 -0.000199 0.225775
-0.827707 0.746912 -0.396496 24 168 141 -0.889979 0.000000 -0.456002
-0.592804 0.657074 -0.700032 24 168 141 -0.655210 -0.000032 -0.755447
-0.878324 0.770132 -0.192357 24 168 141 0.000000 1.000000 0.000000
-0.851882 0.624375 -0.115832 24 168 141 0.989401 -0.000257 0.145209
-0.906655 0.617101 -0.141135 24 168 141 -0.989626 0.000000 -0.143666
-0.760171 0.796300 -0.401436 24 168 141 0.889978 -0.000828 0.456003
-0.280600 0.582371 -0.813158 24 168 141 0.337726 -0.000470 0.941244
-0.859325 0.663243 -0.027266 24 168 141 0.999953 0.000124 0.009658
-0.941116 0.631694 -0.083232 24 168 141 0.092304 0.000159 -0.995731
-0.878514 0.770132 -0.198361 24 168 141 0.000000 1.000000 0.000000
-0.873290 0.501586 -0.019220 24 168 141 0.000000 -1.000000 0.000000
-0.785901 0.779755 -0.473226 24 168 141 -0.858800 0.000000 -0.512311
-0.768784 0.771322 -0.515405 24 168 141 -0.832248 0.000000 -0.554404
-0.884658 0.710201 -0.032524 24 168 141 0.999702 0.000000 -0.024399
-0.437250 0.664840 -0.740466 24 168 141 0.514728 0.000139 0.857353
-0.455529 0.722315 -0.796369 24 168 141 -0.498849 -0.000029 -0.866689
-0.020922 0.710740 -0.917638 24 168 141 0.009327 0.000000 -0.999957
-0.828997 0.520617 -0.267266 24 168 141 0.132715 -0.903646 -0.407199
-0.855763 0.640841 -0.082718 24 168 141 0.996948 0.000230 0.078067
-0.234264 0.775161 -0.827550 24 168 141 0.273725 -0.000193 0.961808
-0.140780 0.769829 -0.917261 24 168 141 -0.989118 -0.000012 0.147126
-0.311239 0.595566 -0.854474 24 168 141 -0.902713 -0.429678 0.022039
-0.119401 0.546587 -0.879276 24 168 141 0.024409 0.000000 0.999702
-0.685622 0.593861 -0.621779 24 168 141 0.662427 -0.170745 -0.729408
-0.918754 0.757192 -0.078190 24 168 141 0.000000 1.000000 0.000000
-0.286003 0.584301 -0.838358 24 168 141 0.745543 0.666209 -0.018203
-0.958837 0.769580 -0.017208 24 168 141 0.375592 -0.925926 0.039902
-0.918142 0.758225 -0.015702 24 168 141 0.999817 0.000007 0.019131
-0.052393 0.599932 -0.880912 24 168 141 0.024409 0.000000 0.999702
-0.013066 0.515143 -0.928416 24 168 141 -0.187514 0.934249 -0.303344
-0.921750 0.649297 -0.056217 24 168 141 -0.058678 -0.456318 0.887880
-0.728439 0.751525 -0.557540 24 168 141 -0.786499 0.000000 -0.617592
-0.032573 0.612703 -0.945685 24 168 141 -0.402593 -0.620961 -0.672552
-0.756306 0.756338 -0.408938 24 168 141 0.889645 0.000352 0.456653
-0.564264 0.714087 -0.723300 24 168 141 -0.605745 0.000000 -0.795659
-0.849015 0.782545 -0.348307 24 168 141 -0.917663 0.000000 -0.397359
-0.883950 0.501586 -0.143661 24 168 141 0.000000 -1.000000 0.000000
-0.647581 0.569043 -0.660135 24 168 141 0.629909 -0.465773 -0.621507
-0.260868 0.528921 -0.819603 24 168 141 0.307741 -0.000262 0.951470
-0.387268 0.598985 -0.832141 24 168 141 -0.435035 0.013440 -0.900313
-0.849914 0.504666 -0.229959 24 168 141 0.036395 -0.979762 -0.196829
-0.688536 0.603334 -0.612568 24 168 141 -0.311741 0.291479 -0.904355
-0.872662 0.572820 -0.284682 24 168 141 -0.941644 0.000000 -0.336610
-0.938888 0.615824 -0.059559 24 168 141 -0.065882 0.268883 0.960917
-0.955466 0.667820 -0.012048 24 168 141 -0.709059 -0.487617 -0.509376
-0.606560 0.756921 -0.699308 24 168 141 0.495409 -0.751173 -0.436244
-0.625144 0.756200 -0.671694 24 168 141 -0.701862 0.000000 -0.712313
-0.254656 0.725422 -0.881937 24 168 141 -0.273037 0.000000 -0.962004
-0.080537 0.752190 -0.956232 24 168 141 -0.159183 0.000000 -0.987249
-0.895178 0.695025 -0.203267 24 168 141 -0.974172 0.000000 -0.225806
-0.661460 0.536731 -0.636007 24 168 141 -0.713107 0.000000 -0.701056
-0.870051 0.538393 -0.191781 24 168 141 -0.004602 -0.982134 -0.188126
-0.694947 0.647648 -0.610560 24 168 141 0.749430 -0.000421 0.662083
-0.002279 0.711615 -0.935850 24 168 141 0.019100 -0.061736 -0.997910
-0.131320 0.712446 -0.901044 24 168 141 0.237989 0.000000 0.971268
-0.235137 0.617574 -0.887436 24 168 141 -0.240863 -0.000010 -0.970559
-0.883340 0.784436 -0.250102 24 168 141 -0.966148 -0.000039 -0.257989
-0.899317 0.739039 -0.184115 24 168 141 -0.981168 0.000000 -0.193154
-0.104444 0.632595 -0.894126 24 168 141 0.989513 -0.085308 -0.116563
-0.911060 0.762384 -0.069766 24 168 141 0.981719 0.000000 0.190337
-0.801688 0.666063 -0.311543 24 168 141 0.941102 -0.000509 0.338123
-0.114799 0.777499 -0.966810 24 168 141 -0.222356 -0.356548 -0.907431
-0.795010 0.653067 -0.458493 24 168 141 -0.866894 0.000000 -0.498492
-0.590273 0.603426 -0.625122 24 168 141 0.691767 -0.000097 0.722121
-0.008650 0.903473 -0.191749 142 91 147 -0.000004 1.000000 0.000003
-0.983654 0.855150 -0.111461 142 91 147 -0.707665 0.705038 -0.046167
-0.815501 0.867082 -0.525857 142 91 147 -0.373923 0.892859 -0.250968
-0.678492 0.903469 -0.446301 142 91 147 -0.000006 1.000000 -0.000003
-0.098023 0.807044 -0.059204 142 91 147 0.000003 -1.000000 -0.000003
-0.281974 0.903471 -0.818079 142 91 147 -0.000005 1.000000 -0.000010
-0.313280 0.903471 -0.194354 142 91 147 -0.000005 1.000000 0.000000
-0.089198 0.807044 -0.040931 142 91 147 0.000003 -1.000000 -0.000003
-0.062508 0.903473 -0.457732 142 91 147 -0.000006 1.000000 0.000000
-0.155179 0.809775 -0.952766 142 91 147 -0.070681 -0.783296 -0.617617
-0.041679 0.903472 -0.049581 142 91 147 -0.000012 1.000000 -0.000006
-0.496611 0.807041 -0.763487 142 91 147 0.000006 -1.000000 -0.000012
-0.407738 0.895096 -0.694216 142 91 147 0.000000 -1.000000 0.000000
-0.758698 0.880537 -0.564456 142 91 147 -0.391302 0.881991 -0.262632
-0.060752 0.903472 -0.576270 142 91 147 -0.000006 1.000000 -0.000003
-0.357973 0.807042 -0.782076 142 91 147 0.000006 -1.000000 -0.000012
-0.192366 0.807043 -0.854199 142 91 147 0.000005 -1.000000 0.000010
-0.857205 0.807041 -0.169776 142 91 147 0.000005 -1.000000 0.000000
-0.609734 0.807121 -0.744253 142 91 147 -0.371189 -0.783316 -0.498633
-0.065629 0.807045 -0.516977 142 91 147 0.000006 -1.000000 0.000001
-0.468684 0.828422 -0.870196 142 91 147 -0.280418 -0.783312 -0.554786
-0.612645 0.903469 -0.493110 142 91 147 -0.000007 1.000000 -0.000004
-0.457109 0.807042 -0.579955 142 91 147 0.000006 -1.000000 0.000004
-0.417240 0.807043 -0.409971 142 91 147 0.000006 -1.000000 0.000001
-0.343994 0.895096 -0.723308 142 91 147 0.000000 -1.000000 0.000000
-0.938055 0.831153 -0.330579 142 91 147 -0.870790 -0.301902 -0.388047
-0.676203 0.812698 -0.693651 142 91 147 -0.450184 -0.783278 -0.428731
-0.102035 0.807044 -0.353683 142 91 147 0.000005 -1.000000 0.000000
-0.251214 0.903472 -0.205864 142 91 147 -0.000005 1.000000 0.000001
-0.414084 0.807042 -0.659497 142 91 147 0.000007 -1.000000 0.000006
-0.920428 0.803629 -0.040024 142 91 147 0.788348 0.609502 0.083754
-0.526663 0.855098 -0.840983 142 91 147 -0.423470 0.705047 -0.568842
-0.747095 0.807041 -0.359912 142 91 147 0.000006 -1.000000 0.000001
-0.242009 0.807044 -0.153650 142 91 147 0.000004 -1.000000 -0.000001
-0.277820 0.807044 -0.311184 142 91 147 0.000005 -1.000000 0.000000
-0.298764 0.807043 -0.368934 142 91 147 0.000005 -1.000000 0.000000
-0.764081 0.807041 -0.249932 142 91 147 0.000006 -1.000000 0.000001
-0.575162 0.903469 -0.484996 142 91 147 -0.000006 1.000000 -0.000003
-0.010529 0.903473 -0.543992 142 91 147 -0.000006 1.000000 -0.000001
-0.795604 0.807041 -0.270220 142 91 147 0.000006 -1.000000 0.000001
-0.930114 0.883104 -0.154136 142 91 147 -0.457338 0.881981 -0.113803
-0.557976 0.903470 -0.038747 142 91 147 -0.000005 1.000000 0.000000
-0.575585 0.868158 -0.778351 142 91 147 -0.268917 0.892858 -0.361232
-0.543783 0.903470 -0.715170 142 91 147 -0.000005 1.000000 -0.000007
-0.642643 0.875250 -0.709036 142 91 147 -0.341268 0.881993 -0.325001
-0.701400 0.895096 -0.390959 142 91 147 0.000000 -1.000000 0.000000
-0.115764 0.807044 -0.565921 142 91 147 0.000006 -1.000000 0.000003
-0.341887 0.807043 -0.790357 142 91 147 0.000006 -1.000000 -0.000012
-0.669087 0.874337 -0.683745 142 91 147 -0.341268 0.881993 -0.325001
-0.158640 0.903472 -0.860170 142 91 147 -0.000008 1.000000 0.000013
-0.595245 0.895243 -0.380172 142 91 147 0.830307 0.000000 0.557306
-0.720628 0.903468 -0.472917 142 91 147 -0.000007 1.000000 -0.000004
-0.205235 0.903471 -0.826765 142 91 147 -0.000005 1.000000 -0.000010
-0.539521 0.903470 -0.350455 142 91 147 -0.000006 1.000000 -0.000001
-0.288626 0.903471 -0.239285 142 91 147 -0.000005 1.000000 0.000000
-0.691727 0.807041 -0.455340 142 91 147 0.000006 -1.000000 0.000003
-0.238683 0.903471 -0.019005 142 91 147 -0.000004 1.000000 0.000002
-0.840827 0.807041 -0.074861 142 91 147 0.000005 -1.000000 0.000000
-0.556972 0.819675 -0.803251 142 91 147 -0.371189 -0.783316 -0.498633
-0.461283 0.807042 -0.011893 142 91 147 0.000004 -1.000000 -0.000001
-0.174203 0.807043 -0.837659 142 91 147 0.000005 -1.000000 0.000010
-0.586388 0.903470 -0.279649 142 91 147 -0.000006 1.000000 -0.000001
-0.514058 0.807042 -0.420590 142 91 147 0.000006 -1.000000 0.000001
-0.080705 0.807044 -0.094667 142 91 147 0.000003 -1.000000 -0.000003
-0.632667 0.807041 -0.637171 142 91 147 0.000007 -1.000000 0.000006
-0.586119 0.807042 -0.202432 142 91 147 0.000005 -1.000000 0.000000
-0.542615 0.807042 -0.160990 142 91 147 0.000005 -1.000000 0.000000
-0.282527 0.807043 -0.535602 142 91 147 0.000006 -1.000000 0.000003
-0.740200 0.807041 -0.337339 142 91 147 0.000006 -1.000000 0.000001
-0.386519 0.807043 -0.490229 142 91 147 0.000006 -1.000000 0.000003
-0.261035 0.903472 -0.372227 142 91 147 -0.000006 1.000000 0.000000
-0.323903 0.903471 -0.805809 142 91 147 -0.000005 1.000000 -0.000010
-0.754029 0.807040 -0.522237 142 91 147 0.000006 -1.000000 0.000004
-0.696166 0.807041 -0.293459 142 91 147 0.000006 -1.000000 0.000001
-0.107067 0.902287 -0.787290 142 91 147 0.113702 0.000000 0.993515
-0.303711 0.807042 -0.895325 142 91 147 0.000008 -1.000000 -0.000013
-0.479350 0.807042 -0.623537 142 91 147 0.000006 -1.000000 0.000004
-0.374177 0.807043 -0.029899 142 91 147 0.000004 -1.000000 -0.000001
-0.955680 0.827705 -0.247297 142 91 147 -0.603231 -0.783312 -0.150113
-0.004905 0.903472 -0.125442 142 91 147 -0.000004 1.000000 0.000003
-0.023145 0.814456 -0.973702 142 91 147 0.040474 -0.783298 -0.620328
-0.701315 0.807041 -0.204788 142 91 147 0.000005 -1.000000 0.000000
-0.455810 0.903470 -0.762568 142 91 147 -0.000005 1.000000 -0.000007
-0.316526 0.903471 -0.431935 142 91 147 -0.000006 1.000000 -0.000001
-0.371613 0.807042 -0.886809 142 91 147 0.000005 -1.000000 0.000010
-0.526663 0.895096 -0.490158 142 91 147 0.000000 -1.000000 0.000000
-0.307839 0.807042 -0.741511 142 91 147 0.000006 -1.000000 -0.000012
-0.554452 0.903470 -0.185244 142 91 147 -0.000006 1.000000 0.000000
-0.112301 0.807044 -0.641234 142 91 147 0.000006 -1.000000 0.000004
-0.682849 0.895096 -0.213856 142 91 147 0.000000 -1.000000 0.000000
-0.788081 0.840308 -0.609747 142 91 147 -0.791565 -0.301921 -0.531290
-0.607877 0.807042 -0.237374 142 91 147 0.000005 -1.000000 0.000000
-0.463931 0.903470 -0.022259 142 91 147 -0.000005 1.000000 0.000001
-0.734604 0.807041 -0.392553 142 91 147 0.000006 -1.000000 0.000003
-0.808491 0.813525 -0.534468 142 91 147 -0.516168 -0.783290 -0.346449
-0.615428 0.903470 -0.009531 142 91 147 -0.000005 1.000000 0.000000
-0.814997 0.807041 -0.324804 142 91 147 0.000006 -1.000000 0.000001
-0.500752 0.903470 -0.667913 142 91 147 -0.000005 1.000000 0.000013
-0.099893 0.903472 -0.740148 142 91 147 -0.000005 1.000000 -0.000007
-0.557336 0.807042 -0.029545 142 91 147 0.000004 -1.000000 -0.000001
-0.384324 0.905640 -0.597931 142 91 147 0.000000 1.000000 0.000000
-0.445985 0.807043 -0.222526 142 91 147 0.000005 -1.000000 0.000000
-0.875068 0.896224 -0.306985 142 91 147 -0.617463 0.736908 -0.275148
-0.110420 0.903472 -0.430646 142 91 147 -0.000006 1.000000 0.000000
-0.478886 0.807042 -0.013519 142 91 147 0.000004 -1.000000 -0.000001
-0.683105 0.903469 -0.248448 142 91 147 -0.000006 1.000000 -0.000001
-0.737939 0.837133 -0.665139 142 91 147 -0.690349 -0.301948 -0.657454
-0.404400 0.895096 -0.697850 142 91 147 0.000000 -1.000000 0.000000
-0.871097 0.807040 -0.297049 142 91 147 0.000006 -1.000000 0.000001
-0.817622 0.802245 -0.266757 142 91 147 0.941649 -0.000950 0.336594
-0.879237 0.861364 -0.438616 142 91 147 -0.411348 0.892856 -0.183308
-0.121277 0.807044 -0.324061 142 91 147 0.000005 -1.000000 0.000000
-0.123225 0.807044 -0.081437 142 91 147 0.000003 -1.000000 -0.000003
-0.729895 0.903551 -0.361514 142 91 147 -0.913414 0.000000 -0.407031
-0.502688 0.807042 -0.006605 142 91 147 0.000004 -1.000000 -0.000001
-0.393829 0.807042 -0.852612 142 91 147 0.000005 -1.000000 0.000010
-0.675410 0.807041 -0.262536 142 91 147 0.000006 -1.000000 0.000001
-0.047537 0.807045 -0.314674 142 91 147 0.000004 -1.000000 -0.000001
-0.484593 0.807041 -0.730445 142 91 147 0.000006 -1.000000 -0.000012
-0.158303 0.903472 -0.540889 142 91 147 -0.000006 1.000000 -0.000003
-0.480134 0.903470 -0.143693 142 91 147 -0.000005 1.000000 0.000000
-0.603849 0.815885 -0.762400 142 91 147 -0.371229 -0.783277 -0.498664
-0.304792 0.905640 -0.656668 142 91 147 0.000000 1.000000 0.000000
-0.189704 0.903472 -0.502571 142 91 147 -0.000006 1.000000 -0.000003
-0.530168 0.807042 -0.424382 142 91 147 0.000006 -1.000000 0.000001
-0.541757 0.903470 -0.020442 142 91 147 -0.000005 1.000000 0.000001
-0.352524 0.903471 -0.428696 142 91 147 -0.000006 1.000000 -0.000001
-0.252081 0.807043 -0.050077 142 91 147 0.000004 -1.000000 -0.000002
-0.434287 0.807043 -0.052211 142 91 147 0.000004 -1.000000 -0.000001
-0.410551 0.807043 -0.161699 142 91 147 0.000005 -1.000000 0.000000
-0.255252 0.807043 -0.729249 142 91 147 0.000007 -1.000000 0.000006
-0.565303 0.807041 -0.659566 142 91 147 0.000007 -1.000000 0.000006
-0.225492 0.807044 -0.241266 142 91 147 0.000004 -1.000000 -0.000001
-0.940299 0.807040 -0.072902 142 91 147 0.000005 -1.000000 0.000000
-0.889192 0.891948 -0.273316 142 91 147 -0.655987 0.736909 -0.163234
-0.825365 0.872028 -0.493704 142 91 147 -0.391302 0.881991 -0.262632
-0.597674 0.807042 -0.223674 142 91 147 0.000005 -1.000000 0.000000
-0.542978 0.807042 -0.030130 142 91 147 0.000004 -1.000000 -0.000001
-0.722555 0.876435 -0.621906 142 91 147 -0.341270 0.881991 -0.325003
-0.631593 0.882707 -0.700400 142 91 147 -0.341268 0.881993 -0.325001
-0.082996 0.807044 -0.766472 142 91 147 0.000006 -1.000000 -0.000012
-0.175214 0.903471 -0.815188 142 91 147 -0.000005 1.000000 -0.000010
-0.544158 0.903470 -0.197645 142 91 147 -0.000006 1.000000 0.000000
-0.496948 0.807042 -0.486283 142 91 147 0.000006 -1.000000 0.000003
-0.650801 0.903469 -0.471621 142 91 147 -0.000006 1.000000 -0.000003
-0.258434 0.903471 -0.649769 142 91 147 -0.000005 1.000000 0.000013
-0.671376 0.807041 -0.503211 142 91 147 0.000006 -1.000000 0.000004
-0.772123 0.903469 -0.064727 142 91 147 -0.000006 1.000000 0.000000
-0.032519 0.807044 -0.049331 142 91 147 0.000003 -1.000000 -0.000003
-0.082000 0.895096 -0.798593 142 91 147 0.000000 -1.000000 0.000000
-0.149104 0.807044 -0.550068 142 91 147 0.000006 -1.000000 0.000003
-0.785236 0.895235 -0.214580 142 91 147 -0.970405 0.000000 -0.241481
-0.175662 0.807043 -0.842583 142 91 147 0.000005 -1.000000 0.000010
-0.374388 0.874706 -0.881461 142 91 147 -0.212600 0.881985 -0.420598
-0.489320 0.807042 -0.439518 142 91 147 0.000006 -1.000000 0.000003
-0.047853 0.807044 -0.172150 142 91 147 0.000003 -1.000000 -0.000003
-0.841749 0.807041 -0.178377 142 91 147 0.000005 -1.000000 0.000000
-0.504159 0.903470 -0.493484 142 91 147 -0.000006 1.000000 -0.000003
-0.640372 0.807042 -0.331225 142 91 147 0.000006 -1.000000 0.000001
-0.536320 0.902375 -0.615211 142 91 147 -0.597139 0.000000 -0.802138
-0.081022 0.807045 -0.451987 142 91 147 0.000005 -1.000000 0.000000
-0.323750 0.817083 -0.919417 142 91 147 -0.179360 -0.783292 -0.595218
-0.697563 0.895096 -0.416777 142 91 147 0.000000 -1.000000 0.000000
-0.468758 0.807042 -0.621024 142 91 147 0.000006 -1.000000 0.000004
-0.235044 0.903471 -0.562544 142 91 147 -0.000007 1.000000 -0.000004
-0.548768 0.807041 -0.591934 142 91 147 0.000006 -1.000000 0.000004
-0.046337 0.905640 -0.723253 142 91 147 0.000000 1.000000 0.000000
-0.660368 0.807042 -0.001559 142 91 147 0.000005 -1.000000 0.000000
-0.055782 0.807045 -0.386880 142 91 147 0.000005 -1.000000 0.000000
-0.444329 0.807042 -0.575353 142 91 147 0.000006 -1.000000 0.000004
-0.151975 0.807044 -0.300152 142 91 147 0.000005 -1.000000 0.000000
-0.060767 0.903472 -0.668848 142 91 147 -0.000005 1.000000 0.000013
-0.679028 0.903469 -0.410881 142 91 147 -0.000006 1.000000 -0.000003
-0.802144 0.848312 -0.591766 142 91 147 -0.588793 0.705095 -0.395176
-0.031824 0.807044 -0.186716 142 91 147 0.000003 -1.000000 -0.000003
-0.556389 0.903470 -0.296662 142 91 147 -0.000006 1.000000 -0.000001
-0.062852 0.807044 -0.829887 142 91 147 0.000005 -1.000000 0.000010
-0.790718 0.903616 -0.081662 142 91 147 0.997879 0.000000 0.065103
-0.587117 0.896952 -0.563363 142 91 147 -0.724156 0.000000 -0.689636
-0.035433 0.903472 -0.825483 142 91 147 -0.000008 1.000000 0.000013
-0.741003 0.807041 -0.479065 142 91 147 0.000006 -1.000000 0.000003
-0.072468 0.807044 -0.732966 142 91 147 0.000007 -1.000000 0.000006
-0.317649 0.903471 -0.404339 142 91 147 -0.000006 1.000000 -0.000001
-0.417260 0.807043 -0.286070 142 91 147 0.000005 -1.000000 0.000000
-0.246615 0.807043 -0.644360 142 91 147 0.000006 -1.000000 0.000004
-0.071196 0.903473 -0.339615 142 91 147 -0.000005 1.000000 0.000000
-0.908122 0.896247 -0.177832 142 91 147 -0.655994 0.736903 -0.163237
-0.861255 0.903468 -0.233095 142 91 147 -0.000006 1.000000 -0.000001
-0.441146 0.900467 -0.551878 142 91 147 0.597136 0.000000 0.802140
-0.370067 0.807042 -0.787595 142 91 147 0.000006 -1.000000 -0.000012
-0.654565 0.895096 -0.300940 142 91 147 0.000000 -1.000000 0.000000
-0.092804 0.807044 -0.871634 142 91 147 0.000008 -1.000000 -0.000013
-0.677884 0.903468 -0.535891 142 91 147 -0.000007 1.000000 -0.000004
-0.505003 0.903470 -0.246411 142 91 147 -0.000006 1.000000 0.000000
-0.064503 0.903472 -0.195852 142 91 147 -0.000004 1.000000 0.000002
-0.248035 0.903471 -0.752796 142 91 147 -0.000005 1.000000 -0.000007
-0.484024 0.807042 -0.455252 142 91 147 0.000006 -1.000000 0.000003
-0.639378 0.903469 -0.620986 142 91 147 -0.000005 1.000000 0.000013
-0.478390 0.902275 -0.548113 142 91 147 -0.597138 0.000000 -0.802139
-0.084269 0.903472 -0.640804 142 91 147 -0.000007 1.000000 -0.000004
-0.425420 0.807043 -0.424197 142 91 147 0.000006 -1.000000 0.000001
-0.953617 0.867782 -0.180069 142 91 147 -0.436991 0.892868 -0.108741
-0.048464 0.807044 -0.653459 142 91 147 0.000006 -1.000000 0.000004
-0.957754 0.826075 -0.230454 142 91 147 -0.603231 -0.783312 -0.150113
-0.200281 0.903471 -0.861599 142 91 147 -0.000008 1.000000 0.000013
-0.453602 0.839316 -0.884456 142 91 147 -0.430055 -0.301946 -0.850812
-0.016627 0.807044 -0.180502 142 91 147 0.000003 -1.000000 -0.000003
-0.469968 0.807042 -0.354618 142 91 147 0.000006 -1.000000 0.000001
-0.185654 0.807043 -0.748211 142 91 147 0.000006 -1.000000 -0.000012
-0.388299 0.807043 -0.043584 142 91 147 0.000004 -1.000000 -0.000001
-0.074264 0.840817 -0.992117 142 91 147 -0.108406 -0.301888 -0.947160
-0.388050 0.903470 -0.599777 142 91 147 -0.000007 1.000000 -0.000004
-0.723239 0.903468 -0.535023 142 91 147 -0.000007 1.000000 -0.000004
-0.275161 0.903471 -0.254874 142 91 147 -0.000005 1.000000 0.000000
-0.310444 0.903471 -0.345296 142 91 147 -0.000006 1.000000 0.000000
-0.402827 0.876868 -0.862551 142 91 147 -0.212600 0.881985 -0.420598
-0.433341 0.903471 -0.737688 142 91 147 -0.000005 1.000000 -0.000007
-0.551258 0.807042 -0.133967 142 91 147 0.000005 -1.000000 0.000000
-0.001873 0.807045 -0.495028 142 91 147 0.000005 -1.000000 0.000000
-0.375952 0.903471 -0.391087 142 91 147 -0.000006 1.000000 -0.000001
-0.691469 0.807041 -0.095576 142 91 147 0.000005 -1.000000 0.000000
-0.399687 0.807043 -0.343704 142 91 147 0.000005 -1.000000 0.000000
-0.799753 0.895096 -0.143133 142 91 147 0.000000 -1.000000 0.000000
-0.263177 0.807044 -0.376519 142 91 147 0.000005 -1.000000 0.000000
-0.296279 0.807043 -0.526215 142 91 147 0.000006 -1.000000 0.000003
-0.919201 0.807040 -0.094336 142 91 147 0.000005 -1.000000 0.000000
-0.718937 0.903468 -0.562915 142 91 147 -0.000007 1.000000 -0.000004
-0.018015 0.903473 -0.261707 142 91 147 -0.000004 1.000000 0.000002
-0.676303 0.905640 -0.251991 142 91 147 0.000000 1.000000 0.000000
-0.391068 0.807043 -0.227346 142 91 147 0.000005 -1.000000 0.000000
-0.359271 0.807042 -0.730776 142 91 147 0.000006 -1.000000 -0.000012
-0.657196 0.903469 -0.306629 142 91 147 -0.000006 1.000000 -0.000001
-0.491831 0.807042 -0.188270 142 91 147 0.000005 -1.000000 0.000000
-0.529964 0.807042 -0.247451 142 91 147 0.000005 -1.000000 0.000000
-0.660417 0.903469 -0.591496 142 91 147 -0.000005 1.000000 0.000013
-0.335119 0.807043 -0.112479 142 91 147 0.000004 -1.000000 -0.000001
-0.216196 0.903472 -0.688028 142 91 147 -0.000005 1.000000 0.000013
-0.177350 0.807044 -0.233706 142 91 147 0.000004 -1.000000 -0.000001
-0.273545 0.807043 -0.193793 142 91 147 0.000004 -1.000000 -0.000001
-0.503276 0.903469 -0.583822 142 91 147 -0.000007 1.000000 -0.000004
-0.972737 0.866379 -0.010772 142 91 147 -0.449373 0.892863 -0.029316
-0.190606 0.903472 -0.112295 142 91 147 -0.000004 1.000000 0.000002
-0.555097 0.903470 -0.446776 142 91 147 -0.000006 1.000000 -0.000003
-0.229287 0.870938 -0.936288 142 91 147 -0.129940 0.892849 -0.431204
-0.715606 0.807041 -0.144827 142 91 147 0.000005 -1.000000 0.000000
-0.068136 0.807044 -0.140285 142 91 147 0.000003 -1.000000 -0.000003
-0.123453 0.903472 -0.292866 142 91 147 -0.000005 1.000000 0.000000
-0.145512 0.816874 -0.962876 142 91 147 -0.070683 -0.783293 -0.617622
-0.355432 0.807043 -0.156602 142 91 147 0.000004 -1.000000 -0.000001
-0.250272 0.903471 -0.094467 142 91 147 -0.000004 1.000000 0.000002
-0.710757 0.807041 -0.048210 142 91 147 0.000005 -1.000000 0.000000
-0.514089 0.807041 -0.741253 142 91 147 0.000006 -1.000000 -0.000012
-0.099607 0.903472 -0.156404 142 91 147 -0.000004 1.000000 0.000002
-0.078543 0.807044 -0.704308 142 91 147 0.000007 -1.000000 0.000006
-0.428279 0.807043 -0.107730 142 91 147 0.000004 -1.000000 -0.000001
-0.830071 0.903468 -0.238877 142 91 147 -0.000006 1.000000 -0.000001
-0.792783 0.807041 -0.101193 142 91 147 0.000005 -1.000000 0.000000
-0.800645 0.885356 -0.486617 142 91 147 -0.561292 0.736897 -0.376740
-0.808233 0.903469 -0.003647 142 91 147 -0.000005 1.000000 0.000000
-0.003989 0.807045 -0.804658 142 91 147 0.000005 -1.000000 0.000010
-0.439626 0.903470 -0.470787 142 91 147 -0.000006 1.000000 -0.000003
-0.587456 0.903469 -0.471563 142 91 147 -0.000006 1.000000 -0.000003
-0.505041 0.895096 -0.504879 142 91 147 0.000000 -1.000000 0.000000
-0.385251 0.903471 -0.064940 142 91 147 -0.000005 1.000000 0.000001
-0.071934 0.807044 -0.566349 142 91 147 0.000006 -1.000000 0.000003
-0.129061 0.807044 -0.926912 142 91 147 0.000008 -1.000000 -0.000013
-0.035572 0.903472 -0.915510 142 91 147 -0.000002 1.000000 -0.000015
-0.280501 0.807043 -0.649058 142 91 147 0.000006 -1.000000 0.000004
-0.124981 0.807044 -0.559007 142 91 147 0.000006 -1.000000 0.000003
-0.407505 0.903471 -0.419595 142 91 147 -0.000006 1.000000 -0.000001
-0.522605 0.869375 -0.814782 142 91 147 -0.268919 0.892856 -0.361235
-0.619050 0.807042 -0.084482 142 91 147 0.000005 -1.000000 0.000000
-0.297313 0.807043 -0.152430 142 91 147 0.000004 -1.000000 -0.000001
-0.864705 0.827122 -0.481460 142 91 147 -0.516150 -0.783304 -0.346443
-0.102541 0.807044 -0.021273 142 91 147 0.000003 -1.000000 -0.000003
-0.646377 0.903469 -0.326547 142 91 147 -0.000006 1.000000 -0.000001
-0.439680 0.903470 -0.476451 142 91 147 -0.000006 1.000000 -0.000003
-0.028892 0.807044 -0.171140 142 91 147 0.000003 -1.000000 -0.000003
-0.202011 0.905640 -0.785501 142 91 147 0.000000 1.000000 0.000000
-0.201455 0.807043 -0.740422 142 91 147 0.000006 -1.000000 -0.000012
-0.006530 0.861042 -0.984474 142 91 147 0.029316 0.892865 -0.449370
-0.065395 0.807044 -0.165139 142 91 147 0.000004 -1.000000 -0.000002
-0.320836 0.895096 -0.631745 142 91 147 0.000000 -1.000000 0.000000
-0.652931 0.905640 -0.287280 142 91 147 0.000000 1.000000 0.000000
-0.103703 0.903472 -0.664224 142 91 147 -0.000005 1.000000 0.000013
-0.074160 0.903472 -0.097084 142 91 147 -0.000004 1.000000 0.000003
-0.299729 0.807043 -0.174823 142 91 147 0.000004 -1.000000 -0.000001
-0.098872 0.807044 -0.067332 142 91 147 0.000003 -1.000000 -0.000003
-0.417754 0.807043 -0.146266 142 91 147 0.000005 -1.000000 0.000000
-0.813427 0.903469 -0.179271 142 91 147 -0.000006 1.000000 0.000000
-0.008671 0.903472 -0.147294 142 91 147 -0.000004 1.000000 0.000003
-0.197430 0.807043 -0.630851 142 91 147 0.000006 -1.000000 0.000004
-0.451118 0.903470 -0.546385 142 91 147 -0.000007 1.000000 -0.000004
-0.098895 0.807044 -0.762520 142 91 147 0.000006 -1.000000 -0.000012
-0.559941 0.807042 -0.112984 142 91 147 0.000005 -1.000000 0.000000
-0.142814 0.807044 -0.148728 142 91 147 0.000004 -1.000000 -0.000002
-0.345190 0.807043 -0.210178 142 91 147 0.000005 -1.000000 0.000000
-0.700014 0.903469 -0.359844 142 91 147 -0.000006 1.000000 -0.000003
-0.269142 0.903470 -0.842644 142 91 147 -0.000005 1.000000 -0.000010
-0.538362 0.808810 -0.800036 142 91 147 -0.371189 -0.783316 -0.498633
-0.154810 0.903472 -0.560491 142 91 147 -0.000006 1.000000 -0.000003
-0.213766 0.905640 -0.674136 142 91 147 0.000000 1.000000 0.000000
-0.027292 0.807045 -0.380725 142 91 147 0.000005 -1.000000 0.000000
-0.057866 0.807045 -0.483757 142 91 147 0.000005 -1.000000 0.000000
-0.787931 0.807041 -0.158053 142 91 147 0.000005 -1.000000 0.000000
-0.788665 0.807041 -0.398954 142 91 147 0.000006 -1.000000 0.000003
-0.109218 0.807044 -0.890113 142 91 147 0.000008 -1.000000 -0.000013
-0.921371 0.803922 -0.033285 142 91 147 0.788348 0.609502 0.083754
-0.179399 0.807044 -0.793944 142 91 147 0.000006 -1.000000 -0.000012
-0.415617 0.807043 -0.217858 142 91 147 0.000005 -1.000000 0.000000
-0.672679 0.903469 -0.335398 142 91 147 -0.000006 1.000000 -0.000001
-0.596603 0.887742 -0.719477 142 91 147 -0.403665 0.736905 -0.542241
-0.885663 0.807040 -0.093461 142 91 147 0.000005 -1.000000 0.000000
-0.208583 0.807044 -0.812715 142 91 147 0.000005 -1.000000 0.000010
-0.742100 0.807041 -0.456831 142 91 147 0.000006 -1.000000 0.000003
-0.107208 0.807044 -0.198263 142 91 147 0.000004 -1.000000 -0.000002
-0.363001 0.807043 -0.831326 142 91 147 0.000005 -1.000000 0.000010
-0.222194 0.807043 -0.039181 142 91 147 0.000004 -1.000000 -0.000002
-0.473289 0.807042 -0.130607 142 91 147 0.000005 -1.000000 0.000000
-0.568637 0.881412 -0.752160 142 91 147 -0.281413 0.881991 -0.378020
-0.713308 0.807041 -0.320574 142 91 147 0.000006 -1.000000 0.000001
-0.020794 0.903472 -0.140295 142 91 147 -0.000004 1.000000 0.000003
-0.597368 0.903470 -0.024433 142 91 147 -0.000005 1.000000 0.000000
-0.593597 0.895096 -0.404033 142 91 147 0.000000 -1.000000 0.000000
-0.057393 0.807044 -0.781521 142 91 147 0.000006 -1.000000 -0.000012
-0.277472 0.903471 -0.394530 142 91 147 -0.000006 1.000000 -0.000001
-0.225920 0.903472 -0.182896 142 91 147 -0.000005 1.000000 0.000001
-0.814192 0.903468 -0.419302 142 91 147 -0.000006 1.000000 -0.000003
-0.393336 0.807043 -0.335996 142 91 147 0.000005 -1.000000 0.000000
-0.006896 0.807045 -0.778579 142 91 147 0.000006 -1.000000 -0.000012
-0.127406 0.807044 -0.773875 142 91 147 0.000006 -1.000000 -0.000012
-0.797658 0.866221 -0.555504 142 91 147 -0.373924 0.892858 -0.250970
-0.902546 0.807040 -0.327891 142 91 147 0.000006 -1.000000 0.000003
-0.654015 0.903469 -0.061100 142 91 147 -0.000005 1.000000 0.000000
-0.069617 0.807044 -0.939380 142 91 147 0.000002 -1.000000 0.000015
-0.416514 0.807042 -0.581659 142 91 147 0.000006 -1.000000 0.000004
-0.045507 0.903472 -0.171456 142 91 147 -0.000004 1.000000 0.000002
-0.479240 0.807042 -0.447347 142 91 147 0.000006 -1.000000 0.000003
-0.931542 0.810297 -0.046473 142 91 147 0.431042 0.901169 0.045803
-0.555126 0.905640 -0.588130 142 91 147 0.000000 1.000000 0.000000
-0.511369 0.807042 -0.215739 142 91 147 0.000005 -1.000000 0.000000
-0.303347 0.807043 -0.033459 142 91 147 0.000004 -1.000000 -0.000002
-0.553431 0.903470 -0.629461 142 91 147 -0.000005 1.000000 0.000013
-0.646601 0.833639 -0.755408 142 91 147 -0.569263 -0.301986 -0.764685
-0.565373 0.807042 -0.205873 142 91 147 0.000005 -1.000000 0.000000
-0.512475 0.807041 -0.652135 142 91 147 0.000007 -1.000000 0.000006
-0.179861 0.807044 -0.941812 142 91 147 0.000002 -1.000000 0.000015
-0.040362 0.903472 -0.666192 142 91 147 -0.000005 1.000000 0.000013
-0.318452 0.895096 -0.635793 142 91 147 0.000000 -1.000000 0.000000
-0.561580 0.807042 -0.276242 142 91 147 0.000005 -1.000000 0.000000
-0.217080 0.903471 -0.007228 142 91 147 -0.000004 1.000000 0.000003
-0.204195 0.807044 -0.108485 142 91 147 0.000004 -1.000000 -0.000002
-0.613830 0.903469 -0.503197 142 91 147 -0.000007 1.000000 -0.000004
-0.930355 0.807040 -0.075184 142 91 147 0.000005 -1.000000 0.000000
-0.238026 0.807043 -0.616486 142 91 147 0.000006 -1.000000 0.000004
-0.156422 0.895096 -0.706296 142 91 147 0.000000 -1.000000 0.000000
-0.890737 0.807040 -0.287712 142 91 147 0.000006 -1.000000 0.000001
-0.791211 0.904950 -0.074111 142 91 147 0.997879 0.000000 0.065103
-0.252514 0.903471 -0.573361 142 91 147 -0.000007 1.000000 -0.000004
-0.288787 0.812295 -0.923652 142 91 147 -0.179357 -0.783295 -0.595214
-0.077724 0.807044 -0.623992 142 91 147 0.000006 -1.000000 0.000004
-0.804134 0.903468 -0.240061 142 91 147 -0.000006 1.000000 -0.000001
-0.617666 0.807041 -0.539140 142 91 147 0.000006 -1.000000 0.000004
-0.621266 0.903469 -0.619718 142 91 147 -0.000005 1.000000 0.000013
-0.026288 0.807045 -0.548886 142 91 147 0.000006 -1.000000 0.000001
-0.262832 0.895096 -0.671053 142 91 147 0.000000 -1.000000 0.000000
-0.212252 0.903472 -0.399207 142 91 147 -0.000006 1.000000 0.000000
-0.015921 0.903473 -0.835685 142 91 147 -0.000008 1.000000 0.000013
-0.510569 0.903470 -0.624112 142 91 147 -0.000005 1.000000 0.000013
-0.959218 0.849980 -0.262621 142 91 147 -0.688210 0.705007 -0.171264
-0.092446 0.807044 -0.441414 142 91 147 0.000005 -1.000000 0.000000
-0.524730 0.900258 -0.500680 142 91 147 -0.724151 0.000000 -0.689642
-0.875052 0.807040 -0.174295 142 91 147 0.000005 -1.000000 0.000000
-0.682273 0.807040 -0.672112 142 91 147 0.000007 -1.000000 0.000006
-0.412630 0.903471 -0.736708 142 91 147 -0.000005 1.000000 -0.000007
-0.236354 0.807043 -0.843535 142 91 147 0.000005 -1.000000 0.000010
-0.702012 0.807040 -0.623003 142 91 147 0.000007 -1.000000 0.000006
-0.098690 0.874740 -0.950121 142 91 147 -0.053587 0.881972 -0.468246
-0.434064 0.903470 -0.552485 142 91 147 -0.000007 1.000000 -0.000004
-0.289157 0.807043 -0.757281 142 91 147 0.000006 -1.000000 -0.000012
-0.137962 0.903472 -0.205617 142 91 147 -0.000005 1.000000 0.000001
-0.878551 0.807040 -0.192500 142 91 147 0.000006 -1.000000 0.000001
-0.491142 0.807042 -0.341396 142 91 147 0.000006 -1.000000 0.000001
-0.034639 0.807045 -0.541592 142 91 147 0.000006 -1.000000 0.000001
-0.701770 0.807041 -0.277635 142 91 147 0.000006 -1.000000 0.000001
-0.120069 0.903472 -0.068109 142 91 147 -0.000004 1.000000 0.000003
-0.665724 0.903469 -0.409357 142 91 147 -0.000006 1.000000 -0.000003
-0.095300 0.807044 -0.424003 142 91 147 0.000005 -1.000000 0.000000
-0.134002 0.807044 -0.255142 142 91 147 0.000004 -1.000000 -0.000001
-0.402347 0.871206 -0.874682 142 91 147 -0.203156 0.892856 -0.401915
-0.274414 0.807043 -0.897536 142 91 147 0.000008 -1.000000 -0.000013
-0.416240 0.903471 -0.664844 142 91 147 -0.000005 1.000000 0.000013
-0.021668 0.903473 -0.013502 142 91 147 -0.000012 1.000000 -0.000006
-0.152541 0.807044 -0.224201 142 91 147 0.000004 -1.000000 -0.000001
-0.897791 0.883021 -0.284679 142 91 147 -0.457338 0.881981 -0.113803
-0.381135 0.903471 -0.178799 142 91 147 -0.000005 1.000000 0.000000
-0.318111 0.855199 -0.937134 142 91 147 -0.204609 0.705125 -0.678922
-0.283771 0.807043 -0.603618 142 91 147 0.000006 -1.000000 0.000004
-0.690216 0.903468 -0.563116 142 91 147 -0.000007 1.000000 -0.000004
-0.569497 0.807041 -0.750468 142 91 147 0.000006 -1.000000 -0.000012
-0.260338 0.807043 -0.864317 142 91 147 0.000005 -1.000000 0.000010
-0.141591 0.880845 -0.933711 142 91 147 -0.053588 0.881975 -0.468239
-0.009683 0.903473 -0.027764 142 91 147 -0.000012 1.000000 -0.000006
-0.144243 0.807044 -0.147264 142 91 147 0.000004 -1.000000 -0.000002
-0.068569 0.807045 -0.388858 142 91 147 0.000005 -1.000000 0.000000
-0.852856 0.821611 -0.486653 142 91 147 -0.516150 -0.783304 -0.346443
-0.017604 0.807045 -0.609790 142 91 147 0.000006 -1.000000 0.000003
-0.448074 0.903470 -0.749126 142 91 147 -0.000005 1.000000 -0.000007
-0.409680 0.903470 -0.569671 142 91 147 -0.000007 1.000000 -0.000004
-0.195892 0.807043 -0.769594 142 91 147 0.000006 -1.000000 -0.000012
-0.038669 0.903472 -0.085882 142 91 147 -0.000004 1.000000 0.000003
-0.381624 0.903471 -0.394317 142 91 147 -0.000006 1.000000 -0.000001
-0.224715 0.807043 -0.590806 142 91 147 0.000006 -1.000000 0.000004
-0.609152 0.807041 -0.517450 142 91 147 0.000006 -1.000000 0.000004
-0.510069 0.807042 -0.533817 142 91 147 0.000006 -1.000000 0.000004
-0.389795 0.807043 -0.562282 142 91 147 0.000006 -1.000000 0.000004
-0.676253 0.903469 -0.491758 142 91 147 -0.000007 1.000000 -0.000004
-0.606240 0.903469 -0.425051 142 91 147 -0.000006 1.000000 -0.000003
-0.753102 0.898931 -0.262212 142 91 147 0.913413 0.000000 0.407035
-0.163169 0.903471 -0.800713 142 91 147 -0.000005 1.000000 -0.000010
-0.079790 0.903472 -0.101374 142 91 147 -0.000004 1.000000 0.000003
-0.019557 0.903473 -0.331898 142 91 147 -0.000005 1.000000 0.000001
-0.790107 0.807041 -0.392783 142 91 147 0.000006 -1.000000 0.000003
-0.958504 0.856521 -0.238562 142 91 147 -0.688175 0.705046 -0.171250
-0.120832 0.903472 -0.607188 142 91 147 -0.000007 1.000000 -0.000004
-0.440656 0.895096 -0.568872 142 91 147 0.000000 -1.000000 0.000000
-0.190786 0.903472 -0.725713 142 91 147 -0.000005 1.000000 -0.000007
-0.145492 0.807044 -0.247231 142 91 147 0.000004 -1.000000 -0.000001
-0.173530 0.807044 -0.208965 142 91 147 0.000004 -1.000000 -0.000001
-0.675147 0.807041 -0.142780 142 91 147 0.000005 -1.000000 0.000000
-0.289371 0.904645 -0.742687 142 91 147 0.288534 0.000000 0.957470
-0.930459 0.817252 -0.294101 142 91 147 -0.603230 -0.783313 -0.150113
-0.712373 0.899564 -0.141216 142 91 147 -0.970408 0.000000 -0.241470
-0.433859 0.903470 -0.383481 142 91 147 -0.000006 1.000000 -0.000001
-0.007696 0.807044 -0.058421 142 91 147 0.000003 -1.000000 -0.000003
-0.875868 0.903468 -0.243910 142 91 147 -0.000006 1.000000 -0.000001
-0.244131 0.905640 -0.769796 142 91 147 0.000000 1.000000 0.000000
-0.748598 0.903469 -0.287145 142 91 147 -0.000006 1.000000 -0.000001
-0.493630 0.903470 -0.553543 142 91 147 -0.000007 1.000000 -0.000004
-0.021986 0.903472 -0.834331 142 91 147 -0.000008 1.000000 0.000013
-0.836272 0.807041 -0.017346 142 91 147 0.000005 -1.000000 0.000000
-0.840177 0.807040 -0.301312 142 91 147 0.000006 -1.000000 0.000001
-0.809559 0.807041 -0.111835 142 91 147 0.000005 -1.000000 0.000000
-0.552678 0.810056 -0.791337 142 91 147 -0.371189 -0.783316 -0.498633
-0.495474 0.807042 -0.377559 142 91 147 0.000006 -1.000000 0.000001
-0.320988 0.902521 -0.749656 142 91 147 -0.451105 0.000000 -0.892471
-0.398383 0.903471 -0.228380 142 91 147 -0.000005 1.000000 0.000000
-0.778439 0.905640 -0.166719 142 91 147 0.000000 1.000000 0.000000
-0.109064 0.807044 -0.853980 142 91 147 0.000005 -1.000000 0.000010
-0.379428 0.903471 -0.688469 142 91 147 -0.000005 1.000000 0.000013
-0.302705 0.903471 -0.434002 142 91 147 -0.000006 1.000000 -0.000001
-0.957479 0.810764 -0.013126 142 91 147 -0.163489 0.986540 -0.003130
-0.694225 0.807041 -0.439015 142 91 147 0.000006 -1.000000 0.000003
-0.068105 0.903472 -0.623896 142 91 147 -0.000007 1.000000 -0.000004
-0.601377 0.807042 -0.060142 142 91 147 0.000005 -1.000000 0.000000
-0.572019 0.903470 -0.006921 142 91 147 -0.000005 1.000000 0.000001
-0.168894 0.903472 -0.075999 142 91 147 -0.000004 1.000000 0.000002
-0.776862 0.895096 -0.214315 142 91 147 0.000000 -1.000000 0.000000
-0.228068 0.903471 -0.526781 142 91 147 -0.000006 1.000000 -0.000003
-0.311498 0.903471 -0.379742 142 91 147 -0.000006 1.000000 -0.000001
-0.229587 0.901888 -0.688430 142 91 147 -0.288538 0.000000 -0.957469
-0.296511 0.903471 -0.246680 142 91 147 -0.000005 1.000000 0.000000
-0.054555 0.903473 -0.280498 142 91 147 -0.000005 1.000000 0.000001
-0.720072 0.863240 -0.661626 142 91 147 -0.326116 0.892858 -0.310570
-0.516033 0.903470 -0.653162 142 91 147 -0.000005 1.000000 0.000013
-0.494698 0.903470 -0.750568 142 91 147 -0.000005 1.000000 -0.000007
-0.458999 0.807042 -0.514488 142 91 147 0.000006 -1.000000 0.000003
-0.329002 0.803720 -0.856872 142 91 147 -0.382141 0.000000 -0.924104
-0.090635 0.903472 -0.021352 142 91 147 -0.000004 1.000000 0.000003
-0.046407 0.903473 -0.708568 142 91 147 -0.000005 1.000000 -0.000007
-0.267596 0.807043 -0.515751 142 91 147 0.000006 -1.000000 0.000003
-0.733354 0.860199 -0.656422 142 91 147 -0.326116 0.892858 -0.310570
-0.059772 0.807045 -0.915300 142 91 147 0.000002 -1.000000 0.000015
-0.515883 0.807042 -0.416032 142 91 147 0.000006 -1.000000 0.000001
-0.390771 0.807043 -0.402822 142 91 147 0.000006 -1.000000 0.000001
-0.283743 0.807043 -0.004784 142 91 147 0.000004 -1.000000 -0.000002
-0.056096 0.807044 -0.224845 142 91 147 0.000004 -1.000000 -0.000002
-0.040608 0.903472 -0.187275 142 91 147 -0.000004 1.000000 0.000002
-0.661935 0.807041 -0.374303 142 91 147 0.000006 -1.000000 0.000001
-0.280364 0.807043 -0.179297 142 91 147 0.000004 -1.000000 -0.000001
-0.854410 0.903468 -0.016876 142 91 147 -0.000006 1.000000 0.000000
-0.247746 0.807043 -0.078212 142 91 147 0.000004 -1.000000 -0.000002
-0.256041 0.903471 -0.622911 142 91 147 -0.000007 1.000000 -0.000004
-0.653074 0.884128 -0.673987 142 91 147 -0.341270 0.881991 -0.325003
-0.100309 0.807044 -0.723371 142 91 147 0.000007 -1.000000 0.000006
-0.007014 0.811985 -0.948775 142 91 147 0.003128 0.986560 -0.163372
-0.263944 0.903471 -0.453739 142 91 147 -0.000006 1.000000 -0.000001
-0.683044 0.901184 -0.408005 142 91 147 0.830313 0.000000 0.557297
-0.294022 0.903471 -0.075970 142 91 147 -0.000005 1.000000 0.000001
-0.421937 0.903470 -0.635394 142 91 147 -0.000005 1.000000 0.000013
-0.421970 0.807042 -0.616708 142 91 147 0.000006 -1.000000 0.000004
-0.564560 0.903470 -0.329930 142 91 147 -0.000006 1.000000 -0.000001
-0.521544 0.807041 -0.680645 142 91 147 0.000007 -1.000000 0.000006
-0.764443 0.818862 -0.612160 142 91 147 -0.516168 -0.783290 -0.346449
-0.195060 0.807044 -0.524035 142 91 147 0.000006 -1.000000 0.000003
-0.364577 0.807043 -0.441813 142 91 147 0.000006 -1.000000 0.000001
-0.575099 0.903470 -0.171745 142 91 147 -0.000006 1.000000 0.000000
-0.321203 0.807043 -0.471863 142 91 147 0.000006 -1.000000 0.000001
-0.210277 0.892150 -0.906544 142 91 147 -0.195058 0.736870 -0.647283
-0.049866 0.903473 -0.312615 142 91 147 -0.000005 1.000000 0.000001
-0.250605 0.807044 -0.460945 142 91 147 0.000006 -1.000000 0.000001
-0.196996 0.903471 -0.852816 142 91 147 -0.000008 1.000000 0.000013
-0.615948 0.903469 -0.625353 142 91 147 -0.000005 1.000000 0.000013
-0.476336 0.903470 -0.100504 142 91 147 -0.000005 1.000000 0.000000
-0.964134 0.808495 -0.008217 142 91 147 -0.620307 -0.783315 -0.040470
-0.145875 0.807044 -0.188497 142 91 147 0.000004 -1.000000 -0.000002
-0.815295 0.903468 -0.219881 142 91 147 -0.000006 1.000000 -0.000001
-0.717113 0.807040 -0.601983 142 91 147 0.000006 -1.000000 0.000004
-0.295890 0.903471 -0.134759 142 91 147 -0.000005 1.000000 0.000001
-0.264004 0.818193 -0.938881 142 91 147 -0.179357 -0.783295 -0.595214
-0.645540 0.903469 -0.610804 142 91 147 -0.000005 1.000000 0.000013
-0.166441 0.903471 -0.636450 142 91 147 -0.000005 1.000000 0.000013
-0.147641 0.807044 -0.036771 142 91 147 0.000003 -1.000000 -0.000003
-0.362173 0.807043 -0.515446 142 91 147 0.000006 -1.000000 0.000003
-0.174813 0.903472 -0.672891 142 91 147 -0.000005 1.000000 0.000013
-0.083820 0.807044 -0.158620 142 91 147 0.000004 -1.000000 -0.000002
-0.397210 0.903470 -0.545725 142 91 147 -0.000007 1.000000 -0.000004
-0.440932 0.807043 -0.023853 142 91 147 0.000004 -1.000000 -0.000001
-0.681426 0.903469 -0.144319 142 91 147 -0.000006 1.000000 0.000000
-0.203138 0.903471 -0.877936 142 91 147 -0.000008 1.000000 0.000013
-0.382268 0.903470 -0.574161 142 91 147 -0.000007 1.000000 -0.000004
-0.932044 0.807040 -0.179283 142 91 147 0.000006 -1.000000 0.000001
-0.038720 0.903473 -0.464886 142 91 147 -0.000006 1.000000 0.000000
-0.482234 0.807042 -0.618162 142 91 147 0.000006 -1.000000 0.000004
-0.910964 0.807040 -0.264733 142 91 147 0.000006 -1.000000 0.000001
-0.461549 0.807042 -0.506783 142 91 147 0.000006 -1.000000 0.000003
-0.161441 0.895096 -0.794222 142 91 147 0.000000 -1.000000 0.000000
-0.819658 0.903469 -0.041510 142 91 147 -0.000006 1.000000 0.000000
-0.711846 0.807041 -0.081216 142 91 147 0.000005 -1.000000 0.000000
-0.277168 0.807044 -0.305635 142 91 147 0.000005 -1.000000 0.000000
-0.806288 0.807041 -0.094202 142 91 147 0.000005 -1.000000 0.000000
-0.225688 0.807044 -0.378717 142 91 147 0.000005 -1.000000 0.000000
-0.848119 0.903468 -0.152759 142 91 147 -0.000006 1.000000 0.000000
-0.182175 0.807044 -0.935520 142 91 147 0.000008 -1.000000 -0.000013
-0.049553 0.807044 -0.058609 142 91 147 0.000003 -1.000000 -0.000003
-0.758576 0.903469 -0.307234 142 91 147 -0.000006 1.000000 -0.000001
-0.021601 0.807045 -0.430429 142 91 147 0.000005 -1.000000 0.000000
