ply
format ascii 1.0
element vertex 717
property float x
property float y
property float z
property uchar red
property uchar green
property uchar blue
property float nx
property float ny
property float nz
end_header
-0.250117 0.638606 -0.166617 215 73 94 0.000000 1.000000 0.000000
-0.258269 0.556872 -0.798499 215 73 94 0.000000 1.000000 0.000000
-0.439940 0.573558 -0.164400 215 73 94 -0.829151 -0.559025 0.000000
-0.020108 0.638606 -0.531709 215 73 94 0.000000 1.000000 0.000000
-0.068803 0.414296 -0.731075 215 73 94 0.000000 -0.999998 0.002039
-0.411963 0.506789 -0.213243 215 73 94 -0.034135 0.999417 0.000000
-0.450370 0.608734 -0.873293 215 73 94 -0.999943 -0.010717 0.000000
-0.328175 0.506520 -0.131137 215 73 94 0.000000 -1.000000 0.000000
-0.275158 0.506520 -0.677978 215 73 94 0.000000 -1.000000 0.000000
-0.282123 0.598190 -0.999582 215 73 94 0.000000 -0.086623 -0.996241
-0.234839 0.506694 -0.513950 215 73 94 0.000000 1.000000 0.000000
-0.198622 0.414362 -0.716849 215 73 94 0.000000 -0.999987 0.005169
-0.067348 0.506694 -0.904402 215 73 94 0.000000 1.000000 0.000000
-0.137124 0.614653 -0.999978 215 73 94 0.000000 0.007439 -0.999972
-0.272260 0.506694 -0.103981 215 73 94 0.000000 1.000000 0.000000
-0.010184 0.556872 -0.666836 215 73 94 0.000000 1.000000 0.000000
-0.008112 0.551674 -0.138118 215 73 94 0.000000 -1.000000 0.000000
-0.090765 0.506520 -0.813127 215 73 94 0.000000 -1.000000 0.000000
-0.383607 0.551674 -0.260330 215 73 94 0.000000 -1.000000 0.000000
-0.199501 0.551674 -0.866732 215 73 94 0.000000 -1.000000 0.000000
-0.242996 0.506520 -0.629055 215 73 94 0.000000 -1.000000 0.000000
-0.272782 0.551674 -0.647287 215 73 94 0.000000 -1.000000 0.000000
-0.199907 0.415607 -0.047776 215 73 94 0.000000 -0.999999 0.001028
-0.098426 0.556872 -0.870024 215 73 94 0.000000 1.000000 0.000000
-0.180834 0.556872 -0.504785 215 73 94 0.000000 1.000000 0.000000
-0.343410 0.638606 -0.519767 215 73 94 0.000000 1.000000 0.000000
-0.225152 0.551674 -0.721311 215 73 94 0.000000 -1.000000 0.000000
-0.106538 0.506520 -0.512535 215 73 94 0.000000 -1.000000 0.000000
-0.042743 0.551674 -0.044764 215 73 94 0.000000 -1.000000 0.000000
-0.103146 0.638606 -0.073400 215 73 94 0.000000 1.000000 0.000000
-0.384045 0.506520 -0.777184 215 73 94 0.000000 -1.000000 0.000000
-0.011608 0.638606 -0.844237 215 73 94 0.000000 1.000000 0.000000
-0.119647 0.638606 -0.998968 215 73 94 0.000000 1.000000 0.000000
-0.198896 0.638606 -0.311582 215 73 94 0.000000 1.000000 0.000000
-0.449230 0.596030 -0.989100 215 73 94 -0.981061 -0.193697 0.000000
-0.052346 0.638606 -0.305268 215 73 94 0.000000 1.000000 0.000000
-0.414490 0.638606 -0.631341 215 73 94 0.000000 1.000000 0.000000
-0.215252 0.638606 -0.706631 215 73 94 0.000000 1.000000 0.000000
-0.315309 0.415078 -0.453759 215 73 94 0.000000 -0.999999 0.001323
-0.270195 0.415619 -0.035753 215 73 94 0.000000 -0.999999 0.001028
-0.369487 0.551674 -0.207282 215 73 94 0.000000 -1.000000 0.000000
-0.399943 0.556872 -0.713460 215 73 94 0.000000 1.000000 0.000000
-0.034868 0.506694 -0.883744 215 73 94 0.000000 1.000000 0.000000
-0.014362 0.556872 -0.224824 215 73 94 0.000000 1.000000 0.000000
-0.206811 0.638606 -0.923257 215 73 94 0.000000 1.000000 0.000000
-0.426520 0.533075 -0.514993 215 73 94 -1.000000 0.000000 0.000000
-0.305322 0.556872 -0.897940 215 73 94 0.000000 1.000000 0.000000
-0.315117 0.551674 -0.420880 215 73 94 0.000000 -1.000000 0.000000
-0.158522 0.556872 -0.863318 215 73 94 0.000000 1.000000 0.000000
-0.356473 0.551674 -0.901265 215 73 94 0.000000 -1.000000 0.000000
-0.340409 0.506694 -0.489410 215 73 94 0.000000 1.000000 0.000000
-0.278334 0.551674 -0.532478 215 73 94 0.000000 -1.000000 0.000000
-0.092069 0.506520 -0.088537 215 73 94 0.000000 -1.000000 0.000000
-0.192107 0.551674 -0.284839 215 73 94 0.000000 -1.000000 0.000000
-0.258042 0.506520 -0.358395 215 73 94 0.000000 -1.000000 0.000000
-0.436078 0.638606 -0.659802 215 73 94 0.000000 1.000000 0.000000
-0.441151 0.638606 -0.911532 215 73 94 0.000000 1.000000 0.000000
-0.050596 0.551674 -0.568381 215 73 94 0.000000 -1.000000 0.000000
-0.365198 0.556872 -0.904039 215 73 94 0.000000 1.000000 0.000000
-0.023390 0.638606 -0.494572 215 73 94 0.000000 1.000000 0.000000
-0.449653 0.620766 -0.266183 215 73 94 -0.990905 0.134563 0.000000
-0.092507 0.506520 -0.214871 215 73 94 0.000000 -1.000000 0.000000
-0.245272 0.506694 -0.907848 215 73 94 0.000000 1.000000 0.000000
-0.177982 0.506520 -0.682652 215 73 94 0.000000 -1.000000 0.000000
-0.098993 0.506694 -0.453459 215 73 94 0.000000 1.000000 0.000000
-0.340595 0.414790 -0.634069 215 73 94 0.000000 -0.999987 0.005169
-0.055231 0.556872 -0.115917 215 73 94 0.000000 1.000000 0.000000
-0.374542 0.415197 -0.363912 215 73 94 0.000000 -0.999999 0.001323
-0.048076 0.638606 -0.027091 215 73 94 0.000000 1.000000 0.000000
-0.255117 0.506520 -0.163687 215 73 94 0.000000 -1.000000 0.000000
-0.209664 0.506520 -0.410182 215 73 94 0.000000 -1.000000 0.000000
-0.037557 0.415368 -0.234191 215 73 94 0.000000 -0.999999 0.001323
-0.325676 0.556872 -0.272424 215 73 94 0.000000 1.000000 0.000000
-0.174326 0.415359 -0.241499 215 73 94 0.000000 -0.999999 0.001323
-0.085948 0.638606 -0.549515 215 73 94 0.000000 1.000000 0.000000
-0.081530 0.551674 -0.565504 215 73 94 0.000000 -1.000000 0.000000
-0.398668 0.506694 -0.001700 215 73 94 0.000000 1.000000 0.000000
-0.313475 0.415557 -0.091239 215 73 94 0.000000 -0.999999 0.001323
-0.181571 0.551674 -0.719308 215 73 94 0.000000 -1.000000 0.000000
-0.062680 0.556872 -0.113189 215 73 94 0.000000 1.000000 0.000000
-0.387919 0.506694 -0.441782 215 73 94 0.000000 1.000000 0.000000
-0.301004 0.414247 -0.754703 215 73 94 0.000000 -0.999998 0.002039
-0.201567 0.551674 -0.405369 215 73 94 0.000000 -1.000000 0.000000
-0.241196 0.556872 -0.253690 215 73 94 0.000000 1.000000 0.000000
-0.224696 0.506694 -0.778797 215 73 94 0.000000 1.000000 0.000000
-0.317022 0.551674 -0.561268 215 73 94 0.000000 -1.000000 0.000000
-0.179605 0.415331 -0.262501 215 73 94 0.000000 -0.999999 0.001323
-0.291379 0.551674 -0.503178 215 73 94 0.000000 -1.000000 0.000000
-0.167398 0.556872 -0.209755 215 73 94 0.000000 1.000000 0.000000
-0.199731 0.414304 -0.728068 215 73 94 0.000000 -0.999987 0.005169
-0.321926 0.415515 -0.123377 215 73 94 0.000000 -0.999999 0.001323
-0.403911 0.638606 -0.869077 215 73 94 0.000000 1.000000 0.000000
-0.165954 0.638606 -0.355443 215 73 94 0.000000 1.000000 0.000000
-0.415146 0.638606 -0.789203 215 73 94 0.000000 1.000000 0.000000
-0.383804 0.638606 -0.253615 215 73 94 0.000000 1.000000 0.000000
-0.312373 0.506520 -0.079404 215 73 94 0.000000 -1.000000 0.000000
-0.271216 0.556872 -0.843381 215 73 94 0.000000 1.000000 0.000000
-0.113141 0.506520 -0.753515 215 73 94 0.000000 -1.000000 0.000000
-0.431958 0.551674 -0.656536 215 73 94 0.000000 -1.000000 0.000000
-0.116883 0.638606 -0.835309 215 73 94 0.000000 1.000000 0.000000
-0.390236 0.638606 -0.239080 215 73 94 0.000000 1.000000 0.000000
-0.290583 0.506694 -0.857223 215 73 94 0.000000 1.000000 0.000000
-0.023596 0.551674 -0.790576 215 73 94 0.000000 -1.000000 0.000000
-0.384370 0.556872 -0.761341 215 73 94 0.000000 1.000000 0.000000
-0.103608 0.506694 -0.816526 215 73 94 0.000000 1.000000 0.000000
-0.443675 0.579498 -0.531694 215 73 94 -0.904220 -0.427067 0.000000
-0.254887 0.638606 -0.033828 215 73 94 0.000000 1.000000 0.000000
-0.447428 0.588685 -0.233598 215 73 94 -0.952881 -0.303343 0.000000
-0.087377 0.556872 -0.283725 215 73 94 0.000000 1.000000 0.000000
-0.353645 0.638606 -0.160794 215 73 94 0.000000 1.000000 0.000000
-0.095396 0.551674 -0.043249 215 73 94 0.000000 -1.000000 0.000000
-0.349262 0.556872 -0.916797 215 73 94 0.000000 1.000000 0.000000
-0.293744 0.556872 -0.772798 215 73 94 0.000000 1.000000 0.000000
-0.159972 0.551674 -0.739353 215 73 94 0.000000 -1.000000 0.000000
-0.349525 0.551674 -0.680898 215 73 94 0.000000 -1.000000 0.000000
-0.131878 0.638606 -0.345226 215 73 94 0.000000 1.000000 0.000000
-0.126644 0.551674 -0.942696 215 73 94 0.000000 -1.000000 0.000000
-0.155990 0.556872 -0.416106 215 73 94 0.000000 1.000000 0.000000
-0.430778 0.551674 -0.120764 215 73 94 0.000000 -1.000000 0.000000
-0.438010 0.638606 -0.580236 215 73 94 0.000000 1.000000 0.000000
-0.289053 0.556872 -0.106292 215 73 94 0.000000 1.000000 0.000000
-0.334558 0.415593 -0.061277 215 73 94 0.000000 -0.999999 0.001028
-0.294468 0.556872 -0.295488 215 73 94 0.000000 1.000000 0.000000
-0.332430 0.551674 -0.874424 215 73 94 0.000000 -1.000000 0.000000
-0.218401 0.415571 -0.080922 215 73 94 0.000000 -0.999999 0.001323
-0.351080 0.638606 -0.192989 215 73 94 0.000000 1.000000 0.000000
-0.278201 0.556872 -0.694333 215 73 94 0.000000 1.000000 0.000000
-0.109520 0.551674 -0.579095 215 73 94 0.000000 -1.000000 0.000000
-0.089070 0.415589 -0.064941 215 73 94 0.000000 -0.999999 0.001028
-0.049284 0.638606 -0.556539 215 73 94 0.000000 1.000000 0.000000
-0.028976 0.551674 -0.349894 215 73 94 0.000000 -1.000000 0.000000
-0.218339 0.506694 -0.865378 215 73 94 0.000000 1.000000 0.000000
-0.277618 0.551674 -0.174440 215 73 94 0.000000 -1.000000 0.000000
-0.367779 0.506520 -0.854975 215 73 94 0.000000 -1.000000 0.000000
-0.081256 0.551674 -0.197084 215 73 94 0.000000 -1.000000 0.000000
-0.265795 0.415138 -0.408478 215 73 94 0.000000 -0.999999 0.001323
-0.425001 0.551674 -0.222756 215 73 94 0.000000 -1.000000 0.000000
-0.359296 0.638606 -0.345601 215 73 94 0.000000 1.000000 0.000000
-0.320656 0.638606 -0.879194 215 73 94 0.000000 1.000000 0.000000
-0.089244 0.506520 -0.733697 215 73 94 0.000000 -1.000000 0.000000
-0.213947 0.551674 -0.692603 215 73 94 0.000000 -1.000000 0.000000
-0.015147 0.506520 0.312134 129 76 135 0.000000 -1.000000 0.000000
-0.260547 0.638606 0.843695 129 76 135 0.000000 1.000000 0.000000
-0.414610 0.506520 0.406110 129 76 135 0.000000 -1.000000 0.000000
-0.327436 0.556872 0.473237 129 76 135 0.000000 1.000000 0.000000
-0.167113 0.412070 0.885876 129 76 135 0.000000 -1.000000 0.000000
-0.147577 0.556872 0.813672 129 76 135 0.000000 1.000000 0.000000
-0.090073 0.551674 0.942862 129 76 135 0.000000 -1.000000 0.000000
-0.255849 0.551674 0.158468 129 76 135 0.000000 -1.000000 0.000000
-0.394408 0.556872 0.376004 129 76 135 0.000000 1.000000 0.000000
-0.336324 0.506520 0.849749 129 76 135 0.000000 -1.000000 0.000000
-0.157607 0.416425 0.650315 129 76 135 0.000000 -0.999986 0.005222
-0.327114 0.551674 0.679340 129 76 135 0.000000 -1.000000 0.000000
-0.190685 0.415882 0.220268 129 76 135 0.000000 -0.999999 0.001028
-0.060599 0.556872 0.450405 129 76 135 0.000000 1.000000 0.000000
-0.032319 0.506520 0.872296 129 76 135 0.000000 -1.000000 0.000000
-0.158043 0.506520 0.083470 129 76 135 0.000000 -1.000000 0.000000
-0.346189 0.415668 0.012037 129 76 135 0.000000 -0.999999 0.001028
-0.383763 0.556872 0.301927 129 76 135 0.000000 1.000000 0.000000
-0.151635 0.416233 0.560845 129 76 135 0.000000 -0.999999 0.001028
-0.256175 0.556872 0.786490 129 76 135 0.000000 1.000000 0.000000
-0.031551 0.506520 0.885864 129 76 135 0.000000 -1.000000 0.000000
-0.407896 0.638606 0.333297 129 76 135 0.000000 1.000000 0.000000
-0.033196 0.551674 0.848465 129 76 135 0.000000 -1.000000 0.000000
-0.378195 0.556872 0.257001 129 76 135 0.000000 1.000000 0.000000
-0.180367 0.561219 0.978043 129 76 135 0.000000 -0.133762 0.991014
-0.223041 0.506694 0.562972 129 76 135 0.000000 1.000000 0.000000
-0.162730 0.506520 0.728365 129 76 135 0.000000 -1.000000 0.000000
-0.213636 0.556872 0.380571 129 76 135 0.000000 1.000000 0.000000
-0.426134 0.551674 0.237489 129 76 135 0.000000 -1.000000 0.000000
-0.033009 0.556872 0.827441 129 76 135 0.000000 1.000000 0.000000
-0.379800 0.506520 0.354045 129 76 135 0.000000 -1.000000 0.000000
-0.000689 0.556872 0.524543 129 76 135 0.000000 1.000000 0.000000
-0.010786 0.415995 0.329466 129 76 135 0.000000 -0.999999 0.001028
-0.307970 0.416895 0.751823 129 76 135 0.000000 -0.999998 0.002074
-0.231355 0.506694 0.452896 129 76 135 0.000000 1.000000 0.000000
-0.276389 0.551674 0.950633 129 76 135 0.000000 -1.000000 0.000000
-0.120762 0.551674 0.166391 129 76 135 0.000000 -1.000000 0.000000
-0.168996 0.506694 0.223267 129 76 135 0.000000 1.000000 0.000000
-0.327962 0.556872 0.552796 129 76 135 0.000000 1.000000 0.000000
-0.141864 0.506520 0.665346 129 76 135 0.000000 -1.000000 0.000000
-0.346158 0.627283 0.998961 129 76 135 0.000000 0.152452 0.988311
-0.229006 0.638606 0.161585 129 76 135 0.000000 1.000000 0.000000
-0.277322 0.506520 0.773443 129 76 135 0.000000 -1.000000 0.000000
-0.357068 0.506520 0.295548 129 76 135 0.000000 -1.000000 0.000000
-0.067765 0.416972 0.788569 129 76 135 0.000000 -0.999998 0.002074
-0.421749 0.502977 0.420065 129 76 135 -0.534665 0.845064 0.000000
-0.264108 0.551674 0.864389 129 76 135 0.000000 -1.000000 0.000000
-0.300502 0.551674 0.927787 129 76 135 0.000000 -1.000000 0.000000
-0.027678 0.582798 0.993542 129 76 135 0.000000 -0.456719 0.889611
-0.181019 0.416864 0.736649 129 76 135 0.000000 -0.999998 0.002074
-0.390136 0.638606 0.201966 129 76 135 0.000000 1.000000 0.000000
-0.044881 0.551674 0.080958 129 76 135 0.000000 -1.000000 0.000000
-0.296020 0.506694 0.039248 129 76 135 0.000000 1.000000 0.000000
-0.297319 0.551674 0.773998 129 76 135 0.000000 -1.000000 0.000000
-0.238225 0.518764 0.951258 129 76 135 0.000000 0.000000 1.000000
-0.448425 0.591955 0.202127 129 76 135 -0.981061 -0.193697 0.000000
-0.101742 0.416274 0.601152 129 76 135 0.000000 -0.999999 0.001028
-0.222365 0.551674 0.325381 129 76 135 0.000000 -1.000000 0.000000
-0.157108 0.551674 0.322018 129 76 135 0.000000 -1.000000 0.000000
-0.140905 0.556872 0.829065 129 76 135 0.000000 1.000000 0.000000
-0.316478 0.556872 0.887269 129 76 135 0.000000 1.000000 0.000000
-0.117423 0.415757 0.098718 129 76 135 0.000000 -0.999999 0.001028
-0.408484 0.556872 0.730329 129 76 135 0.000000 1.000000 0.000000
-0.256055 0.638606 0.903892 129 76 135 0.000000 1.000000 0.000000
-0.071846 0.551674 0.088579 129 76 135 0.000000 -1.000000 0.000000
-0.049721 0.638606 0.976782 129 76 135 0.000000 1.000000 0.000000
-0.422045 0.551674 0.468641 129 76 135 0.000000 -1.000000 0.000000
-0.002966 0.415658 0.002234 129 76 135 0.000000 -0.999999 0.001028
-0.007721 0.506520 0.937375 129 76 135 0.000000 -1.000000 0.000000
-0.352653 0.556872 0.697835 129 76 135 0.000000 1.000000 0.000000
-0.358507 0.551674 0.328163 129 76 135 0.000000 -1.000000 0.000000
-0.103479 0.638606 0.918108 129 76 135 0.000000 1.000000 0.000000
-0.024188 0.551674 0.492665 129 76 135 0.000000 -1.000000 0.000000
-0.383324 0.506694 0.476307 129 76 135 0.000000 1.000000 0.000000
-0.424021 0.506520 0.743050 129 76 135 0.000000 -1.000000 0.000000
-0.134066 0.636472 0.997186 129 76 135 0.000000 0.226255 0.974068
-0.383917 0.638606 0.564274 129 76 135 0.000000 1.000000 0.000000
-0.450340 0.605972 0.098519 129 76 135 -0.999943 -0.010720 0.000000
-0.361999 0.506520 0.808362 129 76 135 0.000000 -1.000000 0.000000
-0.355964 0.551674 0.145976 129 76 135 0.000000 -1.000000 0.000000
-0.381218 0.551674 0.056393 129 76 135 0.000000 -1.000000 0.000000
-0.043285 0.506520 0.821181 129 76 135 0.000000 -1.000000 0.000000
-0.049570 0.556872 0.056366 129 76 135 0.000000 1.000000 0.000000
-0.059001 0.551674 0.326119 129 76 135 0.000000 -1.000000 0.000000
-0.405411 0.556872 0.661052 129 76 135 0.000000 1.000000 0.000000
-0.357473 0.551674 0.378766 129 76 135 0.000000 -1.000000 0.000000
-0.417113 0.556872 0.335069 129 76 135 0.000000 1.000000 0.000000
-0.442030 0.576658 0.770671 129 76 135 -0.829151 -0.559025 0.000000
-0.373972 0.506700 0.858206 129 76 135 0.000236 1.000000 -0.000514
-0.368686 0.638606 0.514196 129 76 135 0.000000 1.000000 0.000000
-0.327861 0.506520 0.265144 129 76 135 0.000000 -1.000000 0.000000
-0.292877 0.551674 0.253023 129 76 135 0.000000 -1.000000 0.000000
-0.000475 0.556872 0.138334 129 76 135 0.000000 1.000000 0.000000
-0.036328 0.415855 0.193658 129 76 135 0.000000 -0.999999 0.001028
-0.426520 0.513628 0.944675 129 76 135 -1.000000 0.000000 0.000000
-0.205891 0.416071 0.403373 129 76 135 0.000000 -0.999999 0.001028
-0.291220 0.506694 0.310631 129 76 135 0.000000 1.000000 0.000000
-0.340519 0.416251 0.578797 129 76 135 0.000000 -0.999999 0.001028
-0.357315 0.506520 0.693260 129 76 135 0.000000 -1.000000 0.000000
-0.216537 0.551674 0.511375 129 76 135 0.000000 -1.000000 0.000000
-0.443962 0.638606 0.029851 129 76 135 0.000000 1.000000 0.000000
-0.338751 0.506520 0.738591 129 76 135 0.000000 -1.000000 0.000000
-0.312217 0.506520 0.068174 129 76 135 0.000000 -1.000000 0.000000
-0.306019 0.556872 0.729507 129 76 135 0.000000 1.000000 0.000000
-0.025825 0.415756 0.097267 129 76 135 0.000000 -0.999999 0.001028
-0.328461 0.556872 0.010936 129 76 135 0.000000 1.000000 0.000000
-0.089894 0.638606 0.995734 129 76 135 0.000000 1.000000 0.000000
-0.323739 0.556872 0.624227 129 76 135 0.000000 1.000000 0.000000
-0.406867 0.638606 0.187223 129 76 135 0.000000 1.000000 0.000000
-0.034147 0.556872 0.659196 129 76 135 0.000000 1.000000 0.000000
-0.029144 0.506694 0.325302 129 76 135 0.000000 1.000000 0.000000
-0.304285 0.551674 0.414088 129 76 135 0.000000 -1.000000 0.000000
-0.221994 0.638606 0.621663 129 76 135 0.000000 1.000000 0.000000
-0.221551 0.506704 0.935363 129 76 135 0.000236 1.000000 -0.000514
-0.093396 0.506694 0.182752 129 76 135 0.000000 1.000000 0.000000
-0.109058 0.506694 0.763170 129 76 135 0.000000 1.000000 0.000000
-0.129444 0.638606 0.602448 129 76 135 0.000000 1.000000 0.000000
-0.426115 0.499027 0.888951 129 76 135 -0.757814 0.652471 -0.000012
-0.160336 0.506520 0.020741 129 76 135 0.000000 -1.000000 0.000000
-0.398963 0.506520 0.677492 129 76 135 0.000000 -1.000000 0.000000
-0.105373 0.551674 0.434227 129 76 135 0.000000 -1.000000 0.000000
-0.416849 0.638606 0.763902 129 76 135 0.000000 1.000000 0.000000
-0.412284 0.556872 0.538476 129 76 135 0.000000 1.000000 0.000000
-0.063304 0.506694 0.270622 129 76 135 0.000000 1.000000 0.000000
-0.052537 0.638606 0.076625 129 76 135 0.000000 1.000000 0.000000
-0.093233 0.551674 0.030888 129 76 135 0.000000 -1.000000 0.000000
-0.072157 0.506520 0.082841 129 76 135 0.000000 -1.000000 0.000000
-0.190129 0.506520 0.749777 129 76 135 0.000000 -1.000000 0.000000
-0.038922 0.638606 0.587874 129 76 135 0.000000 1.000000 0.000000
-0.324492 0.506520 0.693598 129 76 135 0.000000 -1.000000 0.000000
-0.005477 0.415983 0.318376 129 76 135 0.000000 -0.999999 0.001028
-0.448140 0.629700 0.805048 129 76 135 -0.980219 0.197915 0.000000
-0.147925 0.506520 0.219331 129 76 135 0.000000 -1.000000 0.000000
-0.310711 0.556872 0.260726 129 76 135 0.000000 1.000000 0.000000
-0.058625 0.638606 0.640500 129 76 135 0.000000 1.000000 0.000000
-0.170757 0.638606 0.187210 129 76 135 0.000000 1.000000 0.000000
-0.042957 0.551674 0.588194 129 76 135 0.000000 -1.000000 0.000000
-0.376394 0.638606 0.055334 129 76 135 0.000000 1.000000 0.000000
-0.039763 0.551674 0.913200 129 76 135 0.000000 -1.000000 0.000000
-0.345372 0.556872 0.833743 129 76 135 0.000000 1.000000 0.000000
-0.305181 0.638606 0.827619 129 76 135 0.000000 1.000000 0.000000
-0.080394 0.506694 0.109775 129 76 135 0.000000 1.000000 0.000000
-0.384410 0.506694 0.642073 129 76 135 0.000000 1.000000 0.000000
-0.064239 0.556872 0.105910 129 76 135 0.000000 1.000000 0.000000
-0.187473 0.506520 0.645530 129 76 135 0.000000 -1.000000 0.000000
-0.253107 0.506694 0.037625 129 76 135 0.000000 1.000000 0.000000
-0.231993 0.506520 0.907157 129 76 135 0.000000 -1.000000 0.000000
-0.011222 0.506520 0.171613 129 76 135 0.000000 -1.000000 0.000000
-0.344526 0.551674 0.683402 129 76 135 0.000000 -1.000000 0.000000
-0.197266 0.506520 0.930496 129 76 135 0.000000 -1.000000 0.000000
-0.411266 0.506813 0.346148 129 76 135 -0.034135 0.999417 0.000000
-0.112891 0.514293 0.951258 129 76 135 0.000000 0.000000 1.000000
-0.339802 0.638606 0.411298 129 76 135 0.000000 1.000000 0.000000
-0.256241 0.506520 0.706273 129 76 135 0.000000 -1.000000 0.000000
-0.307738 0.638606 0.128390 129 76 135 0.000000 1.000000 0.000000
-0.299038 0.551674 0.484474 129 76 135 0.000000 -1.000000 0.000000
-0.356000 0.506694 0.704334 129 76 135 0.000000 1.000000 0.000000
-0.265480 0.551674 0.067020 129 76 135 0.000000 -1.000000 0.000000
-0.233528 0.551674 0.220472 129 76 135 0.000000 -1.000000 0.000000
-0.054362 0.551674 0.272054 129 76 135 0.000000 -1.000000 0.000000
-0.003077 0.551674 0.487659 129 76 135 0.000000 -1.000000 0.000000
-0.125975 0.556872 0.002174 129 76 135 0.000000 1.000000 0.000000
-0.011006 0.416288 0.614932 129 76 135 0.000000 -0.999999 0.001028
-0.056094 0.551674 0.091623 129 76 135 0.000000 -1.000000 0.000000
-0.426520 0.508092 0.687357 129 76 135 -1.000000 0.000000 0.000000
-0.350401 0.416838 0.841859 129 76 135 0.000000 -0.992696 -0.120643
-0.317513 0.556872 0.277299 129 76 135 0.000000 1.000000 0.000000
-0.183788 0.556872 0.125844 129 76 135 0.000000 1.000000 0.000000
-0.315670 0.506520 0.323550 129 76 135 0.000000 -1.000000 0.000000
-0.231421 0.415843 0.181516 129 76 135 0.000000 -0.999999 0.001028
-0.450250 0.604203 0.133900 129 76 135 -0.995349 -0.096337 0.000000
-0.303399 0.506520 0.755209 129 76 135 0.000000 -1.000000 0.000000
-0.018033 0.551674 0.485603 129 76 135 0.000000 -1.000000 0.000000
-0.341899 0.506520 0.612708 129 76 135 0.000000 -1.000000 0.000000
-0.061192 0.506694 0.087849 129 76 135 0.000000 1.000000 0.000000
-0.356839 0.638606 0.030093 129 76 135 0.000000 1.000000 0.000000
-0.421819 0.506520 0.491788 129 76 135 0.000000 -1.000000 0.000000
-0.278773 0.506694 0.717129 129 76 135 0.000000 1.000000 0.000000
-0.205400 0.556872 0.476915 129 76 135 0.000000 1.000000 0.000000
-0.138714 0.551674 0.175893 129 76 135 0.000000 -1.000000 0.000000
-0.284266 0.417062 0.832281 129 76 135 0.000000 -0.999998 0.002074
-0.426520 0.507880 0.345614 129 76 135 -1.000000 0.000000 0.000000
-0.379608 0.416811 0.724202 129 76 135 0.000000 -0.999986 0.005222
-0.029484 0.556872 0.316283 129 76 135 0.000000 1.000000 0.000000
-0.408643 0.506759 0.265104 129 76 135 0.135128 0.990828 0.000000
-0.355615 0.638606 0.308950 129 76 135 0.000000 1.000000 0.000000
-0.303297 0.415997 0.331291 129 76 135 0.000000 -0.999999 0.001028
-0.445616 0.583608 0.005414 129 76 135 -0.904221 -0.427065 0.000000
-0.121657 0.556872 0.667485 129 76 135 0.000000 1.000000 0.000000
-0.153346 0.416157 0.487503 129 76 135 0.000000 -0.999999 0.001028
-0.211250 0.638606 0.777778 129 76 135 0.000000 1.000000 0.000000
-0.064463 0.506694 0.837037 129 76 135 0.000000 1.000000 0.000000
-0.235610 0.638606 0.309857 129 76 135 0.000000 1.000000 0.000000
-0.363093 0.506694 0.738271 129 76 135 0.000000 1.000000 0.000000
-0.187025 0.638606 0.795491 129 76 135 0.000000 1.000000 0.000000
-0.383957 0.506520 0.931749 129 76 135 0.000000 -1.000000 0.000000
-0.334540 0.551674 0.213389 129 76 135 0.000000 -1.000000 0.000000
-0.431007 0.558578 0.746901 129 76 135 -0.945783 0.324799 0.000000
-0.203685 0.506520 0.929053 129 76 135 0.000000 -1.000000 0.000000
-0.110108 0.551674 0.249843 129 76 135 0.000000 -1.000000 0.000000
-0.108785 0.506520 0.313511 129 76 135 0.000000 -1.000000 0.000000
-0.198297 0.506694 0.443672 129 76 135 0.000000 1.000000 0.000000
-0.353916 0.506520 0.234652 129 76 135 0.000000 -1.000000 0.000000
-0.448620 0.592940 0.689175 129 76 135 -0.981061 -0.193697 0.000000
-0.426520 0.538835 0.391879 129 76 135 -1.000000 0.000000 0.000000
-0.202302 0.506520 0.485728 129 76 135 0.000000 -1.000000 0.000000
-0.125672 0.506694 0.467123 129 76 135 0.000000 1.000000 0.000000
-0.001438 0.551674 0.322507 129 76 135 0.000000 -1.000000 0.000000
-0.038128 0.556872 0.837521 129 76 135 0.000000 1.000000 0.000000
-0.102100 0.416079 0.411178 129 76 135 0.000000 -0.999999 0.001028
-0.248212 0.638606 0.432402 129 76 135 0.000000 1.000000 0.000000
-0.025933 0.415876 0.213836 129 76 135 0.000000 -0.999999 0.001028
-0.120552 0.638606 0.398128 129 76 135 0.000000 1.000000 0.000000
-0.365432 0.551674 0.709223 129 76 135 0.000000 -1.000000 0.000000
-0.166334 0.506694 0.940055 129 76 135 0.000000 1.000000 0.000000
-0.195963 0.551674 0.180106 129 76 135 0.000000 -1.000000 0.000000
-0.316184 0.551674 0.821791 129 76 135 0.000000 -1.000000 0.000000
-0.291593 0.416160 0.490335 129 76 135 0.000000 -0.999999 0.001028
-0.180110 0.506520 0.186259 129 76 135 0.000000 -1.000000 0.000000
-0.340350 0.506697 0.867109 129 76 135 0.000236 1.000000 -0.000514
-0.023502 0.415793 0.133521 129 76 135 0.000000 -0.999999 0.001028
-0.398812 0.588229 0.995822 129 76 135 0.000000 -0.340240 0.940339
-0.060557 0.638606 0.678797 129 76 135 0.000000 1.000000 0.000000
-0.022362 0.551674 0.781571 129 76 135 0.000000 -1.000000 0.000000
-0.298517 0.551674 0.288624 129 76 135 0.000000 -1.000000 0.000000
-0.096648 0.416284 0.610486 129 76 135 0.000000 -0.999999 0.001028
-0.338404 0.506694 0.148424 129 76 135 0.000000 1.000000 0.000000
-0.174164 0.551674 0.360314 129 76 135 0.000000 -1.000000 0.000000
-0.215363 0.412070 0.874746 129 76 135 0.000000 -1.000000 0.000000
-0.036677 0.506694 0.838345 129 76 135 0.000000 1.000000 0.000000
-0.395228 0.506694 0.212077 129 76 135 0.000000 1.000000 0.000000
-0.089277 0.638606 0.159397 129 76 135 0.000000 1.000000 0.000000
-0.160375 0.638606 0.596488 129 76 135 0.000000 1.000000 0.000000
-0.140336 0.416077 0.409662 129 76 135 0.000000 -0.999999 0.001028
-0.042899 0.506520 0.488233 129 76 135 0.000000 -1.000000 0.000000
-0.163691 0.551674 0.920205 129 76 135 0.000000 -1.000000 0.000000
-0.088738 0.556872 0.096886 129 76 135 0.000000 1.000000 0.000000
-0.312800 0.506694 0.766786 129 76 135 0.000000 1.000000 0.000000
-0.107977 0.638606 0.868326 129 76 135 0.000000 1.000000 0.000000
-0.105739 0.506520 0.907858 129 76 135 0.000000 -1.000000 0.000000
-0.354088 0.415931 0.267490 129 76 135 0.000000 -0.999999 0.001028
-0.056161 0.506520 0.645028 129 76 135 0.000000 -1.000000 0.000000
-0.060092 0.416363 0.638428 129 76 135 0.000000 -0.999986 0.005222
-0.446353 0.585309 0.717287 129 76 135 -0.952882 -0.303341 0.000000
-0.112920 0.556872 0.902555 129 76 135 0.000000 1.000000 0.000000
-0.426520 0.527177 0.649179 129 76 135 -1.000000 0.000000 0.000000
-0.432343 0.565050 0.171469 129 76 135 -0.719529 -0.694463 0.000000
-0.123106 0.506520 0.499004 129 76 135 0.000000 -1.000000 0.000000
-0.186504 0.551674 0.082962 129 76 135 0.000000 -1.000000 0.000000
-0.211409 0.556872 0.646487 129 76 135 0.000000 1.000000 0.000000
-0.327229 0.506694 0.859413 129 76 135 0.000000 1.000000 0.000000
-0.254217 0.416876 0.742553 129 76 135 0.000000 -0.999998 0.002074
-0.140173 0.506520 0.099150 129 76 135 0.000000 -1.000000 0.000000
-0.289748 0.638606 0.528869 129 76 135 0.000000 1.000000 0.000000
-0.170054 0.556872 0.906408 129 76 135 0.000000 1.000000 0.000000
-0.198705 0.638606 0.626450 129 76 135 0.000000 1.000000 0.000000
-0.174671 0.506694 0.396356 129 76 135 0.000000 1.000000 0.000000
-0.006947 0.556872 0.854577 129 76 135 0.000000 1.000000 0.000000
-0.260935 0.506520 0.397482 129 76 135 0.000000 -1.000000 0.000000
-0.192095 0.506694 0.100374 129 76 135 0.000000 1.000000 0.000000
-0.442085 0.576739 0.338795 129 76 135 -0.829151 -0.559025 0.000000
-0.085252 0.556872 0.323767 129 76 135 0.000000 1.000000 0.000000
-0.426520 0.527646 0.837649 129 76 135 -1.000000 0.000000 0.000000
-0.147953 0.506694 0.386400 129 76 135 0.000000 1.000000 0.000000
-0.127532 0.416889 0.748674 129 76 135 0.000000 -0.999998 0.002074
-0.172418 0.556872 0.316920 129 76 135 0.000000 1.000000 0.000000
-0.199897 0.506520 0.448085 129 76 135 0.000000 -1.000000 0.000000
-0.418156 0.638606 0.763963 129 76 135 0.000000 1.000000 0.000000
-0.336089 0.556872 0.813885 129 76 135 0.000000 1.000000 0.000000
-0.198098 0.415740 0.081656 129 76 135 0.000000 -0.999999 0.001028
-0.120711 0.506520 0.613161 129 76 135 0.000000 -1.000000 0.000000
-0.109956 0.556872 0.585154 129 76 135 0.000000 1.000000 0.000000
-0.291644 0.506694 0.604554 129 76 135 0.000000 1.000000 0.000000
-0.104700 0.506694 0.541897 129 76 135 0.000000 1.000000 0.000000
-0.389705 0.416293 0.619753 129 76 135 0.000000 -0.999999 0.001028
-0.053899 0.506520 0.864051 129 76 135 0.000000 -1.000000 0.000000
-0.089109 0.638606 0.289283 129 76 135 0.000000 1.000000 0.000000
-0.344883 0.506520 0.574570 129 76 135 0.000000 -1.000000 0.000000
-0.234750 0.556872 0.836704 129 76 135 0.000000 1.000000 0.000000
-0.199571 0.551674 0.072228 129 76 135 0.000000 -1.000000 0.000000
-0.151415 0.415754 0.095642 129 76 135 0.000000 -0.999999 0.001028
-0.446867 0.634855 0.168691 129 76 135 -0.962908 0.269829 0.000000
-0.244978 0.556872 0.239885 129 76 135 0.000000 1.000000 0.000000
-0.140807 0.551674 0.343827 129 76 135 0.000000 -1.000000 0.000000
-0.450182 0.615138 0.876145 129 76 135 -0.997900 0.064780 0.000000
-0.036044 0.556872 0.043567 129 76 135 0.000000 1.000000 0.000000
-0.376863 0.638606 0.442710 129 76 135 0.000000 1.000000 0.000000
-0.008604 0.556872 0.348296 129 76 135 0.000000 1.000000 0.000000
-0.147118 0.416917 0.762365 129 76 135 0.000000 -0.999998 0.002074
-0.344848 0.556872 0.633404 129 76 135 0.000000 1.000000 0.000000
-0.436478 0.638606 0.929095 129 76 135 0.000000 1.000000 0.000000
-0.387244 0.638606 0.376994 129 76 135 0.000000 1.000000 0.000000
-0.015374 0.638606 0.222404 129 76 135 0.000000 1.000000 0.000000
-0.009081 0.506520 0.570771 129 76 135 0.000000 -1.000000 0.000000
-0.239213 0.638606 0.472583 129 76 135 0.000000 1.000000 0.000000
-0.052376 0.556872 0.031726 129 76 135 0.000000 1.000000 0.000000
-0.101288 0.556872 0.254484 129 76 135 0.000000 1.000000 0.000000
-0.116515 0.506694 0.529378 129 76 135 0.000000 1.000000 0.000000
-0.446119 0.584672 0.196115 129 76 135 -0.904221 -0.427065 0.000000
-0.323016 0.413165 0.855590 129 76 135 0.000000 -0.942677 -0.333707
-0.146272 0.638606 0.917731 129 76 135 0.000000 1.000000 0.000000
-0.045054 0.638606 0.446159 129 76 135 0.000000 1.000000 0.000000
-0.051800 0.506694 0.547328 129 76 135 0.000000 1.000000 0.000000
-0.382373 0.417032 0.817684 129 76 135 0.000000 -0.999998 0.002074
-0.404391 0.506520 0.026430 129 76 135 0.000000 -1.000000 0.000000
-0.217908 0.638606 0.481633 129 76 135 0.000000 1.000000 0.000000
-0.110710 0.506520 0.717835 129 76 135 0.000000 -1.000000 0.000000
-0.119466 0.506520 0.447381 129 76 135 0.000000 -1.000000 0.000000
-0.040433 0.415978 0.312765 129 76 135 0.000000 -0.999999 0.001028
-0.003300 0.556872 0.122424 129 76 135 0.000000 1.000000 0.000000
-0.290182 0.551674 0.457352 129 76 135 0.000000 -1.000000 0.000000
-0.291261 0.416218 0.546533 129 76 135 0.000000 -0.999999 0.001028
-0.248143 0.506694 0.546781 129 76 135 0.000000 1.000000 0.000000
-0.247439 0.506694 0.894642 129 76 135 0.000000 1.000000 0.000000
-0.080159 0.416060 0.392995 129 76 135 0.000000 -0.999999 0.001028
-0.269259 0.506520 0.225599 129 76 135 0.000000 -1.000000 0.000000
-0.117598 0.506520 0.689762 129 76 135 0.000000 -1.000000 0.000000
-0.381231 0.638606 0.631338 129 76 135 0.000000 1.000000 0.000000
-0.426520 0.521452 0.470975 129 76 135 -1.000000 0.000000 0.000000
-0.444093 0.580382 0.921125 129 76 135 -0.904220 -0.427067 0.000000
-0.414624 0.506520 0.378732 129 76 135 0.000000 -1.000000 0.000000
-0.426520 0.508233 0.771866 129 76 135 -1.000000 0.000000 0.000000
-0.002548 0.506694 0.530539 129 76 135 0.000000 1.000000 0.000000
-0.160847 0.506694 0.781237 129 76 135 0.000000 1.000000 0.000000
-0.290859 0.506694 0.501563 129 76 135 0.000000 1.000000 0.000000
-0.236427 0.412070 0.878301 129 76 135 0.000000 -1.000000 0.000000
-0.376476 0.638606 0.698558 129 76 135 0.000000 1.000000 0.000000
-0.098737 0.506694 0.878797 129 76 135 0.000000 1.000000 0.000000
-0.092118 0.556872 0.538630 129 76 135 0.000000 1.000000 0.000000
-0.079852 0.551674 0.870060 129 76 135 0.000000 -1.000000 0.000000
-0.176978 0.506520 0.225040 129 76 135 0.000000 -1.000000 0.000000
-0.395291 0.506694 0.537179 129 76 135 0.000000 1.000000 0.000000
-0.238332 0.506520 0.854057 129 76 135 0.000000 -1.000000 0.000000
-0.307472 0.506694 0.674797 129 76 135 0.000000 1.000000 0.000000
-0.134390 0.638606 0.695197 129 76 135 0.000000 1.000000 0.000000
-0.308422 0.506694 0.683583 129 76 135 0.000000 1.000000 0.000000
-0.009036 0.556872 0.645387 129 76 135 0.000000 1.000000 0.000000
-0.438700 0.638606 0.083092 129 76 135 0.000000 1.000000 0.000000
-0.407875 0.506520 0.342364 129 76 135 0.000000 -1.000000 0.000000
-0.122672 0.416904 0.756141 129 76 135 0.000000 -0.999998 0.002074
-0.321499 0.556872 0.363649 129 76 135 0.000000 1.000000 0.000000
-0.186551 0.556872 0.627005 129 76 135 0.000000 1.000000 0.000000
-0.200412 0.638606 0.388416 129 76 135 0.000000 1.000000 0.000000
-0.391740 0.638606 0.802616 129 76 135 0.000000 1.000000 0.000000
-0.008968 0.416899 0.753390 129 76 135 0.000000 -0.999998 0.002074
-0.216307 0.551674 0.152511 129 76 135 0.000000 -1.000000 0.000000
-0.156273 0.416999 0.801760 129 76 135 0.000000 -0.999998 0.002074
-0.393846 0.556872 0.183209 129 76 135 0.000000 1.000000 0.000000
-0.051826 0.506694 0.041268 129 76 135 0.000000 1.000000 0.000000
-0.450021 0.617619 0.655812 129 76 135 -0.997900 0.064780 0.000000
-0.215854 0.506520 0.581006 129 76 135 0.000000 -1.000000 0.000000
-0.143693 0.416797 0.721444 129 76 135 0.000000 -0.999986 0.005222
-0.327225 0.638606 0.191481 129 76 135 0.000000 1.000000 0.000000
-0.391005 0.551674 0.751182 129 76 135 0.000000 -1.000000 0.000000
-0.070574 0.416640 0.691399 129 76 135 0.000000 -0.999986 0.005222
-0.107006 0.638606 0.431455 129 76 135 0.000000 1.000000 0.000000
-0.276014 0.551674 0.889388 129 76 135 0.000000 -1.000000 0.000000
-0.266859 0.415836 0.175033 129 76 135 0.000000 -0.999999 0.001028
-0.415031 0.638606 0.310794 129 76 135 0.000000 1.000000 0.000000
-0.355823 0.551674 0.419429 129 76 135 0.000000 -1.000000 0.000000
-0.407689 0.506520 0.903167 129 76 135 0.000000 -1.000000 0.000000
-0.188862 0.506694 0.302113 129 76 135 0.000000 1.000000 0.000000
-0.160944 0.506520 0.422815 129 76 135 0.000000 -1.000000 0.000000
-0.095898 0.506694 0.134026 129 76 135 0.000000 1.000000 0.000000
-0.129827 0.638606 0.601944 129 76 135 0.000000 1.000000 0.000000
-0.020748 0.556872 0.194330 129 76 135 0.000000 1.000000 0.000000
-0.214413 0.638606 0.133101 129 76 135 0.000000 1.000000 0.000000
-0.426520 0.527422 0.367032 129 76 135 -1.000000 0.000000 0.000000
-0.104629 0.556872 0.366994 129 76 135 0.000000 1.000000 0.000000
-0.319639 0.556872 0.080112 129 76 135 0.000000 1.000000 0.000000
-0.008103 0.506694 0.334302 129 76 135 0.000000 1.000000 0.000000
-0.440379 0.574209 0.925013 129 76 135 -0.829151 -0.559025 0.000000
-0.431455 0.557350 0.629155 129 76 135 -0.914123 0.405436 0.000000
-0.373255 0.506520 0.315368 129 76 135 0.000000 -1.000000 0.000000
-0.021436 0.506694 0.850594 129 76 135 0.000000 1.000000 0.000000
-0.188343 0.506520 0.134964 129 76 135 0.000000 -1.000000 0.000000
-0.138062 0.506694 0.519195 129 76 135 0.000000 1.000000 0.000000
-0.231617 0.638606 0.194406 129 76 135 0.000000 1.000000 0.000000
-0.314041 0.417043 0.823118 129 76 135 0.000000 -0.999998 0.002074
-0.177573 0.506694 0.813528 129 76 135 0.000000 1.000000 0.000000
-0.376132 0.551674 0.595392 129 76 135 0.000000 -1.000000 0.000000
-0.296241 0.556872 0.377871 129 76 135 0.000000 1.000000 0.000000
-0.114019 0.551674 0.171153 129 76 135 0.000000 -1.000000 0.000000
-0.178625 0.638606 0.605886 129 76 135 0.000000 1.000000 0.000000
-0.223722 0.638606 0.873998 129 76 135 0.000000 1.000000 0.000000
-0.295097 0.638606 0.553054 129 76 135 0.000000 1.000000 0.000000
-0.447061 0.634162 0.110290 129 76 135 -0.962908 0.269829 0.000000
-0.179631 0.556872 0.385725 129 76 135 0.000000 1.000000 0.000000
-0.237428 0.506520 0.040266 129 76 135 0.000000 -1.000000 0.000000
-0.080229 0.416394 0.644420 129 76 135 0.000000 -0.999986 0.005222
-0.062680 0.638606 0.553537 129 76 135 0.000000 1.000000 0.000000
-0.434447 0.567230 0.374387 129 76 135 -0.719529 -0.694463 0.000000
-0.201513 0.506520 0.532870 129 76 135 0.000000 -1.000000 0.000000
-0.295998 0.556872 0.550304 129 76 135 0.000000 1.000000 0.000000
-0.336088 0.551674 0.810817 129 76 135 0.000000 -1.000000 0.000000
-0.179237 0.416114 0.445791 129 76 135 0.000000 -0.999999 0.001028
-0.450158 0.615497 0.870773 129 76 135 -0.997900 0.064780 0.000000
-0.357691 0.506694 0.099096 129 76 135 0.000000 1.000000 0.000000
-0.305975 0.506520 0.309586 129 76 135 0.000000 -1.000000 0.000000
-0.426520 0.513469 0.274569 129 76 135 -1.000000 0.000000 0.000000
-0.293739 0.506694 0.338023 129 76 135 0.000000 1.000000 0.000000
-0.162856 0.506520 0.716425 129 76 135 0.000000 -1.000000 0.000000
-0.203902 0.416982 0.793586 129 76 135 0.000000 -0.999998 0.002074
-0.008388 0.637327 0.996987 129 76 135 0.000000 0.226255 0.974068
-0.336244 0.551674 0.057806 129 76 135 0.000000 -1.000000 0.000000
-0.344305 0.506694 0.647904 129 76 135 0.000000 1.000000 0.000000
-0.104186 0.506520 0.791733 129 76 135 0.000000 -1.000000 0.000000
-0.076018 0.506520 0.709723 129 76 135 0.000000 -1.000000 0.000000
0.000057 0.415931 0.267957 129 76 135 0.000000 -0.999999 0.001028
-0.270285 0.506694 0.751664 129 76 135 0.000000 1.000000 0.000000
-0.128881 0.556872 0.092250 129 76 135 0.000000 1.000000 0.000000
-0.179435 0.506520 0.002500 129 76 135 0.000000 -1.000000 0.000000
-0.108737 0.416917 0.762188 129 76 135 0.000000 -0.999998 0.002074
-0.217083 0.506694 0.620189 129 76 135 0.000000 1.000000 0.000000
-0.036304 0.415943 0.279061 129 76 135 0.000000 -0.999999 0.001028
-0.432601 0.551674 0.084446 129 76 135 0.000000 -1.000000 0.000000
-0.193029 0.506694 0.231994 129 76 135 0.000000 1.000000 0.000000
-0.424682 0.500691 0.867924 129 76 135 -0.757814 0.652471 -0.000012
-0.231314 0.556872 0.343073 129 76 135 0.000000 1.000000 0.000000
-0.378415 0.638606 0.243708 129 76 135 0.000000 1.000000 0.000000
-0.132180 0.551674 0.802015 129 76 135 0.000000 -1.000000 0.000000
-0.170194 0.556872 0.782718 129 76 135 0.000000 1.000000 0.000000
-0.088738 0.556872 0.188978 129 76 135 0.000000 1.000000 0.000000
-0.363133 0.551674 0.358861 129 76 135 0.000000 -1.000000 0.000000
-0.379655 0.506520 0.770302 129 76 135 0.000000 -1.000000 0.000000
-0.094140 0.556872 0.082863 129 76 135 0.000000 1.000000 0.000000
-0.324943 0.506520 0.660775 129 76 135 0.000000 -1.000000 0.000000
-0.005847 0.506694 0.155140 129 76 135 0.000000 1.000000 0.000000
-0.447674 0.631975 0.140352 129 76 135 -0.962908 0.269829 0.000000
-0.252460 0.638606 0.166991 129 76 135 0.000000 1.000000 0.000000
-0.218337 0.416555 0.844127 129 76 135 0.000000 -0.970247 -0.242116
-0.337257 0.416048 0.381554 129 76 135 0.000000 -0.999999 0.001028
-0.036807 0.556872 0.147844 129 76 135 0.000000 1.000000 0.000000
-0.111972 0.506694 0.154086 129 76 135 0.000000 1.000000 0.000000
-0.214818 0.416263 0.590547 129 76 135 0.000000 -0.999999 0.001028
-0.322868 0.556872 0.061424 129 76 135 0.000000 1.000000 0.000000
-0.440611 0.638606 0.418461 129 76 135 0.000000 1.000000 0.000000
-0.143479 0.506520 0.007807 129 76 135 0.000000 -1.000000 0.000000
-0.141503 0.556872 0.480266 129 76 135 0.000000 1.000000 0.000000
-0.350496 0.638606 0.741994 129 76 135 0.000000 1.000000 0.000000
-0.051736 0.506694 0.773903 129 76 135 0.000000 1.000000 0.000000
-0.261161 0.506520 0.549196 129 76 135 0.000000 -1.000000 0.000000
-0.262717 0.416030 0.363637 129 76 135 0.000000 -0.999999 0.001028
-0.030192 0.415719 0.847482 129 76 135 0.000000 -0.970318 -0.241833
-0.237717 0.638606 0.413348 129 76 135 0.000000 1.000000 0.000000
-0.065675 0.506694 0.518291 129 76 135 0.000000 1.000000 0.000000
-0.268652 0.415987 0.322087 129 76 135 0.000000 -0.999999 0.001028
-0.057085 0.506694 0.038019 129 76 135 0.000000 1.000000 0.000000
-0.411950 0.506520 0.009131 129 76 135 0.000000 -1.000000 0.000000
-0.027447 0.638606 0.526048 129 76 135 0.000000 1.000000 0.000000
-0.224939 0.415735 0.076970 129 76 135 0.000000 -0.999999 0.001028
-0.138250 0.416250 0.577606 129 76 135 0.000000 -0.999999 0.001028
-0.402321 0.506694 0.406944 129 76 135 0.000000 1.000000 0.000000
-0.353537 0.551674 0.956683 129 76 135 0.000000 -1.000000 0.000000
-0.041284 0.415935 0.271394 129 76 135 0.000000 -0.999999 0.001028
-0.018570 0.415749 0.090361 129 76 135 0.000000 -0.999999 0.001028
-0.377989 0.638606 0.074322 129 76 135 0.000000 1.000000 0.000000
-0.384397 0.506520 0.462926 129 76 135 0.000000 -1.000000 0.000000
-0.304136 0.556872 0.794041 129 76 135 0.000000 1.000000 0.000000
-0.036627 0.638606 0.580932 129 76 135 0.000000 1.000000 0.000000
-0.148335 0.638606 0.421647 129 76 135 0.000000 1.000000 0.000000
-0.343025 0.506520 0.505361 129 76 135 0.000000 -1.000000 0.000000
-0.283166 0.416631 0.689750 129 76 135 0.000000 -0.999986 0.005222
-0.028870 0.551674 0.507277 129 76 135 0.000000 -1.000000 0.000000
-0.426590 0.498475 0.867839 129 76 135 -0.757814 0.652471 -0.000012
-0.095288 0.506520 0.729386 129 76 135 0.000000 -1.000000 0.000000
-0.314680 0.638606 0.341348 129 76 135 0.000000 1.000000 0.000000
-0.407796 0.551674 0.669495 129 76 135 0.000000 -1.000000 0.000000
-0.089028 0.416018 0.351874 129 76 135 0.000000 -0.999999 0.001028
-0.188389 0.506520 0.297606 129 76 135 0.000000 -1.000000 0.000000
-0.256707 0.416021 0.355414 129 76 135 0.000000 -0.999999 0.001028
-0.286955 0.506694 0.495145 129 76 135 0.000000 1.000000 0.000000
-0.182248 0.506520 0.144025 129 76 135 0.000000 -1.000000 0.000000
-0.397409 0.638606 0.705179 129 76 135 0.000000 1.000000 0.000000
-0.021271 0.556872 0.303033 129 76 135 0.000000 1.000000 0.000000
-0.387489 0.556872 0.822272 129 76 135 0.000000 1.000000 0.000000
-0.449825 0.599804 0.901909 129 76 135 -0.995349 -0.096337 0.000000
-0.111805 0.551674 0.343160 129 76 135 0.000000 -1.000000 0.000000
-0.444342 0.638606 0.087694 129 76 135 0.000000 1.000000 0.000000
-0.253685 0.506694 0.511420 129 76 135 0.000000 1.000000 0.000000
-0.436218 0.638606 0.669240 129 76 135 0.000000 1.000000 0.000000
-0.036475 0.638606 0.587960 129 76 135 0.000000 1.000000 0.000000
-0.441008 0.575142 0.782319 129 76 135 -0.829151 -0.559025 0.000000
-0.083160 0.506520 0.640628 129 76 135 0.000000 -1.000000 0.000000
-0.103542 0.551674 0.956950 129 76 135 0.000000 -1.000000 0.000000
-0.425296 0.638606 0.644927 129 76 135 0.000000 1.000000 0.000000
-0.443731 0.579616 0.550899 129 76 135 -0.904220 -0.427067 0.000000
-0.180715 0.415899 0.236471 129 76 135 0.000000 -0.999999 0.001028
-0.278697 0.506694 0.503024 129 76 135 0.000000 1.000000 0.000000
-0.285707 0.506694 0.069185 129 76 135 0.000000 1.000000 0.000000
-0.449732 0.598842 0.501171 129 76 135 -0.995349 -0.096337 0.000000
-0.076295 0.506694 0.073181 129 76 135 0.000000 1.000000 0.000000
-0.383855 0.416322 0.630638 129 76 135 0.000000 -0.999986 0.005222
-0.317251 0.506520 0.106429 129 76 135 0.000000 -1.000000 0.000000
-0.019401 0.556872 0.431221 129 76 135 0.000000 1.000000 0.000000
-0.155224 0.556872 0.403004 129 76 135 0.000000 1.000000 0.000000
-0.294384 0.506520 0.278365 129 76 135 0.000000 -1.000000 0.000000
-0.294515 0.556872 0.818779 129 76 135 0.000000 1.000000 0.000000
-0.323002 0.551674 0.561158 129 76 135 0.000000 -1.000000 0.000000
-0.120182 0.551674 0.796358 129 76 135 0.000000 -1.000000 0.000000
-0.312382 0.416154 0.484419 129 76 135 0.000000 -0.999999 0.001028
-0.009265 0.638606 0.127409 129 76 135 0.000000 1.000000 0.000000
-0.151362 0.506520 0.262690 129 76 135 0.000000 -1.000000 0.000000
-0.084972 0.506520 0.931274 129 76 135 0.000000 -1.000000 0.000000
-0.124506 0.638606 0.321018 129 76 135 0.000000 1.000000 0.000000
-0.373935 0.638606 0.648669 129 76 135 0.000000 1.000000 0.000000
-0.245264 0.556872 0.124491 129 76 135 0.000000 1.000000 0.000000
-0.209265 0.506694 0.536987 129 76 135 0.000000 1.000000 0.000000
-0.028926 0.506694 0.745273 129 76 135 0.000000 1.000000 0.000000
-0.043525 0.638606 0.258467 129 76 135 0.000000 1.000000 0.000000
-0.276674 0.506520 0.310408 129 76 135 0.000000 -1.000000 0.000000
-0.432816 0.554681 0.901372 129 76 135 -0.859284 0.511499 0.000000
-0.116758 0.551674 0.278356 129 76 135 0.000000 -1.000000 0.000000
-0.220425 0.506694 0.417998 129 76 135 0.000000 1.000000 0.000000
-0.314989 0.506520 0.664065 129 76 135 0.000000 -1.000000 0.000000
-0.036261 0.556872 0.301157 129 76 135 0.000000 1.000000 0.000000
-0.145004 0.551674 0.398417 129 76 135 0.000000 -1.000000 0.000000
-0.417810 0.505397 0.331395 129 76 135 -0.271582 0.962415 0.000000
-0.450399 0.611476 0.763006 129 76 135 -0.999943 -0.010717 0.000000
-0.409523 0.506873 0.721261 129 76 135 -0.034135 0.999417 0.000000
-0.281164 0.638606 0.521131 129 76 135 0.000000 1.000000 0.000000
-0.018971 0.506520 0.740806 129 76 135 0.000000 -1.000000 0.000000
-0.020867 0.506520 0.162808 129 76 135 0.000000 -1.000000 0.000000
-0.331621 0.506520 0.287282 129 76 135 0.000000 -1.000000 0.000000
-0.434355 0.551674 0.970472 129 76 135 0.000000 -1.000000 0.000000
-0.123423 0.638606 0.039796 129 76 135 0.000000 1.000000 0.000000
-0.437246 0.570130 0.640509 129 76 135 -0.719529 -0.694463 0.000000
-0.257828 0.556872 0.839254 129 76 135 0.000000 1.000000 0.000000
-0.393490 0.506520 0.467076 129 76 135 0.000000 -1.000000 0.000000
-0.124166 0.506694 0.602220 129 76 135 0.000000 1.000000 0.000000
-0.057622 0.556872 0.086117 129 76 135 0.000000 1.000000 0.000000
-0.296798 0.506520 0.487643 129 76 135 0.000000 -1.000000 0.000000
-0.152969 0.506520 0.748069 129 76 135 0.000000 -1.000000 0.000000
-0.388479 0.638606 0.249438 129 76 135 0.000000 1.000000 0.000000
-0.037097 0.506520 0.678653 129 76 135 0.000000 -1.000000 0.000000
-0.035434 0.506694 0.374421 129 76 135 0.000000 1.000000 0.000000
-0.208641 0.506520 0.361431 129 76 135 0.000000 -1.000000 0.000000
-0.426520 0.526688 0.579002 129 76 135 -1.000000 0.000000 0.000000
-0.005816 0.415938 0.274259 129 76 135 0.000000 -0.999999 0.001028
-0.023809 0.510226 0.951258 129 76 135 0.000000 0.000000 1.000000
-0.197043 0.551674 0.749035 129 76 135 0.000000 -1.000000 0.000000
-0.160901 0.638606 0.833513 129 76 135 0.000000 1.000000 0.000000
-0.118487 0.556872 0.885977 129 76 135 0.000000 1.000000 0.000000
-0.261456 0.638606 0.337374 129 76 135 0.000000 1.000000 0.000000
-0.143266 0.506520 0.506740 129 76 135 0.000000 -1.000000 0.000000
-0.055810 0.415883 0.220481 129 76 135 0.000000 -0.999999 0.001028
-0.132093 0.556872 0.310871 129 76 135 0.000000 1.000000 0.000000
-0.450170 0.615320 0.257302 129 76 135 -0.997900 0.064780 0.000000
-0.345456 0.556872 0.378183 129 76 135 0.000000 1.000000 0.000000
-0.063970 0.416938 0.772345 129 76 135 0.000000 -0.999998 0.002074
-0.426520 0.543800 0.059673 129 76 135 -1.000000 0.000000 0.000000
-0.031656 0.539151 0.951258 129 76 135 0.000000 0.000000 1.000000
-0.377728 0.506740 0.934051 129 76 135 0.000236 1.000000 -0.000514
-0.043992 0.592097 0.997161 129 76 135 0.000000 -0.234213 0.972185
-0.341849 0.506694 0.852231 129 76 135 0.000000 1.000000 0.000000
-0.121243 0.551674 0.612509 129 76 135 0.000000 -1.000000 0.000000
-0.271520 0.638606 0.964035 129 76 135 0.000000 1.000000 0.000000
-0.006264 0.412070 0.887495 129 76 135 0.000000 -1.000000 0.000000
-0.173660 0.506694 0.341984 129 76 135 0.000000 1.000000 0.000000
-0.101155 0.556872 0.396394 129 76 135 0.000000 1.000000 0.000000
-0.379435 0.506520 0.412888 129 76 135 0.000000 -1.000000 0.000000
-0.062039 0.556872 0.917315 129 76 135 0.000000 1.000000 0.000000
-0.337113 0.551674 0.868300 129 76 135 0.000000 -1.000000 0.000000
-0.190470 0.551674 0.290789 129 76 135 0.000000 -1.000000 0.000000
-0.005792 0.556872 0.412456 129 76 135 0.000000 1.000000 0.000000
-0.257944 0.506520 0.714314 129 76 135 0.000000 -1.000000 0.000000
-0.289519 0.551674 0.889525 129 76 135 0.000000 -1.000000 0.000000
-0.339462 0.506520 0.235227 129 76 135 0.000000 -1.000000 0.000000
-0.329765 0.506694 0.363489 129 76 135 0.000000 1.000000 0.000000
-0.198337 0.638606 0.668677 129 76 135 0.000000 1.000000 0.000000
-0.364554 0.638606 0.041869 129 76 135 0.000000 1.000000 0.000000
-0.326646 0.551674 0.656346 129 76 135 0.000000 -1.000000 0.000000
-0.256913 0.556872 0.765289 129 76 135 0.000000 1.000000 0.000000
-0.332932 0.638606 0.595410 129 76 135 0.000000 1.000000 0.000000
-0.359103 0.551674 0.154400 129 76 135 0.000000 -1.000000 0.000000
-0.086378 0.638606 0.156754 129 76 135 0.000000 1.000000 0.000000
