ply
format ascii 1.0
element vertex 711
property float x
property float y
property float z
property uchar red
property uchar green
property uchar blue
property float nx
property float ny
property float nz
end_header
-0.598303 0.919231 -0.118867 184 187 199 0.000000 -1.000000 0.000000
-0.594792 0.919231 -0.506898 184 187 199 0.000000 1.000000 0.000000
-0.440846 0.919231 -0.426795 184 187 199 0.000000 -1.000000 0.000000
-0.074277 0.773075 -0.075864 184 187 199 0.000000 -1.000000 0.000000
-0.249999 0.827357 -0.168316 184 187 199 -1.000000 0.000000 0.000000
-0.208806 0.919231 -0.821509 184 187 199 0.000000 1.000000 0.000000
-0.447615 0.919231 -0.515430 184 187 199 0.000000 -1.000000 0.000000
-0.129863 0.850001 -0.311151 184 187 199 0.000000 -1.000000 0.000000
-0.457461 0.919231 -0.183255 184 187 199 0.000000 1.000000 0.000000
-0.115020 0.919231 -0.007811 184 187 199 0.000000 -1.000000 0.000000
-0.538636 0.919231 -0.011849 184 187 199 0.000000 -1.000000 0.000000
-0.097240 0.773075 -0.034066 184 187 199 0.000000 -1.000000 0.000000
-0.769229 0.903929 -0.399811 184 187 199 -1.000000 0.000000 0.000000
-0.379454 0.919231 -0.721084 184 187 199 0.000000 -1.000000 0.000000
-0.533423 0.850001 -0.086089 184 187 199 0.000000 -1.000000 0.000000
-0.209148 0.919231 -0.913712 184 187 199 0.000000 -1.000000 0.000000
-0.384015 0.850001 -0.703595 184 187 199 0.000000 -1.000000 0.000000
-0.188033 0.919231 -0.164644 184 187 199 0.000000 -1.000000 0.000000
-0.659100 0.850001 -0.203226 184 187 199 0.000000 1.000000 0.000000
-0.367875 0.850001 -0.944001 184 187 199 0.000000 1.000000 0.000000
-0.157131 0.911551 -1.000000 184 187 199 0.000000 0.000000 1.000000
-0.426810 0.850001 -0.681217 184 187 199 0.000000 -1.000000 0.000000
-0.155880 0.773075 -0.087427 184 187 199 0.000000 1.000000 0.000000
-0.710600 0.919231 -0.178249 184 187 199 0.000000 -1.000000 0.000000
-0.482253 0.919231 -0.786780 184 187 199 0.000000 -1.000000 0.000000
-0.082004 0.919231 -0.532215 184 187 199 0.000000 1.000000 0.000000
-0.442888 0.919231 -0.267489 184 187 199 0.000000 1.000000 0.000000
-0.765588 0.919231 -0.232861 184 187 199 0.000000 -1.000000 0.000000
-0.452754 0.850001 -0.407513 184 187 199 0.000000 1.000000 0.000000
-0.555369 0.919231 -0.020747 184 187 199 0.000000 -1.000000 0.000000
-0.769229 0.911981 -0.403186 184 187 199 1.000000 0.000000 0.000000
-0.076017 0.919231 -0.036534 184 187 199 0.000000 -1.000000 0.000000
-0.208315 0.850001 -0.407373 184 187 199 0.000000 1.000000 0.000000
-0.527383 0.919231 -0.312026 184 187 199 0.000000 -1.000000 0.000000
-0.641959 0.850001 -0.290101 184 187 199 0.000000 1.000000 0.000000
-0.126339 0.773075 -0.129528 184 187 199 0.000000 1.000000 0.000000
-0.530790 0.850001 -0.413063 184 187 199 0.000000 1.000000 0.000000
-0.198768 0.850001 -0.541537 184 187 199 0.000000 -1.000000 0.000000
-0.103491 0.792475 -0.230768 184 187 199 0.000000 0.000000 1.000000
-0.423019 0.919231 -0.306687 184 187 199 0.000000 -1.000000 0.000000
-0.583548 0.850001 -0.125604 184 187 199 0.000000 1.000000 0.000000
-0.769229 0.903809 -0.406414 184 187 199 1.000000 0.000000 0.000000
-0.230016 0.788123 -0.553508 184 187 199 0.000000 0.707092 0.707121
-0.106893 0.773075 -0.178611 184 187 199 0.000000 -1.000000 0.000000
-0.641163 0.919231 -0.508463 184 187 199 0.000000 -1.000000 0.000000
-0.383825 0.850001 -0.730769 184 187 199 0.000000 1.000000 0.000000
-0.325972 0.919231 -0.728940 184 187 199 0.000000 -1.000000 0.000000
-0.532102 0.850001 -0.229845 184 187 199 0.000000 -1.000000 0.000000
-0.216331 0.850001 -0.095528 184 187 199 0.000000 1.000000 0.000000
-0.233642 0.850001 -0.272880 184 187 199 0.000000 -1.000000 0.000000
-0.476231 0.850001 -0.304876 184 187 199 0.000000 -1.000000 0.000000
-0.177727 0.919231 -0.342051 184 187 199 0.000000 1.000000 0.000000
-0.595432 0.919231 -0.020264 184 187 199 0.000000 -1.000000 0.000000
-0.380679 0.919231 -0.523203 184 187 199 0.000000 1.000000 0.000000
-0.391679 0.919231 -0.117841 184 187 199 0.000000 -1.000000 0.000000
-0.188817 0.850001 -0.552673 184 187 199 0.000000 -1.000000 0.000000
-0.305302 0.919231 -0.184070 184 187 199 0.000000 1.000000 0.000000
-0.466965 0.850001 -0.151535 184 187 199 0.000000 1.000000 0.000000
-0.116924 0.919231 -0.987360 184 187 199 0.000000 -1.000000 0.000000
-0.028097 0.850001 -0.587113 184 187 199 0.000000 -1.000000 0.000000
-0.141794 0.850001 -0.454489 184 187 199 0.000000 -1.000000 0.000000
-0.216556 0.850001 -0.001829 184 187 199 0.000000 -1.000000 0.000000
-0.226367 0.850001 -0.343012 184 187 199 0.000000 -1.000000 0.000000
-0.440298 0.919231 -0.144026 184 187 199 0.000000 -1.000000 0.000000
-0.247765 0.919231 -0.622591 184 187 199 0.000000 1.000000 0.000000
-0.099374 0.850001 -0.508090 184 187 199 0.000000 1.000000 0.000000
-0.404313 0.850001 -0.546591 184 187 199 0.000000 -1.000000 0.000000
-0.508653 0.850001 -0.498607 184 187 199 0.000000 -1.000000 0.000000
-0.650605 0.919231 -0.401842 184 187 199 0.000000 1.000000 0.000000
-0.014700 0.850001 -0.573847 184 187 199 0.000000 -1.000000 0.000000
-0.291922 0.850001 -0.756696 184 187 199 0.000000 1.000000 0.000000
-0.173077 0.829135 -0.215128 184 187 199 -1.000000 0.000000 0.000000
-0.690492 0.850001 -0.265822 184 187 199 0.000000 -1.000000 0.000000
-0.000119 0.919231 -0.325669 184 187 199 0.000000 1.000000 0.000000
-0.473748 0.855607 -0.932339 184 187 199 0.969616 0.000000 0.244634
-0.430687 0.919231 -0.937200 184 187 199 0.000000 1.000000 0.000000
-0.233562 0.850001 -0.349018 184 187 199 0.000000 -1.000000 0.000000
-0.471540 0.919231 -0.208458 184 187 199 0.000000 -1.000000 0.000000
-0.647818 0.919231 -0.557859 184 187 199 0.000000 1.000000 0.000000
-0.657065 0.850001 -0.244922 184 187 199 0.000000 -1.000000 0.000000
-0.122662 0.850001 -0.558265 184 187 199 0.000000 1.000000 0.000000
-0.046190 0.919231 -0.115885 184 187 199 0.000000 1.000000 0.000000
-0.249999 0.785065 -0.160230 184 187 199 -1.000000 0.000000 0.000000
-0.633821 0.919231 -0.336679 184 187 199 0.000000 1.000000 0.000000
-0.279906 0.919231 -0.539657 184 187 199 0.000000 -1.000000 0.000000
-0.072236 0.850001 -0.593414 184 187 199 0.000000 -1.000000 0.000000
-0.269236 0.919231 -0.086590 184 187 199 0.000000 -1.000000 0.000000
-0.002963 0.850001 -0.537276 184 187 199 0.000000 1.000000 0.000000
-0.166641 0.919231 -0.674232 184 187 199 0.000000 -1.000000 0.000000
-0.355560 0.919231 -0.466444 184 187 199 0.000000 1.000000 0.000000
-0.331924 0.919231 -0.083180 184 187 199 0.000000 1.000000 0.000000
-0.245821 0.850001 -0.562490 184 187 199 0.000000 -1.000000 0.000000
-0.072356 0.850001 -0.726613 184 187 199 0.000000 -1.000000 0.000000
-0.032365 0.850001 -0.480430 184 187 199 0.000000 -1.000000 0.000000
-0.187080 0.919231 -0.437036 184 187 199 0.000000 -1.000000 0.000000
-0.334052 0.919231 -0.056227 184 187 199 0.000000 1.000000 0.000000
-0.670014 0.919231 -0.095474 184 187 199 0.000000 1.000000 0.000000
-0.609762 0.850001 -0.445477 184 187 199 0.000000 -1.000000 0.000000
-0.531801 0.850001 -0.018482 184 187 199 0.000000 1.000000 0.000000
-0.229497 0.850001 -0.363978 184 187 199 0.000000 1.000000 0.000000
-0.098596 0.919231 -0.498103 184 187 199 0.000000 -1.000000 0.000000
-0.686188 0.850001 -0.046813 184 187 199 0.000000 1.000000 0.000000
-0.059043 0.850001 -0.486886 184 187 199 0.000000 -1.000000 0.000000
-0.505515 0.919231 -0.301239 184 187 199 0.000000 1.000000 0.000000
-0.769229 0.880891 -0.231211 184 187 199 -1.000000 0.000000 0.000000
-0.695184 0.850001 -0.453525 184 187 199 0.000000 1.000000 0.000000
-0.612154 0.850001 -0.563923 184 187 199 0.000000 -1.000000 0.000000
-0.563004 0.919231 -0.551194 184 187 199 0.000000 1.000000 0.000000
-0.017470 0.919231 -0.800057 184 187 199 0.000000 1.000000 0.000000
-0.107405 0.850001 -0.393305 184 187 199 0.000000 -1.000000 0.000000
-0.717669 0.919231 -0.396481 184 187 199 0.000000 -1.000000 0.000000
-0.554496 0.919231 -0.430451 184 187 199 0.000000 1.000000 0.000000
-0.311816 0.919231 -0.916921 184 187 199 0.000000 1.000000 0.000000
-0.394612 0.900304 -1.000000 184 187 199 0.000000 0.000000 -1.000000
-0.431767 0.919231 -0.766542 184 187 199 0.000000 1.000000 0.000000
-0.092679 0.919231 -0.318738 184 187 199 0.000000 1.000000 0.000000
-0.013880 0.919231 -0.088661 184 187 199 0.000000 -1.000000 0.000000
-0.252429 0.919231 -0.217007 184 187 199 0.000000 -1.000000 0.000000
-0.044740 0.850001 -0.802026 184 187 199 0.000000 1.000000 0.000000
-0.128178 0.919231 -0.922158 184 187 199 0.000000 -1.000000 0.000000
-0.229697 0.850001 -0.663523 184 187 199 0.000000 -1.000000 0.000000
-0.769229 0.885806 -0.067162 184 187 199 -1.000000 0.000000 0.000000
-0.047264 0.850001 -0.111064 184 187 199 0.000000 1.000000 0.000000
-0.173979 0.850001 -0.143708 184 187 199 0.000000 -1.000000 0.000000
-0.189436 0.850001 -0.708937 184 187 199 0.000000 -1.000000 0.000000
-0.344503 0.850001 -0.809481 184 187 199 0.000000 -1.000000 0.000000
-0.198454 0.919231 -0.194722 184 187 199 0.000000 -1.000000 0.000000
-0.568270 0.850001 -0.041974 184 187 199 0.000000 1.000000 0.000000
-0.344609 0.850001 -0.570418 184 187 199 0.000000 -1.000000 0.000000
-0.464864 0.850001 -0.663352 184 187 199 0.000000 1.000000 0.000000
-0.225268 0.919231 -0.255174 184 187 199 0.000000 -1.000000 0.000000
-0.149898 0.850001 -0.834126 184 187 199 0.000000 -1.000000 0.000000
-0.319332 0.919231 -0.537724 184 187 199 0.000000 1.000000 0.000000
-0.590941 0.919231 -0.713384 184 187 199 0.000000 -1.000000 0.000000
-0.573321 0.919231 -0.502889 184 187 199 0.000000 1.000000 0.000000
-0.441645 0.919231 -0.690817 184 187 199 0.000000 -1.000000 0.000000
-0.209969 0.850001 -0.206676 184 187 199 0.000000 1.000000 0.000000
-0.495881 0.919231 -0.190825 184 187 199 0.000000 1.000000 0.000000
-0.681531 0.850001 -0.161468 184 187 199 0.000000 -1.000000 0.000000
-0.478776 0.850001 -0.166406 184 187 199 0.000000 -1.000000 0.000000
-0.078619 0.919231 -0.918818 184 187 199 0.000000 1.000000 0.000000
-0.541949 0.850001 -0.276640 184 187 199 0.000000 1.000000 0.000000
-0.166472 0.850001 -0.777062 184 187 199 0.000000 -1.000000 0.000000
-0.552741 0.850001 -0.339469 184 187 199 0.000000 -1.000000 0.000000
-0.656898 0.850001 -0.669646 184 187 199 0.000000 1.000000 0.000000
-0.577299 0.919231 -0.252601 184 187 199 0.000000 1.000000 0.000000
-0.308580 0.850001 -0.027917 184 187 199 0.000000 1.000000 0.000000
-0.005109 0.773075 -0.021214 184 187 199 0.000000 -1.000000 0.000000
-0.375455 0.919231 -0.326180 184 187 199 0.000000 1.000000 0.000000
-0.031429 0.850001 -0.644972 184 187 199 0.000000 1.000000 0.000000
-0.717305 0.919231 -0.330664 184 187 199 0.000000 -1.000000 0.000000
-0.230581 0.850001 -0.243354 184 187 199 0.000000 1.000000 0.000000
-0.352519 0.919231 -0.064069 184 187 199 0.000000 1.000000 0.000000
-0.249999 0.846625 -0.427329 184 187 199 -1.000000 0.000000 0.000000
-0.575212 0.919231 -0.276476 184 187 199 0.000000 1.000000 0.000000
-0.249999 0.792017 -0.283759 184 187 199 1.000000 0.000000 0.000000
-0.704309 0.850001 -0.303559 184 187 199 0.000000 -1.000000 0.000000
-0.479820 0.850001 -0.004569 184 187 199 0.000000 -1.000000 0.000000
-0.019002 0.919231 -0.805217 184 187 199 0.000000 1.000000 0.000000
-0.612502 0.864449 -0.744735 184 187 199 -0.569551 0.000000 -0.821956
-0.691986 0.850001 -0.388893 184 187 199 0.000000 1.000000 0.000000
-0.226824 0.850001 -0.555356 184 187 199 0.000000 -1.000000 0.000000
-0.228959 0.850001 -0.185995 184 187 199 0.000000 -1.000000 0.000000
-0.221879 0.773075 -0.346173 184 187 199 0.000000 1.000000 0.000000
-0.321210 0.919231 -0.573652 184 187 199 0.000000 -1.000000 0.000000
-0.259994 0.850001 -0.388771 184 187 199 0.000000 -1.000000 0.000000
-0.063815 0.850001 -0.002914 184 187 199 0.000000 1.000000 0.000000
-0.403705 0.919231 -0.668895 184 187 199 0.000000 1.000000 0.000000
-0.413378 0.919231 -0.811833 184 187 199 0.000000 1.000000 0.000000
-0.576670 0.919231 -0.591874 184 187 199 0.000000 -1.000000 0.000000
-0.231215 0.919231 -0.408487 184 187 199 0.000000 -1.000000 0.000000
-0.223442 0.850001 -0.655731 184 187 199 0.000000 1.000000 0.000000
-0.549958 0.850001 -0.110636 184 187 199 0.000000 -1.000000 0.000000
-0.641481 0.850001 -0.103362 184 187 199 0.000000 -1.000000 0.000000
-0.024150 0.850001 -0.112126 184 187 199 0.000000 -1.000000 0.000000
-0.515404 0.919231 -0.673622 184 187 199 0.000000 -1.000000 0.000000
-0.048353 0.850001 -0.059971 184 187 199 0.000000 -1.000000 0.000000
-0.420564 0.919231 -0.903543 184 187 199 0.000000 -1.000000 0.000000
-0.124130 0.919231 -0.957059 184 187 199 0.000000 1.000000 0.000000
-0.282635 0.919231 -0.671077 184 187 199 0.000000 1.000000 0.000000
-0.233001 0.850001 -0.076804 184 187 199 0.000000 -1.000000 0.000000
-0.146960 0.850001 -0.131560 184 187 199 0.000000 1.000000 0.000000
-0.170636 0.919231 -0.238211 184 187 199 0.000000 -1.000000 0.000000
-0.623922 0.903197 -0.737502 184 187 199 -0.467463 0.000000 -0.884012
-0.579862 0.859780 -0.768792 184 187 199 -0.663653 0.000000 -0.748041
-0.550740 0.850001 -0.079417 184 187 199 0.000000 1.000000 0.000000
-0.197599 0.919231 -0.863457 184 187 199 0.000000 1.000000 0.000000
-0.133773 0.850001 -0.770886 184 187 199 0.000000 1.000000 0.000000
-0.234356 0.919231 -0.746367 184 187 199 0.000000 1.000000 0.000000
-0.395137 0.919231 -0.024029 184 187 199 0.000000 1.000000 0.000000
-0.582835 0.850001 -0.585137 184 187 199 0.000000 -1.000000 0.000000
-0.270338 0.850001 -0.122556 184 187 199 0.000000 -1.000000 0.000000
-0.524791 0.919231 -0.338042 184 187 199 0.000000 -1.000000 0.000000
-0.173077 0.789862 -0.118471 184 187 199 -1.000000 0.000000 0.000000
-0.214458 0.919231 -0.727268 184 187 199 0.000000 -1.000000 0.000000
-0.475393 0.919231 -0.232719 184 187 199 0.000000 1.000000 0.000000
-0.002227 0.773075 -0.100640 184 187 199 0.000000 1.000000 0.000000
-0.063725 0.850001 -0.117294 184 187 199 0.000000 1.000000 0.000000
-0.306819 0.850001 -0.811732 184 187 199 0.000000 -1.000000 0.000000
-0.249249 0.850001 -0.350220 184 187 199 0.000000 -1.000000 0.000000
-0.184415 0.919231 -0.115451 184 187 199 0.000000 1.000000 0.000000
-0.015504 0.850001 -0.082444 184 187 199 0.000000 -1.000000 0.000000
-0.582642 0.919231 -0.727212 184 187 199 0.000000 1.000000 0.000000
-0.722185 0.919231 -0.016628 184 187 199 0.000000 -1.000000 0.000000
-0.292354 0.919231 -0.067459 184 187 199 0.000000 1.000000 0.000000
-0.158565 0.814486 -0.230768 184 187 199 0.000000 0.000000 1.000000
-0.683405 0.850001 -0.307945 184 187 199 0.000000 -1.000000 0.000000
-0.136532 0.919231 -0.290952 184 187 199 0.000000 -1.000000 0.000000
-0.333614 0.850001 -0.169471 184 187 199 0.000000 -1.000000 0.000000
-0.120216 0.919231 -0.777186 184 187 199 0.000000 -1.000000 0.000000
-0.122912 0.850001 -0.505466 184 187 199 0.000000 -1.000000 0.000000
-0.674592 0.850001 -0.271773 184 187 199 0.000000 1.000000 0.000000
-0.038233 0.919231 -0.016910 184 187 199 0.000000 -1.000000 0.000000
-0.769229 0.886532 -0.100078 184 187 199 1.000000 0.000000 0.000000
-0.173375 0.850001 -0.205764 184 187 199 0.000000 1.000000 0.000000
-0.379276 0.850001 -0.990684 184 187 199 0.000000 1.000000 0.000000
-0.314829 0.919231 0.380414 219 202 14 0.000000 -1.000000 0.000000
-0.429750 0.919231 0.131513 219 202 14 0.000000 -1.000000 0.000000
-0.292353 0.919231 0.132875 219 202 14 0.000000 1.000000 0.000000
-0.585621 0.919231 0.382230 219 202 14 0.000000 1.000000 0.000000
-0.317824 0.850001 0.212160 219 202 14 0.000000 -1.000000 0.000000
-0.769229 0.894189 0.370112 219 202 14 -1.000000 0.000000 0.000000
-0.318970 0.850001 0.953739 219 202 14 0.000000 1.000000 0.000000
-0.339702 0.850001 0.783696 219 202 14 0.000000 -1.000000 0.000000
-0.167271 0.773075 0.220963 219 202 14 0.000000 1.000000 0.000000
-0.187845 0.919231 0.304422 219 202 14 0.000000 1.000000 0.000000
-0.173077 0.807460 0.218843 219 202 14 1.000000 0.000000 0.000000
-0.370692 0.850001 0.048571 219 202 14 0.000000 1.000000 0.000000
-0.332634 0.850001 0.646542 219 202 14 0.000000 -1.000000 0.000000
-0.729194 0.919231 0.127786 219 202 14 0.000000 -1.000000 0.000000
-0.048870 0.850001 0.222126 219 202 14 0.000000 -1.000000 0.000000
-0.413833 0.919231 0.825363 219 202 14 0.000000 -1.000000 0.000000
-0.310778 0.850001 0.443928 219 202 14 0.000000 1.000000 0.000000
-0.206135 0.773075 0.306868 219 202 14 0.000000 1.000000 0.000000
-0.320967 0.850001 0.689372 219 202 14 0.000000 -1.000000 0.000000
-0.445633 0.850001 0.652083 219 202 14 0.000000 1.000000 0.000000
-0.222070 0.850001 0.511557 219 202 14 0.000000 -1.000000 0.000000
-0.664662 0.919231 0.048757 219 202 14 0.000000 1.000000 0.000000
-0.043031 0.850001 0.211399 219 202 14 0.000000 1.000000 0.000000
-0.654420 0.850001 0.335779 219 202 14 0.000000 -1.000000 0.000000
-0.173077 0.821657 0.505198 219 202 14 -1.000000 0.000000 0.000000
-0.012782 0.919231 0.572802 219 202 14 0.000000 1.000000 0.000000
-0.547426 0.850001 0.748741 219 202 14 0.000000 1.000000 0.000000
-0.152081 0.919231 0.535335 219 202 14 0.000000 1.000000 0.000000
-0.314355 0.919231 0.162930 219 202 14 0.000000 -1.000000 0.000000
-0.232384 0.919231 0.392553 219 202 14 0.000000 1.000000 0.000000
-0.019114 0.919231 0.083492 219 202 14 0.000000 -1.000000 0.000000
-0.453636 0.850001 0.327326 219 202 14 0.000000 1.000000 0.000000
-0.315233 0.850001 0.470805 219 202 14 0.000000 -1.000000 0.000000
-0.698277 0.850001 0.020967 219 202 14 0.000000 -1.000000 0.000000
-0.002621 0.919231 0.892851 219 202 14 0.000000 1.000000 0.000000
-0.448628 0.919231 0.383245 219 202 14 0.000000 1.000000 0.000000
-0.751334 0.850001 0.071608 219 202 14 0.000000 -1.000000 0.000000
-0.418114 0.899160 1.000000 219 202 14 0.000000 0.000000 -1.000000
-0.573268 0.850001 0.080552 219 202 14 0.000000 1.000000 0.000000
-0.461431 0.850001 0.830381 219 202 14 0.000000 1.000000 0.000000
-0.040396 0.850001 0.654602 219 202 14 0.000000 -1.000000 0.000000
-0.059208 0.773075 0.060037 219 202 14 0.000000 -1.000000 0.000000
-0.263245 0.850001 0.636058 219 202 14 0.000000 -1.000000 0.000000
-0.103019 0.919231 0.665537 219 202 14 0.000000 -1.000000 0.000000
-0.491558 0.850001 0.110756 219 202 14 0.000000 1.000000 0.000000
-0.090346 0.919231 0.487619 219 202 14 0.000000 1.000000 0.000000
-0.755327 0.850001 0.420051 219 202 14 0.000000 -1.000000 0.000000
-0.092044 0.850001 0.346238 219 202 14 0.000000 -1.000000 0.000000
-0.350065 0.919231 0.301678 219 202 14 0.000000 -1.000000 0.000000
-0.138369 0.919231 0.018197 219 202 14 0.000000 -1.000000 0.000000
-0.598510 0.880910 0.754434 219 202 14 -0.569657 0.000000 0.821882
-0.764260 0.919231 0.394824 219 202 14 0.000000 1.000000 0.000000
-0.085102 0.919231 0.118398 219 202 14 0.000000 -1.000000 0.000000
-0.556095 0.919231 0.606314 219 202 14 0.000000 -1.000000 0.000000
-0.686662 0.919231 0.620145 219 202 14 0.000000 -1.000000 0.000000
-0.263880 0.856488 1.000000 219 202 14 0.000000 0.000000 -1.000000
-0.464140 0.919231 0.207366 219 202 14 0.000000 1.000000 0.000000
-0.073491 0.773075 0.062414 219 202 14 0.000000 -1.000000 0.000000
-0.229649 0.919231 0.208586 219 202 14 0.000000 1.000000 0.000000
-0.097451 0.919231 0.546462 219 202 14 0.000000 1.000000 0.000000
-0.751107 0.850001 0.371732 219 202 14 0.000000 1.000000 0.000000
-0.430535 0.919231 0.284381 219 202 14 0.000000 1.000000 0.000000
-0.173077 0.792828 0.471325 219 202 14 -1.000000 0.000000 0.000000
-0.246880 0.782883 0.548269 219 202 14 0.000000 -0.707092 0.707121
-0.746896 0.850001 0.340409 219 202 14 0.000000 -1.000000 0.000000
-0.649430 0.919231 0.688019 219 202 14 0.000000 -1.000000 0.000000
-0.098869 0.773075 0.216099 219 202 14 0.000000 -1.000000 0.000000
-0.537038 0.850001 0.419416 219 202 14 0.000000 -1.000000 0.000000
-0.417643 0.915371 1.000000 219 202 14 0.000000 0.000000 1.000000
-0.353411 0.850001 0.590659 219 202 14 0.000000 -1.000000 0.000000
-0.298135 0.850001 0.375492 219 202 14 0.000000 -1.000000 0.000000
-0.202983 0.919231 0.173829 219 202 14 0.000000 1.000000 0.000000
-0.249999 0.783701 0.057429 219 202 14 -1.000000 0.000000 0.000000
-0.191250 0.773075 0.276381 219 202 14 0.000000 -1.000000 0.000000
-0.479180 0.850001 0.484876 219 202 14 0.000000 -1.000000 0.000000
-0.173077 0.848224 0.409743 219 202 14 -1.000000 0.000000 0.000000
-0.506527 0.850001 0.746718 219 202 14 0.000000 1.000000 0.000000
-0.272899 0.850001 0.092111 219 202 14 0.000000 1.000000 0.000000
-0.730957 0.919231 0.292003 219 202 14 0.000000 -1.000000 0.000000
-0.673426 0.850001 0.560468 219 202 14 0.000000 -1.000000 0.000000
-0.708849 0.850001 0.074851 219 202 14 0.000000 1.000000 0.000000
-0.742748 0.850001 0.531444 219 202 14 0.000000 -1.000000 0.000000
-0.501240 0.850001 0.810380 219 202 14 0.000000 -1.000000 0.000000
-0.288521 0.850001 0.511617 219 202 14 0.000000 1.000000 0.000000
-0.095727 0.919231 0.827027 219 202 14 0.000000 -1.000000 0.000000
-0.769229 0.911443 0.296751 219 202 14 1.000000 0.000000 0.000000
-0.172750 0.850001 0.429538 219 202 14 0.000000 -1.000000 0.000000
-0.097652 0.818945 0.230768 219 202 14 0.000000 0.000000 1.000000
-0.300182 0.919231 0.279645 219 202 14 0.000000 -1.000000 0.000000
-0.613889 0.919231 0.390598 219 202 14 0.000000 1.000000 0.000000
-0.088913 0.773075 0.116127 219 202 14 0.000000 -1.000000 0.000000
-0.417319 0.919231 0.519087 219 202 14 0.000000 1.000000 0.000000
-0.404949 0.850001 0.538565 219 202 14 0.000000 1.000000 0.000000
-0.251330 0.919231 0.549698 219 202 14 0.000000 1.000000 0.000000
-0.329135 0.919231 0.217232 219 202 14 0.000000 1.000000 0.000000
-0.173077 0.842024 0.412895 219 202 14 -1.000000 0.000000 0.000000
-0.447512 0.919231 0.653739 219 202 14 0.000000 1.000000 0.000000
-0.755476 0.850001 0.627694 219 202 14 0.000000 -1.000000 0.000000
-0.686189 0.919231 0.408511 219 202 14 0.000000 -1.000000 0.000000
-0.712853 0.919231 0.333567 219 202 14 0.000000 1.000000 0.000000
-0.589664 0.919231 0.459849 219 202 14 0.000000 -1.000000 0.000000
-0.036507 0.773075 0.011788 219 202 14 0.000000 1.000000 0.000000
-0.061259 0.850001 0.698443 219 202 14 0.000000 1.000000 0.000000
-0.701301 0.867326 0.704589 219 202 14 0.244782 0.000000 -0.969578
-0.229757 0.850001 0.896069 219 202 14 0.000000 1.000000 0.000000
-0.029118 0.850001 0.910562 219 202 14 0.000000 1.000000 0.000000
-0.536287 0.919231 0.425826 219 202 14 0.000000 1.000000 0.000000
-0.091677 0.773075 0.100706 219 202 14 0.000000 -1.000000 0.000000
-0.663641 0.919231 0.399623 219 202 14 0.000000 1.000000 0.000000
-0.092627 0.850001 0.358569 219 202 14 0.000000 1.000000 0.000000
-0.113233 0.919231 0.272270 219 202 14 0.000000 -1.000000 0.000000
-0.249999 0.840089 0.042025 219 202 14 -1.000000 0.000000 0.000000
-0.116163 0.919231 0.455329 219 202 14 0.000000 1.000000 0.000000
-0.589941 0.919231 0.743217 219 202 14 0.000000 1.000000 0.000000
-0.442386 0.919231 0.235445 219 202 14 0.000000 -1.000000 0.000000
-0.343915 0.901257 1.000000 219 202 14 0.000000 0.000000 -1.000000
-0.453824 0.850001 0.937589 219 202 14 0.000000 1.000000 0.000000
-0.563831 0.850001 0.376893 219 202 14 0.000000 -1.000000 0.000000
-0.383412 0.850001 0.176482 219 202 14 0.000000 1.000000 0.000000
-0.651871 0.850001 0.320248 219 202 14 0.000000 1.000000 0.000000
-0.662222 0.919231 0.664064 219 202 14 0.000000 -1.000000 0.000000
-0.008181 0.919231 0.399517 219 202 14 0.000000 -1.000000 0.000000
-0.535747 0.919231 0.040629 219 202 14 0.000000 1.000000 0.000000
-0.339700 0.850001 0.400394 219 202 14 0.000000 -1.000000 0.000000
-0.506283 0.919231 0.637567 219 202 14 0.000000 1.000000 0.000000
-0.566092 0.919231 0.496567 219 202 14 0.000000 1.000000 0.000000
-0.292893 0.850001 0.579146 219 202 14 0.000000 1.000000 0.000000
-0.042735 0.850001 0.659121 219 202 14 0.000000 1.000000 0.000000
-0.216629 0.850001 0.553972 219 202 14 0.000000 -1.000000 0.000000
-0.381989 0.919231 0.515399 219 202 14 0.000000 1.000000 0.000000
-0.205583 0.850001 0.360475 219 202 14 0.000000 1.000000 0.000000
-0.517735 0.919231 0.325120 219 202 14 0.000000 1.000000 0.000000
-0.742832 0.919231 0.498094 219 202 14 0.000000 1.000000 0.000000
-0.766433 0.850001 0.109994 219 202 14 0.000000 -1.000000 0.000000
-0.211896 0.919231 0.455561 219 202 14 0.000000 -1.000000 0.000000
-0.756538 0.850001 0.359292 219 202 14 0.000000 1.000000 0.000000
-0.349974 0.850001 0.566546 219 202 14 0.000000 1.000000 0.000000
-0.668066 0.872446 0.716088 219 202 14 -0.358656 0.000000 0.933470
-0.330592 0.919231 0.587291 219 202 14 0.000000 1.000000 0.000000
-0.716041 0.919231 0.016687 219 202 14 0.000000 -1.000000 0.000000
-0.249999 0.835398 0.531160 219 202 14 -1.000000 0.000000 0.000000
-0.383171 0.919231 0.613100 219 202 14 0.000000 1.000000 0.000000
-0.524959 0.919231 0.098725 219 202 14 0.000000 -1.000000 0.000000
-0.178824 0.919231 0.911776 219 202 14 0.000000 1.000000 0.000000
-0.396187 0.919231 0.766116 219 202 14 0.000000 -1.000000 0.000000
-0.430399 0.880388 1.000000 219 202 14 0.000000 0.000000 -1.000000
-0.173077 0.774737 0.472595 219 202 14 1.000000 0.000000 0.000000
-0.210275 0.773075 0.046870 219 202 14 0.000000 1.000000 0.000000
-0.149120 0.812364 0.230768 219 202 14 0.000000 0.000000 -1.000000
-0.517832 0.919231 0.032471 219 202 14 0.000000 1.000000 0.000000
-0.769229 0.879167 0.441160 219 202 14 1.000000 0.000000 0.000000
-0.311737 0.919231 0.291582 219 202 14 0.000000 1.000000 0.000000
-0.213291 0.850001 0.923012 219 202 14 0.000000 1.000000 0.000000
-0.255592 0.919231 0.225857 219 202 14 0.000000 -1.000000 0.000000
-0.332948 0.919231 0.692472 219 202 14 0.000000 -1.000000 0.000000
-0.022520 0.919231 0.869278 219 202 14 0.000000 1.000000 0.000000
-0.743665 0.907853 0.695588 219 202 14 0.127338 0.000000 -0.991859
-0.260663 0.919231 0.842395 219 202 14 0.000000 -1.000000 0.000000
-0.053998 0.919231 0.656835 219 202 14 0.000000 -1.000000 0.000000
-0.455180 0.850001 0.402095 219 202 14 0.000000 -1.000000 0.000000
-0.510392 0.919231 0.094171 219 202 14 0.000000 1.000000 0.000000
-0.122658 0.850001 0.049725 219 202 14 0.000000 -1.000000 0.000000
-0.375195 0.850001 0.498455 219 202 14 0.000000 -1.000000 0.000000
-0.479219 0.919231 0.897360 219 202 14 0.000000 1.000000 0.000000
-0.277260 0.919231 0.344176 219 202 14 0.000000 1.000000 0.000000
-0.097714 0.773075 0.037882 219 202 14 0.000000 1.000000 0.000000
-0.635383 0.850001 0.200148 219 202 14 0.000000 1.000000 0.000000
-0.581274 0.919231 0.245700 219 202 14 0.000000 1.000000 0.000000
-0.571011 0.919231 0.408008 219 202 14 0.000000 1.000000 0.000000
-0.562046 0.919231 0.063207 219 202 14 0.000000 -1.000000 0.000000
-0.284416 0.911351 1.000000 219 202 14 0.000000 0.000000 1.000000
-0.234324 0.850001 0.311652 219 202 14 0.000000 1.000000 0.000000
-0.451459 0.919231 0.859471 219 202 14 0.000000 1.000000 0.000000
-0.264668 0.914919 1.000000 219 202 14 0.000000 0.000000 1.000000
-0.472992 0.850001 0.209941 219 202 14 0.000000 -1.000000 0.000000
-0.248792 0.919231 0.428361 219 202 14 0.000000 -1.000000 0.000000
-0.390605 0.850001 0.582453 219 202 14 0.000000 -1.000000 0.000000
-0.213448 0.919231 0.575892 219 202 14 0.000000 -1.000000 0.000000
-0.249999 0.795845 0.161060 219 202 14 -1.000000 0.000000 0.000000
-0.091368 0.782204 0.230768 219 202 14 0.000000 0.000000 -1.000000
-0.103685 0.919231 0.561232 219 202 14 0.000000 1.000000 0.000000
-0.278726 0.919231 0.077016 219 202 14 0.000000 -1.000000 0.000000
-0.769229 0.885928 0.592996 219 202 14 1.000000 0.000000 0.000000
-0.635605 0.919231 0.628014 219 202 14 0.000000 -1.000000 0.000000
-0.238599 0.919231 0.771989 219 202 14 0.000000 1.000000 0.000000
-0.550646 0.850001 0.253029 219 202 14 0.000000 -1.000000 0.000000
-0.091727 0.919231 0.417801 219 202 14 0.000000 -1.000000 0.000000
-0.309711 0.919231 0.475905 219 202 14 0.000000 1.000000 0.000000
-0.172418 0.850001 0.923351 219 202 14 0.000000 1.000000 0.000000
-0.329848 0.850001 0.268914 219 202 14 0.000000 1.000000 0.000000
-0.249999 0.798151 0.150299 219 202 14 -1.000000 0.000000 0.000000
-0.006829 0.850001 0.081642 219 202 14 0.000000 1.000000 0.000000
-0.281321 0.919231 0.741315 219 202 14 0.000000 -1.000000 0.000000
-0.270835 0.850001 0.555610 219 202 14 0.000000 -1.000000 0.000000
-0.369956 0.919231 0.198136 219 202 14 0.000000 -1.000000 0.000000
-0.200745 0.850001 0.296492 219 202 14 0.000000 -1.000000 0.000000
-0.769229 0.886650 0.671094 219 202 14 1.000000 0.000000 0.000000
-0.173077 0.840793 0.110488 219 202 14 1.000000 0.000000 0.000000
-0.207399 0.919231 0.781233 219 202 14 0.000000 1.000000 0.000000
-0.438597 0.919231 0.535045 219 202 14 0.000000 1.000000 0.000000
-0.025159 0.919231 0.782965 219 202 14 0.000000 1.000000 0.000000
-0.419954 0.919231 0.165599 219 202 14 0.000000 -1.000000 0.000000
-0.606227 0.919231 0.101656 219 202 14 0.000000 1.000000 0.000000
-0.389324 0.850001 0.457449 219 202 14 0.000000 1.000000 0.000000
-0.347909 0.919231 0.640014 219 202 14 0.000000 -1.000000 0.000000
-0.394331 0.919231 0.048310 219 202 14 0.000000 1.000000 0.000000
-0.281903 0.919231 0.791522 219 202 14 0.000000 1.000000 0.000000
-0.274855 0.850001 0.664247 219 202 14 0.000000 1.000000 0.000000
-0.207959 0.850001 0.430570 219 202 14 0.000000 1.000000 0.000000
-0.599255 0.850001 0.522863 219 202 14 0.000000 -1.000000 0.000000
-0.188126 0.773075 0.096708 219 202 14 0.000000 -1.000000 0.000000
-0.379200 0.850001 0.592333 219 202 14 0.000000 -1.000000 0.000000
-0.074232 0.850001 0.902939 219 202 14 0.000000 1.000000 0.000000
-0.101211 0.919231 0.262654 219 202 14 0.000000 1.000000 0.000000
-0.249999 0.793075 0.192464 219 202 14 -1.000000 0.000000 0.000000
-0.173077 0.812761 0.541968 219 202 14 -1.000000 0.000000 0.000000
-0.540694 0.850001 0.623886 219 202 14 0.000000 1.000000 0.000000
-0.095557 0.850001 0.413609 219 202 14 0.000000 1.000000 0.000000
-0.284992 0.850001 0.321381 219 202 14 0.000000 1.000000 0.000000
-0.184359 0.919231 0.970524 219 202 14 0.000000 -1.000000 0.000000
-0.472898 0.919231 0.789198 219 202 14 0.000000 1.000000 0.000000
-0.149927 0.850001 0.559099 219 202 14 0.000000 1.000000 0.000000
-0.249999 0.810656 0.507653 219 202 14 1.000000 0.000000 0.000000
-0.336700 0.850001 0.996440 219 202 14 0.000000 -1.000000 0.000000
-0.248634 0.773075 0.346819 219 202 14 0.000000 1.000000 0.000000
-0.219325 0.773075 0.297371 219 202 14 0.000000 1.000000 0.000000
-0.172118 0.919231 0.314058 219 202 14 0.000000 -1.000000 0.000000
-0.769229 0.859673 0.454658 219 202 14 1.000000 0.000000 0.000000
-0.267783 0.850001 0.394857 219 202 14 0.000000 1.000000 0.000000
-0.356285 0.850001 0.228183 219 202 14 0.000000 -1.000000 0.000000
-0.677824 0.919231 0.582833 219 202 14 0.000000 -1.000000 0.000000
-0.234123 0.850001 0.757401 219 202 14 0.000000 -1.000000 0.000000
-0.249999 0.838978 0.100143 219 202 14 1.000000 0.000000 0.000000
-0.090980 0.850001 0.145787 219 202 14 0.000000 -1.000000 0.000000
-0.115390 0.850001 0.078142 219 202 14 0.000000 1.000000 0.000000
-0.642073 0.850001 0.120143 219 202 14 0.000000 1.000000 0.000000
-0.307134 0.919231 0.825284 219 202 14 0.000000 -1.000000 0.000000
-0.644675 0.856334 0.726530 219 202 14 0.467402 0.000000 -0.884045
-0.107823 0.850001 0.184130 219 202 14 0.000000 1.000000 0.000000
-0.327344 0.850001 0.375536 219 202 14 0.000000 1.000000 0.000000
-0.655425 0.919231 0.165022 219 202 14 0.000000 1.000000 0.000000
-0.099505 0.850001 0.786690 219 202 14 0.000000 1.000000 0.000000
-0.510581 0.850001 0.140832 219 202 14 0.000000 -1.000000 0.000000
-0.125393 0.850001 0.065802 219 202 14 0.000000 -1.000000 0.000000
-0.398677 0.850001 0.981452 219 202 14 0.000000 -1.000000 0.000000
-0.244995 0.919231 0.307408 219 202 14 0.000000 1.000000 0.000000
-0.045701 0.850001 0.154285 219 202 14 0.000000 1.000000 0.000000
-0.370267 0.850001 0.130405 219 202 14 0.000000 1.000000 0.000000
-0.104721 0.919231 0.103064 219 202 14 0.000000 1.000000 0.000000
-0.231771 0.850001 0.465307 219 202 14 0.000000 1.000000 0.000000
-0.745354 0.850001 0.678774 219 202 14 0.000000 1.000000 0.000000
-0.300907 0.919231 0.204828 219 202 14 0.000000 -1.000000 0.000000
-0.550896 0.850001 0.201702 219 202 14 0.000000 -1.000000 0.000000
-0.769229 0.882764 0.405908 219 202 14 -1.000000 0.000000 0.000000
-0.610306 0.850001 0.726227 219 202 14 0.000000 1.000000 0.000000
-0.769229 0.900873 0.666199 219 202 14 1.000000 0.000000 0.000000
-0.713674 0.850001 0.457444 219 202 14 0.000000 1.000000 0.000000
-0.384043 0.850001 0.278388 219 202 14 0.000000 1.000000 0.000000
-0.315560 0.850001 0.246269 219 202 14 0.000000 1.000000 0.000000
-0.575955 0.850001 0.430735 219 202 14 0.000000 1.000000 0.000000
-0.274723 0.919231 0.419416 219 202 14 0.000000 1.000000 0.000000
-0.422500 0.850001 0.757938 219 202 14 0.000000 -1.000000 0.000000
-0.235923 0.850001 0.033810 219 202 14 0.000000 -1.000000 0.000000
-0.173077 0.788765 0.421128 219 202 14 1.000000 0.000000 0.000000
-0.202182 0.850001 0.363408 219 202 14 0.000000 1.000000 0.000000
-0.067443 0.919231 0.985704 219 202 14 0.000000 -1.000000 0.000000
-0.054379 0.850001 0.811029 219 202 14 0.000000 -1.000000 0.000000
-0.767736 0.919231 0.055933 219 202 14 0.000000 1.000000 0.000000
-0.209809 0.818582 0.583966 219 202 14 0.000000 -0.707092 0.707121
-0.274027 0.850001 0.444303 219 202 14 0.000000 -1.000000 0.000000
-0.054651 0.879672 1.000000 219 202 14 0.000000 0.000000 -1.000000
-0.483832 0.850001 0.778814 219 202 14 0.000000 1.000000 0.000000
-0.194221 0.850001 0.102550 219 202 14 0.000000 -1.000000 0.000000
-0.059305 0.773075 0.128733 219 202 14 0.000000 -1.000000 0.000000
-0.249999 0.825710 0.194327 219 202 14 1.000000 0.000000 0.000000
-0.535011 0.919231 0.262603 219 202 14 0.000000 -1.000000 0.000000
-0.173077 0.824653 0.178949 219 202 14 -1.000000 0.000000 0.000000
-0.308637 0.919231 0.515585 219 202 14 0.000000 -1.000000 0.000000
-0.342800 0.850001 0.362105 219 202 14 0.000000 1.000000 0.000000
-0.216125 0.850001 0.097012 219 202 14 0.000000 -1.000000 0.000000
-0.445790 0.919231 0.931346 219 202 14 0.000000 -1.000000 0.000000
-0.698996 0.919231 0.515144 219 202 14 0.000000 -1.000000 0.000000
-0.116261 0.773075 0.092584 219 202 14 0.000000 -1.000000 0.000000
-0.158107 0.773075 0.003874 219 202 14 0.000000 1.000000 0.000000
-0.456876 0.850001 0.525094 219 202 14 0.000000 -1.000000 0.000000
-0.363153 0.850001 0.072510 219 202 14 0.000000 -1.000000 0.000000
-0.109190 0.850001 0.041478 219 202 14 0.000000 1.000000 0.000000
-0.074973 0.919231 0.184183 219 202 14 0.000000 1.000000 0.000000
-0.605580 0.919231 0.358109 219 202 14 0.000000 1.000000 0.000000
-0.035817 0.850001 0.516587 219 202 14 0.000000 -1.000000 0.000000
-0.608498 0.850001 0.137392 219 202 14 0.000000 1.000000 0.000000
-0.443901 0.850001 0.053055 219 202 14 0.000000 1.000000 0.000000
-0.519845 0.919231 0.400743 219 202 14 0.000000 1.000000 0.000000
-0.279198 0.850001 0.575479 219 202 14 0.000000 -1.000000 0.000000
-0.079770 0.850001 0.990875 219 202 14 0.000000 -1.000000 0.000000
-0.578633 0.850001 0.164967 219 202 14 0.000000 -1.000000 0.000000
-0.027201 0.919231 0.549429 219 202 14 0.000000 1.000000 0.000000
-0.102779 0.850001 0.341618 219 202 14 0.000000 1.000000 0.000000
-0.010655 0.919231 0.764822 219 202 14 0.000000 -1.000000 0.000000
-0.663077 0.919231 0.613580 219 202 14 0.000000 -1.000000 0.000000
-0.030600 0.919231 0.213307 219 202 14 0.000000 1.000000 0.000000
-0.521196 0.850001 0.464686 219 202 14 0.000000 -1.000000 0.000000
-0.173077 0.783034 0.223829 219 202 14 -1.000000 0.000000 0.000000
-0.550512 0.850001 0.120717 219 202 14 0.000000 -1.000000 0.000000
-0.566467 0.919231 0.550794 219 202 14 0.000000 -1.000000 0.000000
-0.569426 0.850001 0.018867 219 202 14 0.000000 -1.000000 0.000000
-0.169194 0.850001 0.162503 219 202 14 0.000000 1.000000 0.000000
-0.173607 0.919231 0.183721 219 202 14 0.000000 -1.000000 0.000000
-0.169969 0.919231 0.175671 219 202 14 0.000000 1.000000 0.000000
-0.059341 0.850001 0.692544 219 202 14 0.000000 -1.000000 0.000000
-0.400994 0.850001 0.467338 219 202 14 0.000000 1.000000 0.000000
-0.714303 0.850001 0.139138 219 202 14 0.000000 -1.000000 0.000000
-0.578707 0.882431 0.769821 219 202 14 -0.663565 0.000000 0.748119
-0.611672 0.850001 0.486757 219 202 14 0.000000 1.000000 0.000000
-0.570044 0.919231 0.446370 219 202 14 0.000000 -1.000000 0.000000
-0.396116 0.850001 0.353597 219 202 14 0.000000 1.000000 0.000000
-0.585711 0.919231 0.559642 219 202 14 0.000000 1.000000 0.000000
-0.281070 0.919231 0.661602 219 202 14 0.000000 1.000000 0.000000
-0.467913 0.882826 0.955471 219 202 14 0.969611 0.000000 -0.244653
-0.708530 0.850001 0.066996 219 202 14 0.000000 -1.000000 0.000000
-0.009043 0.919231 0.150311 219 202 14 0.000000 -1.000000 0.000000
-0.134384 0.864485 1.000000 219 202 14 0.000000 0.000000 -1.000000
-0.056571 0.850001 0.080125 219 202 14 0.000000 1.000000 0.000000
-0.276668 0.919231 0.143125 219 202 14 0.000000 1.000000 0.000000
-0.764722 0.850001 0.349989 219 202 14 0.000000 1.000000 0.000000
-0.139786 0.773075 0.023106 219 202 14 0.000000 1.000000 0.000000
-0.343859 0.850001 0.272066 219 202 14 0.000000 1.000000 0.000000
-0.173077 0.799304 0.320849 219 202 14 1.000000 0.000000 0.000000
-0.632015 0.919231 0.439933 219 202 14 0.000000 -1.000000 0.000000
-0.217028 0.850001 0.758680 219 202 14 0.000000 1.000000 0.000000
-0.769229 0.859440 0.586909 219 202 14 -1.000000 0.000000 0.000000
-0.480420 0.850001 0.280145 219 202 14 0.000000 1.000000 0.000000
-0.240211 0.850001 0.106094 219 202 14 0.000000 -1.000000 0.000000
-0.113319 0.850001 0.580610 219 202 14 0.000000 -1.000000 0.000000
-0.129980 0.919231 0.517660 219 202 14 0.000000 1.000000 0.000000
-0.011299 0.850001 0.530299 219 202 14 0.000000 1.000000 0.000000
-0.017649 0.919231 0.555896 219 202 14 0.000000 1.000000 0.000000
-0.236821 0.850001 0.126816 219 202 14 0.000000 1.000000 0.000000
-0.226251 0.850001 0.513869 219 202 14 0.000000 1.000000 0.000000
-0.664955 0.919231 0.137838 219 202 14 0.000000 1.000000 0.000000
-0.220189 0.850001 0.497966 219 202 14 0.000000 -1.000000 0.000000
-0.300149 0.919231 0.759767 219 202 14 0.000000 1.000000 0.000000
-0.445860 0.850001 0.991243 219 202 14 0.000000 -1.000000 0.000000
-0.088396 0.850001 0.586047 219 202 14 0.000000 1.000000 0.000000
-0.190475 0.919231 0.460488 219 202 14 0.000000 1.000000 0.000000
-0.118930 0.850001 0.395962 219 202 14 0.000000 1.000000 0.000000
-0.617524 0.919231 0.655532 219 202 14 0.000000 1.000000 0.000000
-0.138992 0.777435 0.230768 219 202 14 0.000000 0.000000 -1.000000
-0.016720 0.850001 0.122659 219 202 14 0.000000 -1.000000 0.000000
-0.720946 0.919231 0.157343 219 202 14 0.000000 1.000000 0.000000
-0.293414 0.891248 1.000000 219 202 14 0.000000 0.000000 -1.000000
-0.200581 0.850001 0.849960 219 202 14 0.000000 1.000000 0.000000
-0.321072 0.919231 0.756179 219 202 14 0.000000 1.000000 0.000000
-0.724597 0.919231 0.673169 219 202 14 0.000000 -1.000000 0.000000
-0.138194 0.919231 0.834378 219 202 14 0.000000 1.000000 0.000000
-0.241779 0.919231 0.294574 219 202 14 0.000000 -1.000000 0.000000
-0.153627 0.850001 0.705517 219 202 14 0.000000 -1.000000 0.000000
-0.474782 0.850001 0.513483 219 202 14 0.000000 -1.000000 0.000000
-0.299270 0.919231 0.646142 219 202 14 0.000000 -1.000000 0.000000
-0.462235 0.850001 0.291590 219 202 14 0.000000 -1.000000 0.000000
-0.769229 0.917846 0.638581 219 202 14 1.000000 0.000000 0.000000
-0.074448 0.773075 0.055956 219 202 14 0.000000 1.000000 0.000000
-0.501126 0.850001 0.151430 219 202 14 0.000000 1.000000 0.000000
-0.162573 0.919231 0.789179 219 202 14 0.000000 -1.000000 0.000000
-0.531036 0.850001 0.202530 219 202 14 0.000000 -1.000000 0.000000
-0.259202 0.850001 0.545125 219 202 14 0.000000 1.000000 0.000000
-0.173077 0.824015 0.130006 219 202 14 -1.000000 0.000000 0.000000
-0.101901 0.919231 0.566858 219 202 14 0.000000 1.000000 0.000000
-0.285604 0.919231 0.274874 219 202 14 0.000000 1.000000 0.000000
-0.613122 0.850001 0.271503 219 202 14 0.000000 1.000000 0.000000
-0.581966 0.919231 0.232851 219 202 14 0.000000 -1.000000 0.000000
-0.415964 0.919231 0.447572 219 202 14 0.000000 1.000000 0.000000
-0.532954 0.919231 0.189898 219 202 14 0.000000 1.000000 0.000000
-0.631507 0.850001 0.684025 219 202 14 0.000000 -1.000000 0.000000
-0.111877 0.919231 0.982149 219 202 14 0.000000 1.000000 0.000000
-0.179661 0.810560 0.575944 219 202 14 0.000000 -0.707092 0.707121
-0.686251 0.850001 0.696510 219 202 14 0.000000 -1.000000 0.000000
-0.420851 0.919231 0.002215 219 202 14 0.000000 -1.000000 0.000000
-0.560545 0.850001 0.061921 219 202 14 0.000000 -1.000000 0.000000
-0.063348 0.919231 0.136364 219 202 14 0.000000 -1.000000 0.000000
-0.121247 0.778102 0.230768 219 202 14 0.000000 0.000000 1.000000
-0.031200 0.850001 0.435905 219 202 14 0.000000 1.000000 0.000000
-0.344411 0.919231 0.577062 219 202 14 0.000000 1.000000 0.000000
-0.515670 0.850001 0.608206 219 202 14 0.000000 -1.000000 0.000000
-0.504289 0.850001 0.694998 219 202 14 0.000000 -1.000000 0.000000
-0.073068 0.773075 0.228882 219 202 14 0.000000 1.000000 0.000000
-0.639895 0.919231 0.350214 219 202 14 0.000000 1.000000 0.000000
-0.367977 0.850001 0.345778 219 202 14 0.000000 1.000000 0.000000
-0.173077 0.842242 0.020049 219 202 14 -1.000000 0.000000 0.000000
-0.295065 0.919231 0.730860 219 202 14 0.000000 1.000000 0.000000
-0.558576 0.919231 0.307933 219 202 14 0.000000 1.000000 0.000000
-0.094903 0.919231 0.941381 219 202 14 0.000000 1.000000 0.000000
-0.165290 0.850001 0.162382 219 202 14 0.000000 1.000000 0.000000
-0.398765 0.919231 0.591168 219 202 14 0.000000 1.000000 0.000000
-0.181963 0.773075 0.103107 219 202 14 0.000000 1.000000 0.000000
-0.021382 0.850001 0.526065 219 202 14 0.000000 -1.000000 0.000000
-0.249999 0.786790 0.199238 219 202 14 1.000000 0.000000 0.000000
-0.466473 0.853851 0.961565 219 202 14 -0.991859 0.000000 0.127338
-0.490704 0.850001 0.875099 219 202 14 0.000000 1.000000 0.000000
-0.048293 0.850001 0.783017 219 202 14 0.000000 1.000000 0.000000
-0.696010 0.919231 0.020482 219 202 14 0.000000 -1.000000 0.000000
-0.308172 0.919231 0.298486 219 202 14 0.000000 1.000000 0.000000
-0.768877 0.919231 0.306065 219 202 14 0.000000 1.000000 0.000000
-0.426127 0.850001 0.304683 219 202 14 0.000000 -1.000000 0.000000
-0.131094 0.773075 0.189753 219 202 14 0.000000 1.000000 0.000000
-0.171992 0.850001 0.224015 219 202 14 0.000000 1.000000 0.000000
-0.177223 0.850001 0.351145 219 202 14 0.000000 -1.000000 0.000000
-0.195970 0.850001 0.531833 219 202 14 0.000000 1.000000 0.000000
-0.046619 0.850001 0.480010 219 202 14 0.000000 -1.000000 0.000000
-0.696597 0.919231 0.288978 219 202 14 0.000000 1.000000 0.000000
-0.179392 0.850001 0.419690 219 202 14 0.000000 1.000000 0.000000
-0.315742 0.850001 0.797347 219 202 14 0.000000 -1.000000 0.000000
-0.371525 0.905860 1.000000 219 202 14 0.000000 0.000000 -1.000000
-0.146509 0.919231 0.595516 219 202 14 0.000000 1.000000 0.000000
-0.398708 0.919231 0.939990 219 202 14 0.000000 1.000000 0.000000
-0.099049 0.919231 0.606050 219 202 14 0.000000 1.000000 0.000000
-0.470152 0.919231 0.003616 219 202 14 0.000000 1.000000 0.000000
-0.361646 0.919231 0.283485 219 202 14 0.000000 -1.000000 0.000000
-0.296779 0.919231 0.506326 219 202 14 0.000000 -1.000000 0.000000
-0.250762 0.850001 0.004554 219 202 14 0.000000 1.000000 0.000000
-0.222239 0.919231 0.722638 219 202 14 0.000000 1.000000 0.000000
-0.573224 0.919231 0.005995 219 202 14 0.000000 -1.000000 0.000000
-0.663888 0.919231 0.141042 219 202 14 0.000000 -1.000000 0.000000
-0.123227 0.903625 1.000000 219 202 14 0.000000 0.000000 1.000000
-0.278328 0.865019 1.000000 219 202 14 0.000000 0.000000 1.000000
-0.662645 0.919231 0.070504 219 202 14 0.000000 -1.000000 0.000000
-0.495001 0.919231 0.815560 219 202 14 0.000000 -1.000000 0.000000
-0.249999 0.814876 0.219383 219 202 14 1.000000 0.000000 0.000000
-0.051434 0.850001 0.184252 219 202 14 0.000000 1.000000 0.000000
-0.682127 0.919231 0.331029 219 202 14 0.000000 1.000000 0.000000
-0.688790 0.850001 0.153438 219 202 14 0.000000 1.000000 0.000000
-0.527904 0.919231 0.687036 219 202 14 0.000000 -1.000000 0.000000
-0.347761 0.850001 0.021430 219 202 14 0.000000 1.000000 0.000000
-0.769229 0.903997 0.448773 219 202 14 -1.000000 0.000000 0.000000
-0.029972 0.913179 1.000000 219 202 14 0.000000 0.000000 1.000000
-0.173077 0.789876 0.478740 219 202 14 1.000000 0.000000 0.000000
-0.697846 0.850001 0.583041 219 202 14 0.000000 1.000000 0.000000
-0.302196 0.883124 1.000000 219 202 14 0.000000 0.000000 -1.000000
-0.201473 0.850001 0.975027 219 202 14 0.000000 -1.000000 0.000000
-0.661415 0.919231 0.649309 219 202 14 0.000000 -1.000000 0.000000
-0.222453 0.919231 0.244202 219 202 14 0.000000 1.000000 0.000000
-0.293114 0.919231 0.168591 219 202 14 0.000000 1.000000 0.000000
-0.445708 0.850001 0.386236 219 202 14 0.000000 -1.000000 0.000000
-0.557449 0.850001 0.328615 219 202 14 0.000000 1.000000 0.000000
-0.769229 0.905870 0.029454 219 202 14 -1.000000 0.000000 0.000000
-0.678302 0.850001 0.428074 219 202 14 0.000000 1.000000 0.000000
-0.011089 0.773075 0.003760 219 202 14 0.000000 -1.000000 0.000000
-0.143369 0.850001 0.404087 219 202 14 0.000000 -1.000000 0.000000
-0.370165 0.919231 0.414279 219 202 14 0.000000 -1.000000 0.000000
-0.690364 0.850001 0.121576 219 202 14 0.000000 -1.000000 0.000000
-0.116016 0.919231 0.727077 219 202 14 0.000000 1.000000 0.000000
-0.769229 0.873584 0.253093 219 202 14 -1.000000 0.000000 0.000000
-0.573382 0.850001 0.536312 219 202 14 0.000000 -1.000000 0.000000
-0.655746 0.919231 0.528165 219 202 14 0.000000 -1.000000 0.000000
-0.193687 0.773075 0.186580 219 202 14 0.000000 -1.000000 0.000000
-0.173077 0.845791 0.167375 219 202 14 -1.000000 0.000000 0.000000
-0.521100 0.850001 0.526028 219 202 14 0.000000 -1.000000 0.000000
-0.213700 0.773075 0.112851 219 202 14 0.000000 1.000000 0.000000
-0.051515 0.919231 0.431760 219 202 14 0.000000 -1.000000 0.000000
-0.741447 0.919231 0.209325 219 202 14 0.000000 1.000000 0.000000
-0.278683 0.850001 0.997292 219 202 14 0.000000 1.000000 0.000000
-0.007831 0.850001 0.404810 219 202 14 0.000000 -1.000000 0.000000
-0.454026 0.850001 0.375654 219 202 14 0.000000 1.000000 0.000000
-0.168349 0.773075 0.131135 219 202 14 0.000000 1.000000 0.000000
-0.548443 0.919231 0.013463 219 202 14 0.000000 -1.000000 0.000000
-0.059591 0.850001 0.801939 219 202 14 0.000000 1.000000 0.000000
-0.204207 0.919231 0.020325 219 202 14 0.000000 -1.000000 0.000000
-0.218037 0.919231 0.079109 219 202 14 0.000000 -1.000000 0.000000
-0.646901 0.919231 0.447470 219 202 14 0.000000 -1.000000 0.000000
-0.033816 0.850001 0.230593 219 202 14 0.000000 -1.000000 0.000000
-0.624764 0.919231 0.466641 219 202 14 0.000000 -1.000000 0.000000
-0.487598 0.850001 0.142692 219 202 14 0.000000 1.000000 0.000000
-0.022963 0.850001 0.782947 219 202 14 0.000000 1.000000 0.000000
-0.710340 0.850001 0.430646 219 202 14 0.000000 1.000000 0.000000
-0.228080 0.850001 0.817287 219 202 14 0.000000 -1.000000 0.000000
-0.030099 0.850001 0.182185 219 202 14 0.000000 -1.000000 0.000000
-0.297032 0.850001 0.542244 219 202 14 0.000000 -1.000000 0.000000
-0.091762 0.850001 0.478913 219 202 14 0.000000 1.000000 0.000000
-0.249999 0.798830 0.502295 219 202 14 1.000000 0.000000 0.000000
-0.587051 0.919231 0.232196 219 202 14 0.000000 -1.000000 0.000000
-0.384180 0.850001 0.303155 219 202 14 0.000000 1.000000 0.000000
-0.650882 0.850001 0.469188 219 202 14 0.000000 -1.000000 0.000000
-0.602853 0.919231 0.488809 219 202 14 0.000000 -1.000000 0.000000
-0.094984 0.919231 0.582871 219 202 14 0.000000 -1.000000 0.000000
-0.175160 0.850001 0.724060 219 202 14 0.000000 1.000000 0.000000
-0.615046 0.919231 0.295287 219 202 14 0.000000 1.000000 0.000000
-0.298391 0.850001 0.425548 219 202 14 0.000000 -1.000000 0.000000
-0.701931 0.850001 0.329011 219 202 14 0.000000 1.000000 0.000000
-0.248847 0.919231 0.721846 219 202 14 0.000000 1.000000 0.000000
-0.460428 0.919231 0.218044 219 202 14 0.000000 -1.000000 0.000000
-0.130062 0.773075 0.093680 219 202 14 0.000000 -1.000000 0.000000
-0.110508 0.919231 0.747324 219 202 14 0.000000 1.000000 0.000000
-0.683477 0.919231 0.417963 219 202 14 0.000000 -1.000000 0.000000
-0.022188 0.850001 0.866276 219 202 14 0.000000 -1.000000 0.000000
-0.052524 0.919231 0.166108 219 202 14 0.000000 -1.000000 0.000000
