ply
format ascii 1.0
element vertex 696
property float x
property float y
property float z
property uchar red
property uchar green
property uchar blue
property float nx
property float ny
property float nz
end_header
0.254731 -0.118534 0.536578 11 57 90 -0.707070 -0.000053 0.707143
0.347938 -0.181270 0.571812 11 57 90 0.656487 0.372857 0.655745
0.332798 -0.163291 0.494892 11 57 90 0.707093 0.000066 -0.707120
0.324290 -0.171927 0.486383 11 57 90 0.707093 0.000066 -0.707120
0.321365 -0.159589 0.587047 11 57 90 0.588924 0.554386 0.588069
0.320886 -0.174812 0.482979 11 57 90 0.707171 -0.000051 -0.707043
0.349053 -0.185507 0.573105 11 57 90 0.656487 0.372857 0.655745
0.264974 -0.079430 0.531497 11 57 90 0.385086 0.838545 0.385422
0.303055 -0.188812 0.466275 11 57 90 0.538725 -0.278790 -0.795017
-0.340086 -0.201638 0.510079 152 71 138 -0.707060 0.000091 -0.707153
-0.350986 -0.135240 0.526347 152 71 138 -0.782250 0.525847 0.334021
-0.294606 -0.212947 0.494050 152 71 138 0.638817 -0.428713 -0.638841
-0.340204 -0.136107 0.510204 152 71 138 -0.707203 -0.000099 -0.707010
-0.269933 -0.059848 0.452705 152 71 138 -0.131607 0.982535 0.131544
-0.325093 -0.192521 0.595148 152 71 138 -0.705039 -0.001143 -0.709167
-0.225037 -0.081338 0.514793 152 71 138 0.707059 0.000000 0.707154
-0.259004 -0.112480 0.548757 152 71 138 0.707063 0.000029 0.707151
-0.273584 -0.140394 0.443579 152 71 138 -0.707064 -0.000062 -0.707150
-0.315900 -0.159931 0.485897 152 71 138 -0.707203 -0.000099 -0.707010
-0.318607 -0.178154 0.594913 152 71 138 -0.656494 0.372873 0.655730
-0.218062 -0.176468 0.488821 152 71 138 0.014267 -0.999796 -0.014267
-0.267153 -0.221926 0.556914 152 71 138 0.707089 0.000129 0.707125
-0.286632 -0.118907 0.571157 152 71 138 -0.245870 0.676263 0.694418
-0.306014 -0.185424 0.476013 152 71 138 -0.707093 0.000066 -0.707120
-0.287039 -0.100309 0.457033 152 71 138 -0.707203 -0.000073 -0.707011
-0.281055 -0.069099 0.477429 152 71 138 -0.263362 0.928088 0.263236
-0.299500 -0.205098 0.481190 152 71 138 0.551330 -0.626137 -0.551351
-0.296958 -0.184842 0.466954 152 71 138 -0.707220 -0.000108 -0.706994
-0.213211 -0.127275 0.502969 152 71 138 0.707059 0.000000 0.707154
-0.249665 -0.071381 0.516869 152 71 138 -0.263216 0.928123 0.263258
-0.345937 -0.184212 0.571030 152 71 138 -0.656198 0.372873 0.656026
-0.257944 -0.070000 0.503720 152 71 138 -0.263250 0.928116 0.263250
-0.306407 -0.088146 0.496108 152 71 138 0.707992 -0.002192 0.706217
-0.257585 -0.059015 0.458840 152 71 138 -0.131607 0.982535 0.131544
-0.232393 -0.063206 0.505315 152 71 138 -0.263216 0.928123 0.263258
-0.272080 -0.072911 0.499845 152 71 138 -0.263471 0.928116 0.263030
-0.296525 -0.098539 0.466521 152 71 138 -0.707203 -0.000073 -0.707011
-0.278161 -0.197045 0.493382 152 71 138 0.551297 -0.626177 -0.551338
-0.248951 -0.150351 0.538705 152 71 138 0.706934 -0.000095 0.707280
-0.355420 -0.167444 0.525415 152 71 138 -0.707057 0.000100 -0.707157
-0.342068 -0.127587 0.528287 152 71 138 -0.588189 0.554490 0.588705
-0.201465 -0.099231 0.491225 152 71 138 0.707059 0.000000 0.707154
-0.286839 -0.189808 0.472236 152 71 138 0.384414 -0.839303 -0.384443
-0.298662 -0.111616 0.548976 152 71 138 -0.495799 0.713088 0.495670
-0.356233 -0.184884 0.561113 152 71 138 -0.656198 0.372873 0.656026
-0.279727 -0.172829 0.449723 152 71 138 -0.706970 0.000068 -0.707244
-0.359785 -0.199280 0.529781 152 71 138 -0.707176 -0.000079 -0.707038
-0.249612 -0.111809 0.539367 152 71 138 0.707063 0.000029 0.707151
-0.327868 -0.151692 0.565198 152 71 138 -0.588574 0.554385 0.588420
-0.278229 -0.224206 0.517982 152 71 138 0.638982 -0.428434 -0.638863
-0.248967 -0.189129 0.508623 152 71 138 0.384443 -0.839283 -0.384458
-0.313520 -0.104621 0.483513 152 71 138 -0.707065 0.000040 -0.707149
-0.328406 -0.144393 0.554719 152 71 138 0.707458 -0.000404 0.706756
-0.253409 -0.200931 0.522546 152 71 138 0.551297 -0.626177 -0.551338
-0.244623 -0.197630 0.534078 152 71 138 0.846273 -0.198542 0.494371
-0.214355 -0.056598 0.484020 152 71 138 -0.131602 0.982526 0.131622
-0.282867 -0.127118 0.452863 152 71 138 -0.707203 -0.000073 -0.707011
-0.334526 -0.113307 0.504522 152 71 138 -0.707203 -0.000099 -0.707010
-0.336405 -0.158808 0.562717 152 71 138 0.704236 0.002951 0.709960
-0.293494 -0.121011 0.567660 152 71 138 -0.496095 0.713088 0.495374
-0.290856 -0.098904 0.460851 152 71 138 -0.707203 -0.000073 -0.707011
-0.227579 -0.143319 0.517335 152 71 138 0.707241 0.000081 0.706973
-0.249359 -0.199518 0.524991 152 71 138 0.551297 -0.626177 -0.551338
-0.267256 -0.238823 0.537598 152 71 138 0.672731 -0.308276 -0.672606
-0.248656 -0.070439 0.514558 152 71 138 -0.263216 0.928123 0.263258
-0.270090 -0.106320 0.559843 152 71 138 0.707179 0.000039 0.707035
-0.202220 -0.160133 0.491979 152 71 138 0.707059 0.000000 0.707154
-0.262867 -0.205184 0.517919 152 71 138 0.551297 -0.626177 -0.551338
-0.347353 -0.161260 0.554730 152 71 138 -0.588524 0.554490 0.588371
-0.269609 -0.191004 0.559362 152 71 138 0.707047 -0.000091 0.707167
-0.214697 -0.176454 0.491198 152 71 138 0.014267 -0.999796 -0.014267
-0.274884 -0.113114 0.444877 152 71 138 -0.707064 -0.000062 -0.707150
-0.215202 -0.176347 0.483209 152 71 138 0.014267 -0.999796 -0.014267
-0.254502 -0.131864 0.544255 152 71 138 0.706934 -0.000095 0.707280
-0.325802 -0.164638 0.495802 152 71 138 -0.707093 0.000066 -0.707120
-0.258202 -0.155965 0.547956 152 71 138 0.707179 0.000039 0.707035
-0.238389 -0.181000 0.498218 152 71 138 0.202086 -0.958288 -0.202101
-0.321532 -0.146351 0.566504 152 71 138 -0.588574 0.554385 0.588420
-0.302176 -0.104675 0.530914 152 71 138 -0.495959 0.713160 0.495406
-0.311626 -0.173403 0.481624 152 71 138 -0.707203 -0.000099 -0.707010
-0.230294 -0.110566 0.520049 152 71 138 0.706976 -0.000079 0.707238
-0.278405 -0.193644 0.489043 152 71 138 0.384414 -0.839303 -0.384443
-0.353841 -0.175598 0.523836 152 71 138 -0.707057 0.000100 -0.707157
-0.209957 -0.159454 0.499714 152 71 138 0.706976 -0.000079 0.707238
-0.282985 -0.177315 0.453209 152 71 138 -0.601212 -0.307247 -0.737661
-0.291195 -0.085716 0.511052 152 71 138 -0.385157 0.838566 0.385306
-0.343615 -0.166681 0.563388 152 71 138 -0.656198 0.372873 0.656026
-0.340794 -0.189930 0.510789 152 71 138 -0.707060 0.000091 -0.707153
-0.251434 -0.210225 0.535076 152 71 138 0.551297 -0.626177 -0.551338
-0.317847 -0.215087 0.607605 152 71 138 0.707089 0.000129 0.707125
-0.259665 -0.091627 0.429665 152 71 138 -0.706867 0.000012 -0.707347
-0.292698 -0.137296 0.462692 152 71 138 -0.706970 0.000068 -0.707244
-0.322825 -0.123799 0.492819 152 71 138 -0.707203 -0.000099 -0.707010
-0.264119 -0.144845 0.434116 152 71 138 -0.707064 -0.000062 -0.707150
-0.297216 -0.179163 0.467211 152 71 138 -0.707220 -0.000108 -0.706994
-0.270461 -0.095028 0.552064 152 71 138 -0.385455 0.838618 0.384895
-0.206058 -0.055701 0.485625 152 71 138 -0.131602 0.982526 0.131622
-0.318633 -0.169557 0.586554 152 71 138 -0.657245 0.372857 0.654986
-0.277903 -0.190286 0.567655 152 71 138 0.707178 0.000261 0.707035
-0.307630 -0.129482 0.477623 152 71 138 -0.707065 0.000040 -0.707149
-0.222323 -0.176271 0.470740 152 71 138 0.014267 -0.999796 -0.014267
-0.305049 -0.179442 0.594801 152 71 138 0.707089 0.000129 0.707125
-0.256012 -0.192971 0.545767 152 71 138 0.707164 0.000016 0.707050
-0.254513 -0.169145 0.544267 152 71 138 0.707179 0.000039 0.707035
-0.307358 -0.138237 0.477350 152 71 138 -0.707065 0.000040 -0.707149
-0.305799 -0.152666 0.588192 152 71 138 -0.588849 0.554365 0.588164
-0.252170 -0.176364 0.447396 152 71 138 0.014265 -0.999796 -0.014266
-0.310169 -0.092535 0.505686 152 71 138 -0.707924 0.001459 -0.706288
-0.291818 -0.116278 0.561871 152 71 138 -0.707095 0.000030 -0.707118
-0.303864 -0.138106 0.572556 152 71 138 -0.589463 0.554484 0.587436
-0.302113 -0.183692 0.591866 152 71 138 0.707089 0.000129 0.707125
-0.296111 -0.199922 0.585867 152 71 138 0.707089 0.000129 0.707125
-0.254687 -0.205640 0.526616 152 71 138 0.551297 -0.626177 -0.551338
-0.343056 -0.205174 0.513049 152 71 138 -0.707176 -0.000079 -0.707038
-0.327802 -0.138524 0.497800 152 71 138 -0.707203 -0.000099 -0.707010
-0.265393 -0.202618 0.555147 152 71 138 0.707178 0.000261 0.707035
-0.272467 -0.061342 0.458672 152 71 138 -0.263362 0.928088 0.263236
-0.288691 -0.107637 0.552928 152 71 138 0.708015 -0.001355 0.706196
-0.242993 -0.092747 0.532747 152 71 138 0.707063 0.000029 0.707151
-0.260451 -0.182540 0.550206 152 71 138 0.707164 0.000016 0.707050
-0.331816 -0.104865 0.503093 152 71 138 -0.827917 0.226669 -0.513006
-0.259812 -0.069387 0.499691 152 71 138 -0.263250 0.928116 0.263250
-0.352786 -0.168918 0.522782 152 71 138 -0.707057 0.000100 -0.707157
-0.246644 -0.101936 0.536399 152 71 138 0.707063 0.000029 0.707151
-0.286670 -0.218540 0.576430 152 71 138 0.707089 0.000129 0.707125
-0.241928 -0.176279 0.451745 152 71 138 0.014265 -0.999796 -0.014266
-0.382353 -0.558524 -0.651215 59 80 95 0.707075 0.000060 -0.707139
-0.448794 -0.539299 -0.661750 59 80 95 -0.338699 0.877861 -0.338590
-0.389160 -0.591690 -0.614976 59 80 95 0.415003 -0.809650 0.415018
-0.454494 -0.603524 -0.639663 59 80 95 0.000717 -0.999999 0.000716
-0.358378 -0.536458 -0.572974 59 80 95 0.591064 -0.548990 0.590976
-0.385765 -0.482728 -0.614651 59 80 95 -0.534655 0.654608 -0.534447
-0.437967 -0.557642 -0.587074 59 80 95 -0.706915 0.000221 0.707298
-0.431089 -0.603501 -0.631004 59 80 95 0.000717 -0.999999 0.000716
-0.432112 -0.525479 -0.644185 59 80 95 -0.314709 0.895622 -0.314356
-0.376356 -0.539102 -0.557450 59 80 95 0.591064 -0.548990 0.590976
-0.378165 -0.543004 -0.559362 59 80 95 0.570239 -0.591398 0.570155
-0.408486 -0.566945 -0.558870 59 80 95 -0.512393 -0.219128 0.830323
-0.430916 -0.564913 -0.699777 59 80 95 0.706674 0.000464 -0.707540
-0.457009 -0.591689 -0.606108 59 80 95 -0.707176 0.000025 0.707038
-0.464998 -0.580237 -0.707787 59 80 95 -0.677854 0.285422 -0.677532
-0.407843 -0.603489 -0.637324 59 80 95 0.000717 -0.999999 0.000716
-0.450734 -0.518678 -0.600694 59 80 95 -0.789246 0.268359 0.552335
-0.421139 -0.569019 -0.690002 59 80 95 0.707102 0.000086 -0.707111
-0.439349 -0.603221 -0.593311 59 80 95 -0.223055 -0.948618 0.224432
-0.337929 -0.505699 -0.565900 59 80 95 0.597854 -0.533936 0.597898
-0.443437 -0.596997 -0.712303 59 80 95 0.707102 0.000086 -0.707111
-0.479978 -0.555981 -0.670801 59 80 95 -0.478792 0.735829 -0.478868
-0.375828 -0.589248 -0.644693 59 80 95 0.707102 0.000086 -0.707111
-0.382377 -0.506316 -0.531476 59 80 95 -0.707247 -0.000138 0.706967
-0.442583 -0.519837 -0.617864 59 80 95 -0.374402 0.848399 -0.374222
-0.423582 -0.578928 -0.692446 59 80 95 0.707102 0.000086 -0.707111
-0.473863 -0.568002 -0.622966 59 80 95 -0.707176 0.000025 0.707038
-0.440951 -0.548308 -0.590058 59 80 95 -0.707116 0.000014 0.707097
-0.387343 -0.585451 -0.656208 59 80 95 0.707102 0.000086 -0.707111
-0.488500 -0.590250 -0.683388 59 80 95 -0.705264 -0.071615 -0.705318
-0.492201 -0.593868 -0.641307 59 80 95 -0.707176 0.000025 0.707038
-0.493402 -0.595574 -0.642508 59 80 95 -0.707176 0.000025 0.707038
-0.369089 -0.585365 -0.622978 59 80 95 0.463426 -0.755285 0.463444
-0.432113 -0.517238 -0.622446 59 80 95 -0.374402 0.848399 -0.374222
-0.430654 -0.545202 -0.694557 59 80 95 -0.103249 0.829612 -0.548711
-0.369414 -0.484866 -0.519474 59 80 95 -0.481240 -0.168880 0.860167
-0.427747 -0.566106 -0.576853 59 80 95 -0.707116 0.000014 0.707097
-0.377979 -0.513190 -0.532638 59 80 95 0.346211 -0.502387 0.792304
-0.457785 -0.594473 -0.606884 59 80 95 -0.707139 -0.000667 0.707074
-0.375552 -0.534064 -0.553573 59 80 95 0.591064 -0.548990 0.590976
-0.400941 -0.541769 -0.550047 59 80 95 -0.706983 0.000046 0.707231
-0.408054 -0.509568 -0.629882 59 80 95 -0.406093 0.818513 -0.406356
-0.493188 -0.567579 -0.642290 59 80 95 -0.706673 -0.000465 0.707541
-0.436249 -0.508204 -0.585345 59 80 95 -0.707180 -0.000151 0.707033
-0.392290 -0.534225 -0.661154 59 80 95 0.706844 -0.000270 -0.707369
-0.443831 -0.583633 -0.712696 59 80 95 0.707413 -0.000036 -0.706800
-0.377817 -0.590447 -0.646683 59 80 95 0.707102 0.000086 -0.707111
-0.501177 -0.564034 -0.661114 59 80 95 -0.584803 0.562341 -0.584618
-0.397547 -0.595481 -0.614099 59 80 95 0.363925 -0.857384 0.363938
-0.349849 -0.480224 -0.531654 59 80 95 0.615352 -0.492801 0.615215
-0.486736 -0.553121 -0.635837 59 80 95 -0.706673 -0.000465 0.707541
-0.410556 -0.480349 -0.583720 59 80 95 -0.628538 0.462232 -0.625525
-0.392153 -0.466855 -0.595789 59 80 95 -0.627018 0.461720 -0.627426
-0.474660 -0.547878 -0.658060 59 80 95 -0.343012 0.874441 -0.343068
-0.442011 -0.532786 -0.652186 59 80 95 -0.353577 0.866088 -0.353376
-0.391686 -0.473396 -0.540784 59 80 95 -0.707135 -0.000006 0.707079
-0.505365 -0.569827 -0.654463 59 80 95 -0.707864 0.000345 0.706349
-0.467305 -0.532399 -0.625942 59 80 95 -0.353711 0.865885 -0.353739
-0.413511 -0.589131 -0.585635 59 80 95 0.415002 -0.809650 0.415017
-0.480192 -0.566717 -0.684681 59 80 95 -0.584919 0.561858 -0.584966
-0.408159 -0.557389 -0.557262 59 80 95 -0.706983 0.000046 0.707231
-0.346073 -0.533754 -0.614935 59 80 95 0.707085 -0.000097 -0.707129
-0.462305 -0.603519 -0.625543 59 80 95 0.000717 -0.999999 0.000717
-0.404249 -0.506768 -0.628043 59 80 95 -0.406093 0.818513 -0.406356
-0.396996 -0.586072 -0.665861 59 80 95 0.707102 0.000086 -0.707111
-0.465104 -0.552638 -0.678701 59 80 95 -0.385659 0.838159 -0.385690
-0.361446 -0.490109 -0.630309 59 80 95 0.707118 -0.000015 -0.707096
-0.398836 -0.467042 -0.547935 59 80 95 -0.707135 -0.000006 0.707079
-0.412444 -0.467832 -0.576217 59 80 95 -0.627038 0.461720 -0.627405
-0.479796 -0.546226 -0.628901 59 80 95 -0.706673 -0.000465 0.707541
-0.446900 -0.521017 -0.596002 59 80 95 -0.707313 -0.000290 0.706900
-0.372575 -0.498360 -0.640965 59 80 95 0.500250 0.208262 -0.840463
-0.392039 -0.602742 -0.658123 59 80 95 0.224491 -0.948577 -0.223171
-0.381007 -0.584891 -0.610287 59 80 95 0.463427 -0.755284 0.463444
-0.341469 -0.501062 -0.558219 59 80 95 0.597854 -0.533936 0.597898
-0.411948 -0.498804 -0.608147 59 80 95 -0.534637 0.654581 -0.534497
-0.447730 -0.546740 -0.682090 59 80 95 -0.343145 0.874328 -0.343224
-0.413280 -0.603516 -0.670060 59 80 95 0.000717 -0.999999 0.000717
-0.342991 -0.520707 -0.611855 59 80 95 0.707004 -0.000120 -0.707210
-0.464612 -0.601907 -0.700758 59 80 95 -0.649663 -0.394729 -0.649713
-0.432547 -0.520713 -0.630191 59 80 95 -0.314830 0.895466 -0.314678
-0.326393 -0.494804 -0.567711 59 80 95 0.598079 -0.533632 0.597946
-0.471001 -0.546298 -0.657690 59 80 95 -0.342984 0.874474 -0.343012
-0.360438 -0.480020 -0.629301 59 80 95 0.707175 0.000136 -0.707038
-0.401131 -0.510170 -0.550233 59 80 95 -0.706956 0.000028 0.707258
-0.427344 -0.603528 -0.673437 59 80 95 0.000717 -0.999999 0.000717
-0.463719 -0.603539 -0.651232 59 80 95 0.000717 -0.999999 0.000716
-0.417533 -0.502939 -0.566632 59 80 95 -0.707053 -0.000126 0.707161
-0.475936 -0.582974 -0.625038 59 80 95 -0.707176 0.000025 0.707038
-0.385610 -0.507077 -0.647310 59 80 95 -0.406310 0.818662 -0.405839
-0.355012 -0.527062 -0.623874 59 80 95 0.707085 -0.000097 -0.707129
-0.391308 -0.505582 -0.634645 59 80 95 0.706949 0.000631 -0.707264
-0.408788 -0.474545 -0.581208 59 80 95 -0.628538 0.462232 -0.625525
-0.388183 -0.505545 -0.636052 59 80 95 -0.405610 0.818844 -0.406171
-0.396672 -0.563946 -0.563982 59 80 95 0.542289 -0.641853 0.542169
-0.407781 -0.530985 -0.556886 59 80 95 -0.706983 0.000046 0.707231
-0.469145 -0.586258 -0.703148 59 80 95 -0.705498 -0.070841 -0.705163
-0.433013 -0.603121 -0.697733 59 80 95 0.223672 -0.948978 -0.222287
-0.408315 -0.509563 -0.629609 59 80 95 -0.406093 0.818513 -0.406356
-0.353520 -0.547030 -0.588187 59 80 95 0.570239 -0.591398 0.570155
-0.408503 -0.599498 -0.612604 59 80 95 0.364132 -0.857243 0.364064
-0.392226 -0.591889 -0.612300 59 80 95 0.415002 -0.809650 0.415017
-0.401767 -0.603484 -0.637110 59 80 95 0.000717 -0.999999 0.000716
-0.474610 -0.581938 -0.623712 59 80 95 -0.707176 0.000025 0.707038
-0.508044 -0.588011 -0.657138 59 80 95 -0.707864 0.000345 0.706349
-0.443385 -0.522099 -0.592486 59 80 95 -0.707313 -0.000290 0.706900
-0.426288 -0.603529 -0.675183 59 80 95 0.000717 -0.999999 0.000717
-0.368106 -0.523268 -0.636968 59 80 95 0.707085 -0.000097 -0.707129
-0.361581 -0.567140 -0.630445 59 80 95 0.707163 0.000058 -0.707051
-0.436987 -0.587409 -0.705852 59 80 95 0.707102 0.000086 -0.707111
-0.350398 -0.549908 -0.594295 59 80 95 0.570239 -0.591398 0.570155
-0.348835 -0.348143 -0.588924 126 146 220 -0.694198 0.190867 -0.694017
-0.322219 -0.279500 -0.472296 126 146 220 -0.453880 -0.078270 0.887618
-0.318657 -0.232252 -0.586652 126 146 220 0.451247 0.058597 -0.890473
-0.317903 -0.494702 -0.576112 126 146 220 0.598079 -0.533632 0.597946
-0.370253 -0.237860 -0.539053 126 146 220 0.708416 -0.000301 -0.705795
-0.278724 -0.382254 -0.545128 126 146 220 0.872790 -0.238955 0.425602
-0.354089 -0.227423 -0.503192 126 146 220 -0.707084 -0.000006 0.707130
-0.306543 -0.229456 -0.575404 126 146 220 0.707103 -0.000024 -0.707110
-0.379511 -0.429690 -0.584923 126 146 220 0.707964 -0.000341 -0.706248
-0.383214 -0.437736 -0.532316 126 146 220 -0.707090 0.000032 0.707123
-0.343494 -0.323283 -0.492593 126 146 220 -0.707096 -0.000077 0.707117
-0.319114 -0.449372 -0.539126 126 146 220 0.641228 -0.421417 0.641275
-0.294372 -0.212221 -0.463633 126 146 220 0.638807 -0.428744 0.638831
-0.299456 -0.330867 -0.568316 126 146 220 0.707068 -0.000064 -0.707145
-0.298750 -0.399798 -0.567611 126 146 220 0.707116 -0.000042 -0.707097
-0.332723 -0.369750 -0.601587 126 146 220 0.707075 0.000231 -0.707139
-0.402884 -0.421749 -0.551986 126 146 220 -0.707090 0.000032 0.707123
-0.305800 -0.430246 -0.574660 126 146 220 0.707109 -0.000121 -0.707105
-0.272958 -0.332267 -0.532835 126 146 220 0.696035 -0.176952 0.695861
-0.317671 -0.423996 -0.524701 126 146 220 0.666069 -0.335960 0.665946
-0.346965 -0.229739 -0.559518 126 146 220 -0.707998 0.000139 0.706215
-0.334235 -0.436795 -0.603093 126 146 220 0.707109 -0.000121 -0.707105
-0.344935 -0.472092 -0.613794 126 146 220 0.707040 0.000059 -0.707173
-0.341554 -0.421480 -0.499545 126 146 220 0.666069 -0.335960 0.665946
-0.275291 -0.353321 -0.544153 126 146 220 0.707144 -0.000014 -0.707069
-0.290559 -0.406738 -0.559420 126 146 220 0.707116 -0.000042 -0.707097
-0.319162 -0.318723 -0.483183 126 146 220 0.695896 -0.177158 0.695948
-0.301951 -0.393653 -0.525110 126 146 220 0.665946 -0.336150 0.665972
-0.335095 -0.193414 -0.556936 126 146 220 -0.655856 0.372873 -0.656368
-0.372684 -0.260990 -0.541484 126 146 220 0.707969 -0.000156 -0.706243
-0.339817 -0.203339 -0.488919 126 146 220 -0.707096 -0.000095 0.707118
-0.378371 -0.280535 -0.527471 126 146 220 -0.707116 0.000173 0.707098
-0.359182 -0.277474 -0.508282 126 146 220 -0.707116 0.000173 0.707098
-0.328135 -0.231493 -0.577131 126 146 220 -0.696041 0.185364 -0.693662
-0.377410 -0.431077 -0.526513 126 146 220 -0.707090 0.000032 0.707123
-0.400236 -0.431133 -0.549338 126 146 220 -0.707090 0.000032 0.707123
-0.308271 -0.329748 -0.577131 126 146 220 0.707068 -0.000064 -0.707145
-0.384623 -0.351867 -0.533722 126 146 220 -0.707093 0.000070 0.707120
-0.345045 -0.336862 -0.588388 126 146 220 0.705375 0.000527 -0.708834
-0.387748 -0.349342 -0.550342 126 146 220 -0.694612 0.190866 -0.693602
-0.339063 -0.199959 -0.488164 126 146 220 -0.707096 -0.000095 0.707118
-0.362983 -0.226466 -0.512086 126 146 220 -0.707084 -0.000006 0.707130
-0.355437 -0.186279 -0.504535 126 146 220 -0.707096 -0.000095 0.707118
-0.350673 -0.372829 -0.499775 126 146 220 -0.707059 -0.000049 0.707154
-0.323369 -0.315495 -0.592231 126 146 220 0.707107 -0.000155 -0.707107
-0.359906 -0.450403 -0.509004 126 146 220 -0.707126 0.000201 0.707087
-0.398477 -0.436181 -0.567277 126 146 220 0.707540 -0.000131 -0.706673
-0.311951 -0.418801 -0.527802 126 146 220 0.666069 -0.335960 0.665946
-0.293531 -0.298390 -0.503642 126 146 220 0.696035 -0.176952 0.695861
-0.325937 -0.196991 -0.475034 126 146 220 -0.707199 -0.000248 0.707014
-0.316969 -0.471608 -0.557635 126 146 220 0.615143 -0.493095 0.615188
-0.339053 -0.263627 -0.488157 126 146 220 -0.707116 0.000173 0.707098
-0.361261 -0.299038 -0.564588 126 146 220 -0.697155 0.167559 -0.697065
-0.376427 -0.364154 -0.525526 126 146 220 -0.707093 0.000070 0.707120
-0.364077 -0.210894 -0.534436 126 146 220 -0.657234 0.372881 -0.654983
-0.284166 -0.281644 -0.553030 126 146 220 0.707051 0.000213 -0.707162
-0.281605 -0.295118 -0.514739 126 146 220 0.696035 -0.176952 0.695861
-0.328623 -0.456908 -0.597483 126 146 220 0.707054 0.000075 -0.707159
-0.358596 -0.327744 -0.574084 126 146 220 -0.697461 0.165761 -0.697188
-0.370608 -0.210379 -0.519710 126 146 220 -0.707096 -0.000095 0.707118
-0.401773 -0.452931 -0.550873 126 146 220 -0.707126 0.000201 0.707087
-0.288027 -0.257293 -0.556888 126 146 220 0.707114 -0.000057 -0.707100
-0.278763 -0.320827 -0.524119 126 146 220 0.696035 -0.176952 0.695861
-0.363232 -0.210743 -0.538656 126 146 220 -0.656157 0.373013 -0.655987
-0.295213 -0.241850 -0.480867 126 146 220 0.672633 -0.308323 0.672683
-0.364687 -0.435468 -0.513789 126 146 220 -0.707126 0.000201 0.707087
-0.287965 -0.333157 -0.518052 126 146 220 0.695896 -0.177158 0.695948
-0.343683 -0.277236 -0.492783 126 146 220 -0.707125 0.000199 0.707088
-0.290606 -0.220801 -0.473157 126 146 220 0.638825 -0.428713 0.638833
-0.270974 -0.303177 -0.539840 126 146 220 0.707068 -0.000064 -0.707145
-0.296063 -0.349169 -0.564924 126 146 220 0.707075 0.000231 -0.707139
-0.285017 -0.243179 -0.553878 126 146 220 0.707103 -0.000024 -0.707110
-0.272823 -0.235479 -0.500338 126 146 220 0.672667 -0.308255 0.672680
-0.379766 -0.399790 -0.573782 126 146 220 -0.686012 0.242938 -0.685834
-0.397389 -0.406891 -0.546489 126 146 220 -0.707067 -0.000127 0.707147
-0.288737 -0.282304 -0.503677 126 146 220 0.685201 -0.247450 0.685032
-0.278220 -0.337186 -0.528823 126 146 220 0.696035 -0.176952 0.695861
-0.351968 -0.343525 -0.584524 126 146 220 -0.693916 0.190620 -0.694366
-0.326205 -0.408131 -0.595067 126 146 220 0.707134 -0.000122 -0.707079
-0.295836 -0.271566 -0.564697 126 146 220 0.707096 0.000089 -0.707117
-0.340391 -0.235510 -0.489496 126 146 220 -0.707084 -0.000006 0.707130
-0.335178 -0.215471 -0.569076 126 146 220 -0.694936 0.185417 -0.694755
-0.340778 -0.382561 -0.605903 126 146 220 -0.426973 0.230502 -0.874393
-0.272477 -0.348535 -0.539007 126 146 220 0.872705 -0.238957 0.425775
-0.348619 -0.344177 -0.497720 126 146 220 -0.707096 -0.000077 0.707117
-0.302722 -0.435067 -0.571582 126 146 220 0.707056 0.000127 -0.707157
-0.369555 -0.374758 -0.574963 126 146 220 0.707531 -0.000191 -0.706683
-0.264748 -0.236587 -0.533609 126 146 220 0.707103 -0.000024 -0.707110
-0.293326 -0.228602 -0.562188 126 146 220 0.707103 -0.000024 -0.707110
-0.368497 -0.395879 -0.583671 126 146 220 -0.686007 0.242973 -0.685827
-0.315954 -0.470840 -0.584817 126 146 220 0.707054 0.000075 -0.707159
-0.380129 -0.380214 -0.529227 126 146 220 -0.707059 -0.000049 0.707154
-0.293524 -0.379730 -0.562387 126 146 220 0.707144 -0.000014 -0.707069
-0.388578 -0.328982 -0.537676 126 146 220 -0.707077 -0.000123 0.707137
-0.358850 -0.316137 -0.567809 126 146 220 -0.696576 0.165469 -0.698142
-0.297319 -0.213556 -0.461582 126 146 220 0.638825 -0.428713 0.638833
-0.367449 -0.231153 -0.537723 126 146 220 -0.696040 0.185388 -0.693657
-0.333795 -0.367738 -0.602659 126 146 220 0.707075 0.000231 -0.707139
-0.273089 -0.284261 -0.520036 126 146 220 0.685022 -0.247833 0.685073
-0.320251 -0.482254 -0.562885 126 146 220 0.615352 -0.492801 0.615215
-0.311405 -0.307323 -0.580268 126 146 220 0.707107 -0.000155 -0.707107
-0.344282 -0.212635 -0.556832 126 146 220 -0.707924 0.000494 0.706288
-0.387318 -0.418496 -0.536420 126 146 220 -0.707094 -0.000007 0.707120
-0.258724 -0.220415 -0.504779 126 146 220 0.638807 -0.428744 0.638831
-0.267912 -0.275686 -0.522110 126 146 220 0.685022 -0.247833 0.685073
-0.336604 -0.481465 -0.605466 126 146 220 0.707040 0.000059 -0.707173
-0.365808 -0.229572 -0.514910 126 146 220 -0.707084 -0.000006 0.707130
-0.353985 -0.411761 -0.600491 126 146 220 -0.685215 0.242929 -0.686634
-0.307482 -0.292219 -0.488118 126 146 220 0.696035 -0.176952 0.695861
-0.354365 -0.398200 -0.503468 126 146 220 -0.707094 -0.000007 0.707120
-0.362063 -0.208684 -0.538654 126 146 220 -0.656157 0.373013 -0.655987
-0.370908 -0.303930 -0.520002 126 146 220 -0.707077 -0.000123 0.707137
-0.347699 -0.191443 -0.496798 126 146 220 -0.707096 -0.000095 0.707118
-0.345606 -0.314778 -0.583994 126 146 220 -0.697134 0.165464 -0.697586
-0.342466 -0.432871 -0.504932 126 146 220 0.641228 -0.421417 0.641275
-0.283881 -0.222498 -0.481020 126 146 220 0.638825 -0.428713 0.638833
-0.314190 -0.222980 -0.583052 126 146 220 0.707103 -0.000024 -0.707110
-0.331218 -0.320654 -0.480317 126 146 220 -0.707096 -0.000077 0.707117
-0.358854 -0.315032 -0.567543 126 146 220 -0.696576 0.165469 -0.698142
-0.342529 -0.335665 -0.591692 126 146 220 -0.706684 -0.000217 0.707529
-0.403040 -0.431329 -0.552141 126 146 220 -0.707090 0.000032 0.707123
-0.285560 -0.280122 -0.554423 126 146 220 0.707051 0.000213 -0.707162
-0.342022 -0.340223 -0.590357 126 146 220 -0.696620 0.165618 -0.698063
-0.269073 -0.255128 -0.537933 126 146 220 0.707114 -0.000057 -0.707100
-0.337257 -0.350107 -0.600822 126 146 220 -0.434799 0.180785 -0.882194
-0.368030 -0.317853 -0.517127 126 146 220 -0.707077 -0.000123 0.707137
-0.323463 -0.249346 -0.472568 126 146 220 -0.707101 0.000053 0.707112
-0.313094 -0.368375 -0.581959 126 146 220 0.707144 -0.000014 -0.707069
-0.308390 -0.332197 -0.577250 126 146 220 0.707068 -0.000064 -0.707145
-0.377999 -0.412493 -0.527102 126 146 220 -0.707094 -0.000007 0.707120
-0.341929 -0.387655 -0.606684 126 146 220 -0.426973 0.230502 -0.874393
-0.314970 -0.342363 -0.493393 126 146 220 0.695896 -0.177158 0.695948
-0.345102 -0.364521 -0.594262 126 146 220 -0.706649 0.000061 0.707564
-0.318600 -0.290718 -0.476616 126 146 220 0.695896 -0.177158 0.695948
-0.285009 -0.328316 -0.553871 126 146 220 0.707068 -0.000064 -0.707145
-0.313336 -0.476391 -0.582200 126 146 220 0.707054 0.000075 -0.707159
-0.374090 -0.420746 -0.586645 126 146 220 -0.708369 0.000500 0.705842
-0.386375 -0.444242 -0.535476 126 146 220 -0.707126 0.000201 0.707087
-0.279253 -0.255973 -0.503299 126 146 220 0.672633 -0.308323 0.672683
-0.390694 -0.411215 -0.566899 126 146 220 -0.685781 0.242730 -0.686139
-0.300683 -0.446322 -0.569545 126 146 220 0.707056 0.000127 -0.707157
-0.390828 -0.417755 -0.569188 126 146 220 -0.667838 0.328962 -0.667665
-0.253239 -0.229584 -0.516581 126 146 220 0.829661 -0.406723 0.382414
-0.361969 -0.436461 -0.511071 126 146 220 -0.707126 0.000201 0.707087
-0.293814 -0.404792 -0.562675 126 146 220 0.707116 -0.000042 -0.707097
-0.391547 -0.407815 -0.561527 126 146 220 -0.687332 0.242962 -0.684503
-0.332556 -0.323489 -0.598182 126 146 220 -0.439696 0.157009 -0.884316
-0.334491 -0.243740 -0.483596 126 146 220 -0.707084 -0.000006 0.707130
-0.266081 -0.289486 -0.534948 126 146 220 0.707068 -0.000064 -0.707145
-0.329324 -0.443139 -0.598182 126 146 220 0.707109 -0.000121 -0.707105
-0.295206 -0.273901 -0.564067 126 146 220 0.707096 0.000089 -0.707117
-0.284924 -0.387462 -0.553787 126 146 220 0.707144 -0.000014 -0.707069
-0.338613 -0.231001 -0.487718 126 146 220 -0.707084 -0.000006 0.707130
-0.363037 -0.256201 -0.512140 126 146 220 -0.707084 -0.000006 0.707130
-0.336406 -0.191614 -0.485504 126 146 220 -0.707199 -0.000248 0.707014
-0.341380 -0.302836 -0.490477 126 146 220 -0.707096 -0.000077 0.707117
-0.300011 -0.323587 -0.503571 126 146 220 0.695896 -0.177158 0.695948
-0.357849 -0.271174 -0.506951 126 146 220 -0.707116 0.000173 0.707098
-0.390515 -0.433347 -0.577182 126 146 220 -0.667838 0.328962 -0.667665
-0.501442 -0.587800 0.700856 210 134 213 -0.705276 -0.070713 0.705398
-0.409855 -0.497584 0.636157 210 134 213 0.707033 -0.000095 0.707181
-0.435560 -0.535766 0.696092 210 134 213 -0.353810 0.865782 0.353893
-0.430501 -0.552249 0.720255 210 134 213 0.707299 -0.000005 0.706914
-0.380723 -0.506342 0.670475 210 134 213 0.707064 0.000111 0.707150
-0.464358 -0.590051 0.737713 210 134 213 -0.705280 -0.070719 0.705393
-0.403632 -0.593056 0.693390 210 134 213 0.707155 0.000000 0.707058
-0.447112 -0.588727 0.617106 210 134 213 -0.707103 0.000117 -0.707111
-0.391893 -0.576126 0.681649 210 134 213 0.707155 0.000000 0.707058
-0.377922 -0.581961 0.667675 210 134 213 0.707288 0.000128 0.706925
-0.399625 -0.591763 0.689382 210 134 213 0.707155 0.000000 0.707058
-0.495834 -0.554742 0.665831 210 134 213 -0.707557 0.000364 -0.706656
-0.354924 -0.528900 0.644683 210 134 213 0.707012 -0.000017 0.707202
-0.402956 -0.532435 0.692712 210 134 213 0.707377 0.000255 0.706837
-0.449558 -0.569246 0.739311 210 134 213 0.707851 0.000053 0.706361
-0.418051 -0.558547 0.588049 210 134 213 -0.706842 0.000184 -0.707371
-0.452157 -0.603567 0.732455 210 134 213 0.000717 -0.999999 -0.000717
-0.340272 -0.529613 0.630029 210 134 213 0.707316 0.000345 0.706898
-0.446264 -0.591434 0.736026 210 134 213 0.706510 0.000797 0.707702
-0.416899 -0.603412 0.701150 210 134 213 0.224513 -0.948576 0.223153
-0.421270 -0.533143 0.591265 210 134 213 -0.707187 -0.000154 -0.707026
-0.406617 -0.592846 0.696376 210 134 213 0.707155 0.000000 0.707058
-0.470037 -0.592347 0.640031 210 134 213 -0.707103 0.000117 -0.707111
-0.413656 -0.596881 0.703416 210 134 213 0.707129 0.000504 0.707085
-0.378844 -0.523332 0.668597 210 134 213 0.707345 0.000125 0.706868
-0.389747 -0.523138 0.679504 210 134 213 0.706860 -0.000381 0.707354
-0.444535 -0.603382 0.729081 210 134 213 0.223776 -0.948937 0.222358
-0.347150 -0.547016 0.624701 210 134 213 0.569905 -0.591879 -0.569989
-0.446681 -0.537728 0.616673 210 134 213 -0.707207 -0.000153 -0.707007
-0.466471 -0.567155 0.636468 210 134 213 -0.707103 0.000117 -0.707111
-0.475775 -0.560896 0.712719 210 134 213 -0.478681 0.736145 0.478491
-0.469411 -0.603563 0.709725 210 134 213 0.000717 -0.999999 -0.000717
-0.456986 -0.583961 0.626981 210 134 213 -0.707103 0.000117 -0.707111
-0.462576 -0.584816 0.740020 210 134 213 -0.705280 -0.070719 0.705393
-0.466320 -0.603573 0.727087 210 134 213 0.000717 -0.999999 -0.000717
-0.376208 -0.553181 0.665959 210 134 213 0.706860 -0.000381 0.707354
-0.465359 -0.603568 0.721419 210 134 213 0.000717 -0.999999 -0.000717
-0.485290 -0.603389 0.660610 210 134 213 -0.222214 -0.949020 -0.223568
-0.431348 -0.542692 0.716931 210 134 213 -0.096014 0.833971 0.543390
-0.414614 -0.603492 0.665327 210 134 213 0.000717 -0.999999 -0.000717
-0.464069 -0.603558 0.708237 210 134 213 0.000717 -0.999999 -0.000717
-0.462002 -0.531895 0.660176 210 134 213 -0.353698 0.865884 0.353755
-0.481658 -0.554594 0.696556 210 134 213 -0.385853 0.838079 0.385670
-0.388664 -0.531464 0.678417 210 134 213 0.706860 -0.000381 0.707354
-0.384628 -0.590325 0.674383 210 134 213 0.707155 0.000000 0.707058
-0.389819 -0.587754 0.636804 210 134 213 0.414994 -0.809650 -0.415025
-0.512159 -0.570521 0.683235 210 134 213 -0.855751 0.177775 -0.485888
-0.430974 -0.528083 0.681923 210 134 213 -0.355443 0.864443 0.355527
-0.437857 -0.588742 0.727619 210 134 213 0.707155 0.000000 0.707058
-0.442906 -0.508127 0.613156 210 134 213 -0.798933 0.261731 -0.541482
-0.370036 -0.536325 0.591345 210 134 213 0.590803 -0.549363 -0.590891
-0.495932 -0.561578 0.665925 210 134 213 -0.707209 0.000104 -0.707005
-0.467294 -0.543676 0.637296 210 134 213 -0.707103 0.000117 -0.707111
-0.443849 -0.603545 0.710281 210 134 213 0.000717 -0.999999 -0.000717
-0.440505 -0.514388 0.637746 210 134 213 -0.374163 0.848505 0.374222
-0.417405 -0.504201 0.587398 210 134 213 -0.707119 0.000014 -0.707094
-0.408185 -0.602705 0.695389 210 134 213 0.223776 -0.948937 0.222358
-0.441889 -0.603494 0.641126 210 134 213 0.000717 -0.999999 -0.000717
-0.350941 -0.557465 0.632202 210 134 213 0.542313 -0.641796 -0.542213
-0.455181 -0.546108 0.703190 210 134 213 -0.343026 0.874442 0.343051
-0.423850 -0.504095 0.593843 210 134 213 -0.707119 0.000014 -0.707094
-0.399066 -0.552705 0.688823 210 134 213 0.707155 0.000000 0.707058
-0.441134 -0.585195 0.730897 210 134 213 0.707155 0.000000 0.707058
-0.381890 -0.555101 0.598449 210 134 213 0.542313 -0.641796 -0.542213
-0.398223 -0.511431 0.668275 210 134 213 -0.707361 0.000509 -0.706852
-0.459508 -0.554095 0.717618 210 134 213 -0.385795 0.838118 0.385642
-0.474432 -0.603529 0.657861 210 134 213 0.000717 -0.999999 -0.000717
-0.397914 -0.556492 0.584070 210 134 213 0.542011 -0.642187 -0.542052
-0.378940 -0.579034 0.632964 210 134 213 0.463176 -0.755571 -0.463228
-0.377939 -0.551263 0.598321 210 134 213 0.570281 -0.591337 -0.570175
-0.354058 -0.544920 0.643817 210 134 213 0.707012 -0.000017 0.707202
-0.451871 -0.517827 0.634178 210 134 213 -0.374163 0.848505 0.374222
-0.396574 -0.507208 0.566570 210 134 213 -0.707043 0.000075 -0.707170
-0.407829 -0.580683 0.606766 210 134 213 0.463218 -0.755530 -0.463253
-0.453701 -0.603500 0.637983 210 134 213 0.000717 -0.999999 -0.000717
-0.376807 -0.581204 0.666559 210 134 213 0.707288 0.000128 0.706925
-0.452004 -0.581205 0.741763 210 134 213 0.707851 0.000053 0.706361
-0.417639 -0.530215 0.700445 210 134 213 -0.355340 0.864574 0.355310
-0.450460 -0.521997 0.646083 210 134 213 -0.314796 0.895420 0.314845
-0.484067 -0.555452 0.696010 210 134 213 -0.385853 0.838079 0.385670
-0.433899 -0.603513 0.675553 210 134 213 0.000717 -0.999999 -0.000717
-0.397222 -0.516066 0.683359 210 134 213 -0.131480 0.805176 0.578278
-0.436241 -0.603506 0.663898 210 134 213 0.000717 -0.999999 -0.000717
-0.434808 -0.593313 0.724570 210 134 213 0.707155 0.000000 0.707058
-0.448729 -0.539164 0.691629 210 134 213 -0.338603 0.877862 0.338683
-0.441290 -0.579242 0.731050 210 134 213 0.707299 -0.000005 0.706914
-0.457614 -0.553675 0.718600 210 134 213 -0.385795 0.838118 0.385642
-0.363052 -0.551786 0.613753 210 134 213 0.570281 -0.591337 -0.570175
-0.389555 -0.571661 0.611527 210 134 213 0.506266 -0.698092 -0.506323
-0.391236 -0.582515 0.626347 210 134 213 0.463218 -0.755530 -0.463253
-0.498322 -0.576506 0.703055 210 134 213 -0.677856 0.284387 0.677964
-0.382524 -0.498684 0.552521 210 134 213 -0.711097 0.003321 -0.703086
-0.494961 -0.582212 0.664956 210 134 213 -0.707103 0.000117 -0.707111
-0.496263 -0.563670 0.666256 210 134 213 -0.707209 0.000104 -0.707005
-0.303031 -0.277372 0.517758 48 206 37 0.685091 -0.247494 -0.685126
-0.299359 -0.281445 0.589115 48 206 37 0.707099 -0.000127 0.707115
-0.400197 -0.382409 0.570194 48 206 37 -0.707092 -0.000118 -0.707122
-0.284636 -0.325484 0.549593 48 206 37 0.695908 -0.177140 -0.695941
-0.293407 -0.333390 0.583166 48 206 37 0.707072 0.000108 0.707141
-0.387721 -0.275855 0.562222 48 206 37 -0.884409 0.159010 0.438789
-0.374707 -0.249779 0.565596 48 206 37 -0.694608 0.185388 0.695091
-0.367512 -0.243161 0.574294 48 206 37 -0.694914 0.185580 0.694733
-0.342158 -0.434599 0.631916 48 206 37 0.707103 -0.000040 0.707110
-0.316378 -0.456912 0.606131 48 206 37 0.707136 0.000035 0.707078
-0.361236 -0.336238 0.603617 48 206 37 -0.697447 0.165501 0.697264
-0.318172 -0.281198 0.504000 48 206 37 0.685091 -0.247494 -0.685126
-0.411103 -0.479282 0.616149 48 206 37 -0.627231 0.461920 0.627066
-0.305149 -0.294147 0.521105 48 206 37 0.695908 -0.177140 -0.695941
-0.305540 -0.362417 0.595300 48 206 37 0.707078 -0.000020 0.707135
-0.309883 -0.298004 0.599634 48 206 37 0.707105 -0.000144 0.707108
-0.349631 -0.318779 0.519627 48 206 37 -0.707142 0.000058 -0.707071
-0.355924 -0.470938 0.645678 48 206 37 0.707030 -0.000082 0.707184
-0.376733 -0.290220 0.577159 48 206 37 -0.696877 0.167600 0.697332
-0.390467 -0.476319 0.634607 48 206 37 -0.627005 0.461754 0.627414
-0.375456 -0.264118 0.570974 48 206 37 -0.707979 0.000159 -0.706234
-0.375373 -0.383086 0.545371 48 206 37 -0.707093 -0.000128 -0.707121
-0.339424 -0.470609 0.629179 48 206 37 0.707136 0.000035 0.707078
-0.343317 -0.316609 0.513312 48 206 37 -0.707142 0.000058 -0.707071
-0.355663 -0.456527 0.537446 48 206 37 0.641229 -0.421488 -0.641228
-0.271275 -0.302726 0.559964 48 206 37 0.891039 -0.056012 0.450459
-0.285974 -0.256502 0.526983 48 206 37 0.672569 -0.308603 -0.672619
-0.338280 -0.345645 0.508272 48 206 37 -0.707093 -0.000128 -0.707121
-0.372214 -0.391374 0.542213 48 206 37 -0.707092 -0.000118 -0.707122
-0.308233 -0.323683 0.597989 48 206 37 0.707072 0.000108 0.707141
-0.348383 -0.309959 0.518379 48 206 37 -0.707142 0.000058 -0.707071
-0.375540 -0.354142 0.545535 48 206 37 -0.707143 0.000047 -0.707071
-0.313773 -0.307751 0.515943 48 206 37 0.696023 -0.176970 -0.695869
-0.319874 -0.270460 0.609631 48 206 37 0.707096 -0.000101 0.707118
-0.315032 -0.461781 0.581863 48 206 37 0.615284 -0.492800 -0.615284
-0.374677 -0.380532 0.600984 48 206 37 0.707540 -0.000076 0.706674
-0.346786 -0.303693 0.516783 48 206 37 -0.707142 0.000058 -0.707071
-0.301685 -0.281507 0.591440 48 206 37 0.707099 -0.000127 0.707115
-0.318248 -0.374482 0.608006 48 206 37 0.707078 -0.000020 0.707135
-0.372728 -0.329314 0.542725 48 206 37 -0.707142 0.000058 -0.707071
-0.360003 -0.297017 0.593447 48 206 37 -0.706673 -0.000061 -0.707540
-0.321958 -0.272523 0.611714 48 206 37 0.707099 -0.000127 0.707115
-0.342810 -0.451935 0.632566 48 206 37 0.707128 -0.000156 0.707086
-0.271052 -0.255355 0.560812 48 206 37 0.707096 -0.000101 0.707118
-0.412636 -0.472437 0.605967 48 206 37 -0.626912 0.461969 0.627348
-0.362236 -0.419951 0.532239 48 206 37 -0.707101 -0.000080 -0.707113
-0.301637 -0.442257 0.591392 48 206 37 0.707128 -0.000156 0.707086
-0.394896 -0.474998 0.629206 48 206 37 -0.627176 0.461953 0.627096
-0.289005 -0.360390 0.555753 48 206 37 0.684418 -0.251700 -0.684266
-0.330661 -0.426284 0.543021 48 206 37 0.665955 -0.336119 -0.665979
-0.411331 -0.474102 0.612105 48 206 37 -0.627230 0.461919 0.627067
-0.409022 -0.428531 0.579023 48 206 37 -0.707087 0.000070 -0.707127
-0.277510 -0.302588 0.567265 48 206 37 0.707072 0.000108 0.707141
-0.326345 -0.466011 0.616099 48 206 37 0.707136 0.000035 0.707078
-0.315894 -0.316600 0.516072 48 206 37 0.696023 -0.176970 -0.695869
-0.342086 -0.326849 0.620539 48 206 37 -0.697832 0.165761 0.696817
-0.275721 -0.284284 0.565475 48 206 37 0.707105 -0.000144 0.707108
-0.362883 -0.489632 0.652634 48 206 37 0.707316 0.000345 0.706898
-0.354403 -0.383501 0.524401 48 206 37 -0.707093 -0.000128 -0.707121
-0.397325 -0.354822 0.567789 48 206 37 -0.890525 0.060424 -0.450904
-0.351960 -0.282968 0.521958 48 206 37 -0.707125 0.000199 -0.707089
-0.374543 -0.348362 0.544538 48 206 37 -0.707143 0.000047 -0.707071
-0.280905 -0.340195 0.557069 48 206 37 0.695908 -0.177140 -0.695941
-0.354258 -0.248301 0.585651 48 206 37 -0.694091 0.185225 0.695651
-0.375709 -0.325238 0.545706 48 206 37 -0.707082 -0.000084 -0.707131
-0.395872 -0.416341 0.591385 48 206 37 -0.708836 0.000500 -0.705373
-0.325681 -0.437794 0.615438 48 206 37 0.707103 -0.000040 0.707110
-0.342642 -0.426196 0.632400 48 206 37 0.707103 -0.000040 0.707110
-0.331447 -0.467333 0.621202 48 206 37 0.707136 0.000035 0.707078
-0.356638 -0.362195 0.526633 48 206 37 -0.707093 -0.000128 -0.707121
-0.339050 -0.231443 0.599622 48 206 37 -0.694868 0.185580 0.694779
-0.363895 -0.475982 0.544376 48 206 37 0.615258 -0.492837 -0.615280
-0.301961 -0.440295 0.580478 48 206 37 0.641205 -0.421524 -0.641229
-0.346731 -0.350398 0.516724 48 206 37 -0.707093 -0.000128 -0.707121
-0.286694 -0.299279 0.576448 48 206 37 0.707065 0.000126 0.707149
-0.365632 -0.387875 0.613861 48 206 37 -0.685701 0.242938 0.686146
-0.271682 -0.253066 0.561442 48 206 37 0.707096 -0.000101 0.707118
-0.284780 -0.389857 0.571998 48 206 37 0.872809 -0.238853 -0.425623
-0.381187 -0.252314 0.563060 48 206 37 -0.694648 0.185394 0.695049
-0.272707 -0.309757 0.561920 48 206 37 0.891219 -0.056058 0.450097
-0.360756 -0.344006 0.606029 48 206 37 -0.694199 0.190868 0.694016
-0.387166 -0.380701 0.557163 48 206 37 -0.707093 -0.000128 -0.707121
-0.356616 -0.389911 0.526615 48 206 37 -0.707092 -0.000118 -0.707122
-0.299266 -0.409903 0.566148 48 206 37 0.665955 -0.336118 -0.665979
-0.300981 -0.430041 0.590739 48 206 37 0.707128 -0.000156 0.707086
-0.315730 -0.468131 0.605484 48 206 37 0.707136 0.000035 0.707078
-0.342909 -0.410138 0.632667 48 206 37 0.707085 0.000047 0.707129
-0.348897 -0.348347 0.619080 48 206 37 -0.694612 0.190866 0.693602
-0.383282 -0.484056 0.647516 48 206 37 0.705169 0.002618 0.709035
-0.338763 -0.386541 0.515616 48 206 37 0.684294 -0.251894 -0.684319
-0.384810 -0.400391 0.554810 48 206 37 -0.707092 -0.000118 -0.707122
-0.371095 -0.392362 0.609990 48 206 37 -0.685701 0.242938 0.686146
-0.278872 -0.289839 0.568625 48 206 37 0.707105 -0.000144 0.707108
-0.385556 -0.385553 0.593114 48 206 37 -0.686007 0.242973 0.685827
-0.341681 -0.398451 0.517955 48 206 37 0.665955 -0.336119 -0.665979
-0.329626 -0.464883 0.619380 48 206 37 0.707136 0.000035 0.707078
-0.390278 -0.425041 0.603491 48 206 37 -0.667854 0.328721 0.667767
-0.396978 -0.464023 0.619037 48 206 37 -0.627231 0.461920 0.627066
-0.393867 -0.395101 0.584865 48 206 37 -0.685677 0.242997 0.686149
-0.324505 -0.489121 0.614261 48 206 37 0.707136 0.000035 0.707078
-0.376579 -0.245465 0.546579 48 206 37 -0.707160 0.000039 -0.707054
-0.348749 -0.250113 0.594909 48 206 37 -0.694868 0.185580 0.694779
-0.318040 -0.278795 0.607795 48 206 37 0.707099 -0.000127 0.707115
-0.378078 -0.258423 0.567769 48 206 37 0.706655 0.000048 0.707558
-0.305236 -0.363438 0.594995 48 206 37 0.707078 -0.000020 0.707135
-0.333317 -0.500865 0.596350 48 206 37 0.598018 -0.533594 -0.598040
-0.365258 -0.309596 0.535255 48 206 37 -0.707082 -0.000084 -0.707131
-0.299517 -0.397978 0.589276 48 206 37 0.707104 -0.000037 0.707110
-0.333054 -0.222721 0.503048 48 206 37 -0.707176 -0.000079 -0.707038
-0.347687 -0.394363 0.517688 48 206 37 -0.707101 -0.000080 -0.707113
-0.280274 -0.302873 0.548200 48 206 37 0.695908 -0.177140 -0.695941
-0.372114 -0.361216 0.542109 48 206 37 -0.707143 0.000047 -0.707071
-0.283530 -0.356335 0.573291 48 206 37 0.707078 -0.000020 0.707135
-0.336380 -0.464002 0.562294 48 206 37 0.615284 -0.492800 -0.615284
-0.353321 -0.286818 0.523319 48 206 37 -0.707125 0.000199 -0.707089
-0.363859 -0.214345 0.533858 48 206 37 -0.707176 -0.000079 -0.707038
-0.318078 -0.338435 0.607835 48 206 37 0.707072 0.000108 0.707141
-0.309800 -0.339230 0.527923 48 206 37 0.696023 -0.176970 -0.695869
-0.274647 -0.310494 0.564404 48 206 37 0.707072 0.000108 0.707141
-0.328661 -0.504019 0.618417 48 206 37 0.707044 -0.000074 0.707170
-0.311968 -0.439120 0.601725 48 206 37 0.707128 -0.000156 0.707086
-0.305835 -0.338461 0.595593 48 206 37 0.707072 0.000108 0.707141
-0.370817 -0.444242 0.540816 48 206 37 -0.707124 0.000247 -0.707089
-0.403472 -0.407550 0.582982 48 206 37 -0.686421 0.242938 0.685425
-0.362548 -0.437124 0.637172 48 206 37 -0.667527 0.328685 0.668112
-0.383197 -0.340404 0.553194 48 206 37 -0.707142 0.000058 -0.707071
-0.296429 -0.316041 0.535397 48 206 37 0.695908 -0.177140 -0.695941
-0.369588 -0.337350 0.595522 48 206 37 -0.697088 0.165463 0.697632
-0.308871 -0.443893 0.598626 48 206 37 0.707128 -0.000156 0.707086
-0.319975 -0.465269 0.609728 48 206 37 0.707136 0.000035 0.707078
-0.335707 -0.279785 0.615670 48 206 37 -0.697002 0.167600 0.697207
-0.399529 -0.431293 0.593915 48 206 37 -0.667731 0.329064 0.667722
-0.334160 -0.392549 0.623918 48 206 37 0.707085 0.000047 0.707129
-0.352957 -0.347245 0.614720 48 206 37 -0.693916 0.190620 0.694366
-0.335450 -0.397244 0.625207 48 206 37 0.707085 0.000047 0.707129
-0.344754 -0.316470 0.514750 48 206 37 -0.707142 0.000058 -0.707071
-0.369340 -0.268284 0.579171 48 206 37 -0.694619 0.185417 0.695072
-0.289152 -0.317996 0.543172 48 206 37 0.695908 -0.177140 -0.695941
-0.331691 -0.476599 0.621446 48 206 37 0.707136 0.000035 0.707078
-0.327607 -0.221424 0.497599 48 206 37 -0.707176 -0.000079 -0.707038
-0.324404 -0.270605 0.495793 48 206 37 -0.453876 -0.078241 -0.887623
-0.315799 -0.411132 0.605558 48 206 37 0.707104 -0.000037 0.707110
-0.299649 -0.444293 0.588288 48 206 37 0.873331 -0.133065 0.468600
-0.395075 -0.411797 0.589570 48 206 37 -0.685674 0.242997 0.686151
0.467548 -0.538116 0.629632 22 129 246 0.706905 0.000184 -0.707309
0.408958 -0.490675 0.639251 22 129 246 0.534458 0.654419 0.534875
0.450672 -0.558132 0.732479 22 129 246 -0.549898 0.264650 0.792195
0.481695 -0.572014 0.725695 22 129 246 0.677854 0.285295 0.677584
0.408009 -0.551879 0.576791 22 129 246 -0.570198 -0.591458 -0.570134
0.469838 -0.551993 0.631922 22 129 246 0.707093 -0.000078 -0.707120
0.469391 -0.603532 0.674484 22 129 246 -0.000716 -0.999999 -0.000717
0.440625 -0.591747 0.722470 22 129 246 -0.707091 -0.000082 0.707122
0.500727 -0.595357 0.706693 22 129 246 0.649608 -0.394733 0.649765
0.392159 -0.532387 0.674009 22 129 246 -0.706853 -0.000364 0.707360
0.410539 -0.544269 0.692391 22 129 246 -0.707091 -0.000082 0.707122
0.495430 -0.603546 0.668410 22 129 246 -0.000717 -0.999999 -0.000717
0.489948 -0.601329 0.652985 22 129 246 0.670742 -0.315397 -0.671290
0.474511 -0.603555 0.701603 22 129 246 -0.000716 -0.999999 -0.000717
0.445213 -0.497066 0.608886 22 129 246 0.731011 0.620759 0.283339
0.435177 -0.546335 0.597265 22 129 246 0.706842 0.000183 -0.707371
0.374740 -0.524595 0.583845 22 129 246 -0.599925 -0.529447 -0.599814
0.409034 -0.603495 0.683885 22 129 246 -0.000717 -0.999999 -0.000717
0.415148 -0.513424 0.668826 22 129 246 0.374246 0.848430 0.374307
0.381284 -0.580209 0.640440 22 129 246 -0.463217 -0.755531 -0.463252
0.400459 -0.511865 0.678769 22 129 246 0.162414 0.776982 0.608212
0.507170 -0.575764 0.701799 22 129 246 0.677910 0.284255 0.677966
0.450901 -0.602543 0.731111 22 129 246 -0.223780 -0.948935 0.222364
0.488335 -0.549756 0.650419 22 129 246 0.707379 0.000276 -0.706835
0.503211 -0.553156 0.679781 22 129 246 0.386068 0.837754 0.386160
0.427382 -0.514196 0.652918 22 129 246 0.707718 0.000919 -0.706495
0.436835 -0.603516 0.684480 22 129 246 -0.000716 -0.999999 -0.000717
0.493320 -0.589534 0.655408 22 129 246 0.707093 -0.000078 -0.707120
0.470581 -0.543678 0.632664 22 129 246 0.707093 -0.000078 -0.707120
0.463663 -0.568542 0.625749 22 129 246 0.707093 -0.000078 -0.707120
0.432076 -0.537716 0.710596 22 129 246 0.096873 0.832745 0.545116
0.406769 -0.587629 0.627515 22 129 246 -0.414971 -0.809682 -0.414986
0.433646 -0.477971 0.599858 22 129 246 0.818690 0.438140 0.371187
0.411644 -0.494352 0.573737 22 129 246 0.707101 0.000061 -0.707112
0.445679 -0.594714 0.608659 22 129 246 0.554892 -0.272857 -0.785903
0.438913 -0.503621 0.620937 22 129 246 0.534073 0.654788 0.534808
0.397797 -0.530367 0.679644 22 129 246 -0.706853 -0.000364 0.707360
0.456922 -0.521160 0.645146 22 129 246 0.314763 0.895442 0.314813
0.485918 -0.535790 0.653158 22 129 246 0.559074 0.821514 0.112026
0.425259 -0.510306 0.646648 22 129 246 0.406033 0.818814 0.405808
0.382963 -0.546739 0.596507 22 129 246 -0.569988 -0.591759 -0.570030
0.471882 -0.603516 0.649548 22 129 246 -0.000717 -0.999999 -0.000717
0.441706 -0.494997 0.603794 22 129 246 0.707118 0.000015 -0.707095
0.361963 -0.529613 0.643817 22 129 246 -0.706999 -0.000004 0.707214
0.425002 -0.594856 0.706848 22 129 246 -0.707091 -0.000082 0.707122
0.376602 -0.570699 0.631057 22 129 246 -0.506319 -0.698042 -0.506338
0.455254 -0.602860 0.620665 22 129 246 0.222940 -0.948660 -0.224371
0.442138 -0.498475 0.615616 22 129 246 0.534683 0.654392 0.534683
0.473230 -0.537670 0.671159 22 129 246 0.338539 0.877932 0.338565
0.349478 -0.532474 0.616233 22 129 246 -0.591104 -0.548927 -0.590995
0.438952 -0.603493 0.650488 22 129 246 -0.000716 -0.999999 -0.000717
0.499784 -0.570614 0.661870 22 129 246 0.707093 -0.000078 -0.707120
0.467499 -0.554431 0.718263 22 129 246 0.385751 0.838159 0.385598
0.470374 -0.554140 0.632459 22 129 246 0.707093 -0.000078 -0.707120
0.415439 -0.561853 0.581616 22 129 246 -0.290407 -0.609176 -0.737949
0.520180 -0.593227 0.682366 22 129 246 0.875955 -0.124556 -0.466035
0.419321 -0.593007 0.625451 22 129 246 -0.415202 -0.809493 -0.415126
0.440834 -0.559475 0.722680 22 129 246 -0.707419 -0.000318 0.706794
0.467475 -0.603541 0.688948 22 129 246 -0.000716 -0.999999 -0.000717
0.460626 -0.603560 0.722382 22 129 246 -0.000717 -0.999999 -0.000717
0.454083 -0.578685 0.735933 22 129 246 -0.707507 -0.000384 0.706706
0.480538 -0.595400 0.642627 22 129 246 0.707093 -0.000078 -0.707120
