ply
format ascii 1.0
element vertex 711
property float x
property float y
property float z
property uchar red
property uchar green
property uchar blue
property float nx
property float ny
property float nz
end_header
0.262679 0.491269 -0.454481 127 198 27 -0.000006 1.000000 0.000000
0.208336 0.426214 -0.230018 127 198 27 0.000006 -1.000000 0.000000
0.482437 0.426216 -0.826106 127 198 27 0.000008 -1.000000 0.000002
0.173362 0.426214 -0.167938 127 198 27 0.000006 -1.000000 0.000000
0.115598 0.491268 -0.913468 127 198 27 -0.000012 1.000000 -0.000081
0.442142 0.470508 -0.890512 127 198 27 -0.000006 1.000000 0.000002
0.410995 0.426215 -0.064805 127 198 27 0.000007 -1.000000 -0.000001
0.135117 0.426214 -0.339333 127 198 27 0.000006 -1.000000 0.000000
0.273623 0.426216 -0.949421 127 198 27 -0.000003 -1.000000 -0.000101
0.385804 0.297633 -0.576107 127 198 27 0.046603 -0.998593 0.025316
0.291009 0.426215 -0.195793 127 198 27 0.000006 -1.000000 0.000000
0.280346 0.470507 -0.715940 127 198 27 -0.000006 1.000000 0.000000
0.433892 0.470508 -0.552520 127 198 27 -0.000006 1.000000 0.000000
0.007876 0.426212 -0.793353 127 198 27 0.000008 -1.000000 0.000002
0.324538 0.470507 -0.375102 127 198 27 -0.000006 1.000000 0.000000
0.286414 0.298494 -0.626870 127 198 27 -0.021782 -0.999763 0.000000
0.277443 0.426215 -0.099792 127 198 27 0.000006 -1.000000 0.000000
0.272018 0.298808 -0.645561 127 198 27 -0.021782 -0.999763 0.000000
0.467000 0.320854 -0.694275 127 198 27 0.986835 -0.135027 0.089021
0.513715 0.453653 -0.778799 127 198 27 0.803675 0.582602 0.121170
0.165979 0.301118 -0.522414 127 198 27 -0.021782 -0.999763 0.000000
0.219870 0.295644 -0.349105 127 198 27 0.046603 -0.998593 0.025316
0.501471 0.309003 -0.418724 127 198 27 0.759475 -0.397260 0.515153
0.530745 0.426218 -0.865020 127 198 27 0.000000 -1.000000 -0.000225
0.477588 0.470508 -0.562538 127 198 27 -0.000006 1.000000 0.000000
0.452082 0.426216 -0.497526 127 198 27 0.000006 -1.000000 0.000000
0.389173 0.491270 -0.922742 127 198 27 0.000000 1.000000 0.000000
0.165641 0.470506 -0.099003 127 198 27 -0.000006 1.000000 0.000000
0.213858 0.470506 -0.857501 127 198 27 -0.000006 1.000000 0.000000
0.071205 0.470505 -0.563169 127 198 27 -0.000006 1.000000 0.000000
0.131382 0.470506 -0.909320 127 198 27 -0.000006 1.000000 0.000001
0.351663 0.491269 -0.170032 127 198 27 -0.000006 1.000000 0.000000
0.173217 0.300536 -0.070250 127 198 27 0.046603 -0.998593 0.025316
0.044963 0.303755 -0.213287 127 198 27 -0.021782 -0.999763 0.000000
0.364323 0.491269 -0.224618 127 198 27 -0.000006 1.000000 0.000000
0.173145 0.470506 -0.859867 127 198 27 -0.000006 1.000000 0.000000
0.267398 0.336311 -0.934763 127 198 27 -0.585031 -0.799270 0.137502
0.059298 0.491267 -0.530060 127 198 27 -0.000007 1.000000 0.000000
0.248996 0.491269 -0.107109 127 198 27 -0.000007 1.000000 0.000000
0.079099 0.301681 -0.940611 127 198 27 -0.032218 -0.999481 0.000000
0.474752 0.300593 -0.309071 127 198 27 0.975208 -0.220179 -0.022140
0.278348 0.298670 -0.574164 127 198 27 -0.021782 -0.999763 0.000000
0.095561 0.491268 -0.608827 127 198 27 -0.000006 1.000000 0.000000
0.529534 0.452533 -0.311070 127 198 27 0.813811 0.580958 -0.014124
0.479320 0.415210 -0.583275 127 198 27 0.998637 0.000000 -0.052196
0.446157 0.491270 -0.495280 127 198 27 -0.000007 1.000000 0.000000
0.020559 0.470505 -0.581400 127 198 27 -0.000006 1.000000 0.000000
0.099784 0.307719 -0.823552 127 198 27 0.000578 -0.978203 0.207648
0.284792 0.470507 -0.228591 127 198 27 -0.000006 1.000000 0.000000
0.148517 0.491268 -0.294732 127 198 27 -0.000006 1.000000 0.000000
0.070817 0.303191 -0.658925 127 198 27 -0.021782 -0.999763 0.000000
0.528331 0.453133 -0.256811 127 198 27 0.813550 0.581037 0.023076
0.274247 0.470507 -0.714189 127 198 27 -0.000006 1.000000 0.000000
0.087553 0.491268 -0.899383 127 198 27 -0.000010 1.000000 -0.000043
0.140101 0.302977 -0.846000 127 198 27 0.000578 -0.978203 0.207648
0.471086 0.470508 -0.157289 127 198 27 -0.000006 1.000000 0.000000
0.333871 0.316794 -0.942313 127 198 27 -0.355208 0.008874 -0.934745
0.341436 0.470507 -0.313709 127 198 27 -0.000006 1.000000 0.000000
0.170593 0.467738 -0.948876 127 198 27 0.000000 1.000000 0.000000
0.494897 0.426216 -0.607146 127 198 27 0.000006 -1.000000 0.000000
0.044102 0.426213 -0.861389 127 198 27 0.000019 -1.000000 0.000150
0.278939 0.426215 -0.306891 127 198 27 0.000006 -1.000000 0.000000
0.409756 0.467740 -0.957488 127 198 27 0.000000 1.000000 0.000000
0.453989 0.491270 -0.687512 127 198 27 -0.000006 1.000000 0.000000
0.059272 0.491267 -0.839335 127 198 27 -0.000006 1.000000 0.000000
0.264850 0.426214 -0.437501 127 198 27 0.000006 -1.000000 0.000000
0.179772 0.300817 -0.656207 127 198 27 -0.021782 -0.999763 0.000000
0.020493 0.491267 -0.363531 127 198 27 -0.000006 1.000000 0.000000
0.043215 0.491267 -0.039862 127 198 27 -0.000005 1.000000 0.000000
0.285408 0.298221 -0.368081 127 198 27 0.046603 -0.998593 0.025316
0.417275 0.426215 -0.547688 127 198 27 0.000006 -1.000000 0.000000
0.272982 0.491269 -0.531188 127 198 27 -0.000006 1.000000 0.000000
0.504031 0.393907 -0.337578 127 198 27 0.999682 0.000000 -0.025231
0.471540 0.426216 -0.556666 127 198 27 0.000006 -1.000000 0.000000
0.102407 0.295958 -0.120493 127 198 27 0.046603 -0.998593 0.025316
0.080590 0.470505 -0.076875 127 198 27 -0.000006 1.000000 0.000000
0.169980 0.306617 -0.828936 127 198 27 0.000578 -0.978203 0.207648
0.144538 0.491268 -0.422795 127 198 27 -0.000006 1.000000 0.000000
0.329254 0.491269 -0.209247 127 198 27 -0.000006 1.000000 0.000000
0.479144 0.346734 -0.586885 127 198 27 0.999609 0.015356 -0.023377
0.491891 0.361270 -0.914922 127 198 27 0.990690 0.003241 -0.136098
0.113944 0.296397 -0.124415 127 198 27 0.046603 -0.998593 0.025316
0.106915 0.303640 -0.251337 127 198 27 -0.310364 -0.935560 -0.168529
0.408826 0.300727 -0.937532 127 198 27 -0.138334 -0.986519 0.087432
0.507922 0.348039 -0.258199 127 198 27 0.999868 -0.000652 0.016243
0.290101 0.298414 -0.814640 127 198 27 -0.021782 -0.999763 0.000000
0.098534 0.296355 -0.097706 127 198 27 0.046603 -0.998593 0.025316
0.343355 0.491269 -0.158099 127 198 27 -0.000006 1.000000 0.000000
0.464504 0.491270 -0.325113 127 198 27 -0.000006 1.000000 0.000000
0.331565 0.470507 -0.780311 127 198 27 -0.000006 1.000000 0.000000
0.457970 0.470508 -0.462370 127 198 27 -0.000006 1.000000 0.000000
0.374267 0.296580 -0.728960 127 198 27 -0.021782 -0.999763 0.000000
0.232552 0.491268 -0.527740 127 198 27 -0.000006 1.000000 0.000000
0.371790 0.426215 -0.166951 127 198 27 0.000006 -1.000000 0.000000
0.024435 0.304202 -0.247686 127 198 27 -0.021782 -0.999763 0.000000
0.087930 0.491267 -0.439847 127 198 27 -0.000006 1.000000 0.000000
0.096294 0.320957 -0.955754 127 198 27 -0.047405 0.023901 -0.998590
0.407029 0.300156 -0.515670 127 198 27 0.046603 -0.998593 0.025316
0.469087 0.426216 -0.558234 127 198 27 0.000006 -1.000000 0.000000
0.395367 0.296510 -0.638006 127 198 27 0.046603 -0.998593 0.025316
0.213967 0.426214 -0.160397 127 198 27 0.000006 -1.000000 0.000000
0.467758 0.308068 -0.094600 127 198 27 0.999976 -0.000230 -0.006884
0.383228 0.300619 -0.453596 127 198 27 0.046603 -0.998593 0.025316
0.455900 0.491270 -0.841397 127 198 27 -0.000006 1.000000 -0.000001
0.070103 0.470505 -0.394961 127 198 27 -0.000006 1.000000 0.000000
0.420864 0.470508 -0.754136 127 198 27 -0.000006 1.000000 0.000000
0.238331 0.426214 -0.205667 127 198 27 0.000006 -1.000000 0.000000
0.283248 0.298563 -0.733945 127 198 27 -0.021782 -0.999763 0.000000
0.274790 0.470507 -0.211011 127 198 27 -0.000006 1.000000 0.000000
0.136796 0.470506 -0.210580 127 198 27 -0.000007 1.000000 0.000001
0.501270 0.426216 -0.906762 127 198 27 0.000008 -1.000000 -0.000002
0.101925 0.320285 -0.955051 127 198 27 0.035533 0.010135 -0.999317
0.104847 0.319168 -0.954915 127 198 27 0.215286 -0.024992 -0.976231
0.303065 0.303357 -0.198000 127 198 27 0.046603 -0.998593 0.025316
0.101724 0.426214 -0.308046 127 198 27 0.000006 -1.000000 0.000000
0.481273 0.337427 -0.555747 127 198 27 0.537469 -0.488227 -0.687576
0.266746 0.298923 -0.801240 127 198 27 -0.021782 -0.999763 0.000000
0.282140 0.491269 -0.579610 127 198 27 -0.000006 1.000000 0.000000
0.058408 0.426214 -0.935632 127 198 27 0.000006 -1.000000 -0.000035
0.007425 0.491267 -0.081398 127 198 27 -0.000005 1.000000 0.000000
0.212369 0.426214 -0.809404 127 198 27 0.000008 -1.000000 0.000002
0.418593 0.426215 -0.840636 127 198 27 0.000008 -1.000000 0.000001
0.200943 0.426214 -0.490064 127 198 27 0.000006 -1.000000 0.000000
0.468979 0.491270 -0.710552 127 198 27 -0.000006 1.000000 0.000000
0.453034 0.426216 -0.549065 127 198 27 0.000006 -1.000000 0.000000
0.495872 0.426216 -0.832934 127 198 27 0.000008 -1.000000 0.000002
0.478292 0.491270 -0.404834 127 198 27 -0.000006 1.000000 0.000000
0.487430 0.426217 -0.888020 127 198 27 0.000019 -1.000000 0.000150
0.434615 0.491270 -0.684319 127 198 27 -0.000006 1.000000 0.000000
0.152511 0.470506 -0.041402 127 198 27 -0.000006 1.000000 0.000000
0.430921 0.470508 -0.804143 127 198 27 -0.000006 1.000000 -0.000001
0.382770 0.311400 -0.027491 127 198 27 0.046603 -0.998593 0.025316
0.042782 0.426213 -0.490806 127 198 27 0.000006 -1.000000 0.000000
0.391939 0.470507 -0.364800 127 198 27 -0.000006 1.000000 0.000000
0.356217 0.470507 -0.713043 127 198 27 -0.000006 1.000000 0.000000
0.203282 0.426214 -0.792058 127 198 27 0.000008 -1.000000 0.000002
0.482749 0.367051 -0.526354 127 198 27 0.997259 -0.000647 -0.073982
0.483865 0.303279 -0.557954 127 198 27 0.772437 0.497317 0.394990
0.371772 0.470507 -0.851783 127 198 27 -0.000006 1.000000 0.000000
0.359889 0.491269 -0.250343 127 198 27 -0.000006 1.000000 0.000000
0.265959 0.491269 -0.704684 127 198 27 -0.000006 1.000000 0.000000
0.486046 0.349338 -0.707640 127 198 27 0.991754 0.035729 0.123078
0.121878 0.491268 -0.064106 127 198 27 -0.000006 1.000000 0.000000
0.046348 0.470504 -0.936097 127 198 27 -0.000002 1.000000 0.000011
0.275486 0.491269 -0.153901 127 198 27 -0.000006 1.000000 0.000000
0.112560 0.470506 -0.699402 127 198 27 -0.000006 1.000000 0.000000
0.513098 0.443925 -0.718100 127 198 27 0.958042 0.283556 0.041848
0.038840 0.491267 -0.359191 127 198 27 -0.000006 1.000000 0.000000
0.056487 0.491267 -0.243193 127 198 27 -0.000007 1.000000 0.000001
0.398683 0.491269 -0.314478 127 198 27 -0.000006 1.000000 0.000000
0.037119 0.426212 -0.902330 127 198 27 0.000007 -1.000000 -0.000007
0.274301 0.491269 -0.126402 127 198 27 -0.000007 1.000000 0.000001
0.122005 0.426214 -0.036894 127 198 27 0.000062 -1.000000 -0.000063
0.332172 0.491269 -0.374158 127 198 27 -0.000006 1.000000 0.000000
0.054324 0.303551 -0.317444 127 198 27 -0.021782 -0.999763 0.000000
0.317327 0.426215 -0.433832 127 198 27 0.000006 -1.000000 0.000000
0.178903 0.491268 -0.145091 127 198 27 -0.000007 1.000000 0.000000
0.296527 0.426215 -0.236563 127 198 27 0.000006 -1.000000 0.000000
0.210271 0.295932 -0.320054 127 198 27 0.046603 -0.998593 0.025316
0.507343 0.332417 -0.230146 127 198 27 0.998730 -0.000432 0.050389
0.145207 0.298698 -0.091203 127 198 27 0.046603 -0.998593 0.025316
0.187243 0.426214 -0.573540 127 198 27 0.000006 -1.000000 0.000000
0.083716 0.426213 -0.307006 127 198 27 0.000006 -1.000000 0.000000
0.052823 0.470505 -0.708248 127 198 27 -0.000006 1.000000 0.000000
0.463815 0.470508 -0.622801 127 198 27 -0.000006 1.000000 0.000000
0.265226 0.470507 -0.581889 127 198 27 -0.000006 1.000000 0.000000
0.156885 0.491268 -0.773377 127 198 27 -0.000006 1.000000 0.000000
0.372174 0.308455 -0.124142 127 198 27 0.046603 -0.998593 0.025316
0.494436 0.298922 -0.107676 127 198 27 0.000000 -0.994492 0.104815
0.282116 0.470507 -0.928944 127 198 27 0.000014 -1.000000 0.000087
0.500052 0.469156 -0.433568 127 198 27 0.992902 0.000000 -0.118936
0.297156 0.302718 -0.212335 127 198 27 0.046603 -0.998593 0.025316
0.245809 0.426214 -0.666964 127 198 27 0.000006 -1.000000 0.000000
0.197978 0.426214 -0.318748 127 198 27 0.000006 -1.000000 0.000000
0.517457 0.465500 -0.865996 127 198 27 0.500764 0.865097 0.029014
0.406359 0.426215 -0.488859 127 198 27 0.000006 -1.000000 0.000000
0.490143 0.385928 -0.059278 127 198 27 0.992213 -0.000401 0.124548
0.250818 0.470506 -0.038579 127 198 27 -0.000006 1.000000 0.000000
0.265620 0.491269 -0.717279 127 198 27 -0.000006 1.000000 0.000000
0.459549 0.314917 -0.384540 127 198 27 -0.009368 -0.999956 0.000000
0.032338 0.470505 -0.897804 127 198 27 -0.000006 1.000000 0.000001
0.053787 0.303562 -0.335286 127 198 27 -0.021782 -0.999763 0.000000
0.494767 0.323002 -0.065897 127 198 27 0.986747 -0.073004 0.144915
0.116795 0.470506 -0.647744 127 198 27 -0.000006 1.000000 0.000000
0.473596 0.296166 -0.488856 127 198 27 -0.988608 -0.002102 0.150496
0.317986 0.426215 -0.031628 127 198 27 0.000006 -1.000000 0.000000
0.104007 0.426215 -0.069550 127 198 27 0.000062 -1.000000 -0.000063
0.310661 0.470507 -0.730267 127 198 27 -0.000006 1.000000 0.000000
0.518839 0.462485 -0.203831 127 198 27 0.811136 0.581468 0.062884
0.400253 0.470507 -0.819537 127 198 27 -0.000006 1.000000 -0.000001
0.501579 0.426216 -0.687889 127 198 27 0.000006 -1.000000 0.000000
0.261606 0.491269 -0.421338 127 198 27 -0.000006 1.000000 0.000000
0.379385 0.491269 -0.751734 127 198 27 -0.000006 1.000000 0.000000
0.444728 0.491270 -0.311706 127 198 27 -0.000006 1.000000 0.000000
0.510086 0.426216 -0.372356 127 198 27 0.000006 -1.000000 0.000000
0.107598 0.470506 -0.388582 127 198 27 -0.000006 1.000000 0.000000
0.385842 0.426215 -0.556006 127 198 27 0.000006 -1.000000 0.000000
0.316122 0.470507 -0.873300 127 198 27 -0.000006 1.000000 0.000000
0.420825 0.298116 -0.621534 127 198 27 0.046603 -0.998593 0.025316
0.496061 0.426214 -0.278362 127 198 27 0.000000 1.000000 0.000000
0.481573 0.406738 -0.542869 127 198 27 0.997615 0.000000 -0.069024
0.359324 0.322125 -0.950249 127 198 27 0.429862 0.276128 -0.859635
0.489976 0.404429 -0.027360 127 198 27 0.989198 -0.000081 0.146586
0.233836 0.295959 -0.362380 127 198 27 0.046603 -0.998593 0.025316
0.432304 0.426219 -0.330026 127 198 27 -0.000008 -1.000000 0.000064
0.276568 0.470507 -0.772775 127 198 27 -0.000006 1.000000 0.000000
0.161190 0.491268 -0.810291 127 198 27 -0.000006 1.000000 0.000001
0.187152 0.301905 -0.810428 127 198 27 -0.122308 -0.920006 -0.372329
0.158612 0.491268 -0.508876 127 198 27 -0.000007 1.000000 0.000000
0.330454 0.426218 -0.349790 127 198 27 0.000027 -1.000000 -0.000061
0.103470 0.426215 -0.943164 127 198 27 0.000006 -1.000000 -0.000035
0.200221 0.426214 -0.472915 127 198 27 0.000006 -1.000000 0.000000
0.391214 0.491269 -0.322400 127 198 27 -0.000006 1.000000 0.000000
0.481808 0.331463 -0.643178 127 198 27 0.986154 -0.152762 -0.064536
0.116817 0.297353 -0.091984 127 198 27 0.046603 -0.998593 0.025316
0.512800 0.317806 -0.914553 127 198 27 0.993058 0.035461 -0.112153
0.007289 0.304575 -0.260340 127 198 27 -0.021782 -0.999763 0.000000
0.475218 0.311540 -0.211986 127 198 27 -0.985401 -0.167924 0.028057
0.416812 0.470507 -0.218226 127 198 27 -0.000006 1.000000 0.000000
0.398479 0.311020 -0.903896 127 198 27 -0.214071 -0.760195 0.613415
0.336151 0.491269 -0.713858 127 198 27 -0.000006 1.000000 0.000000
0.367999 0.314365 -0.906143 127 198 27 0.088528 -0.071046 -0.993537
0.107027 0.302402 -0.597583 127 198 27 -0.021782 -0.999763 0.000000
0.067383 0.470505 -0.769923 127 198 27 -0.000006 1.000000 0.000000
0.238938 0.299528 -0.637217 127 198 27 -0.021782 -0.999763 0.000000
0.419272 0.491270 -0.672056 127 198 27 -0.000006 1.000000 0.000000
0.227452 0.470506 -0.234429 127 198 27 -0.000006 1.000000 0.000000
0.512367 0.426216 -0.796316 127 198 27 0.000008 -1.000000 0.000002
0.406724 0.449460 -0.981490 127 198 27 -0.318560 0.324482 -0.890635
0.014878 0.426213 -0.500438 127 198 27 0.000006 -1.000000 0.000000
0.018709 0.491267 -0.648183 127 198 27 -0.000006 1.000000 0.000000
0.149046 0.436462 -0.976953 127 198 27 0.163524 0.000000 -0.986539
0.052198 0.303597 -0.545340 127 198 27 -0.021782 -0.999763 0.000000
0.232030 0.470506 -0.730450 127 198 27 -0.000006 1.000000 0.000000
0.090313 0.491268 -0.662541 127 198 27 -0.000006 1.000000 0.000000
0.039326 0.491267 -0.292293 127 198 27 -0.000006 1.000000 0.000000
0.250134 0.294254 -0.887929 127 198 27 0.000000 -0.999842 -0.017797
0.463186 0.470508 -0.891722 127 198 27 -0.000006 1.000000 0.000002
0.051656 0.470505 -0.033169 127 198 27 -0.000005 1.000000 0.000000
0.409136 0.426215 -0.802412 127 198 27 0.000008 -1.000000 0.000002
0.265897 0.298941 -0.552262 127 198 27 -0.021782 -0.999763 0.000000
0.504666 0.426216 -0.589395 127 198 27 0.000006 -1.000000 0.000000
0.409269 0.426215 -0.621355 127 198 27 0.000006 -1.000000 0.000000
0.043375 0.426212 -0.866715 127 198 27 0.000008 -1.000000 -0.000002
0.496912 0.426216 -0.233146 127 198 27 0.000006 -1.000000 0.000000
0.518641 0.427825 -0.483405 127 198 27 0.989023 0.000003 -0.147761
0.276586 0.491269 -0.558402 127 198 27 -0.000006 1.000000 0.000000
0.298124 0.426215 -0.143199 127 198 27 0.000006 -1.000000 0.000000
0.491519 0.349464 -0.797557 127 198 27 0.999046 0.038919 0.019795
0.385967 0.426217 -0.861210 127 198 27 0.000000 -1.000000 -0.000225
0.131072 0.491268 -0.709575 127 198 27 -0.000006 1.000000 0.000000
0.111868 0.491268 -0.275998 127 198 27 -0.000006 1.000000 0.000000
0.480542 0.302861 -0.438284 127 198 27 -0.987084 -0.066734 0.145644
0.359918 0.491269 -0.529123 127 198 27 -0.000006 1.000000 0.000000
0.175251 0.309181 -0.923547 127 198 27 -0.000928 -0.323658 0.946174
0.069106 0.482079 -0.951482 127 198 27 0.055979 0.783680 -0.618638
0.467253 0.338957 -0.169040 127 198 27 0.999976 -0.000230 -0.006884
0.348460 0.491269 -0.622270 127 198 27 -0.000006 1.000000 0.000000
0.201360 0.426214 -0.692382 127 198 27 0.000006 -1.000000 0.000000
0.229762 0.299728 -0.666526 127 198 27 -0.021782 -0.999763 0.000000
0.099612 0.491268 -0.023964 127 198 27 -0.000006 1.000000 0.000000
0.455499 0.491270 -0.856178 127 198 27 -0.000006 1.000000 0.000000
0.496482 0.474735 -0.124776 127 198 27 0.990523 0.000000 0.137345
0.021144 0.491267 -0.193894 127 198 27 -0.000006 1.000000 0.000000
0.255198 0.426214 -0.663378 127 198 27 0.000006 -1.000000 0.000000
0.356936 0.491269 -0.403344 127 198 27 -0.000006 1.000000 0.000000
0.124213 0.470506 -0.914254 127 198 27 0.000014 -1.000000 0.000087
0.412313 0.426215 -0.158021 127 198 27 0.000006 -1.000000 0.000000
0.385324 0.491269 -0.856266 127 198 27 -0.000006 1.000000 0.000000
0.086717 0.470505 -0.861988 127 198 27 -0.000006 1.000000 0.000000
0.071514 0.303176 -0.671732 127 198 27 -0.021782 -0.999763 0.000000
0.199474 0.426214 -0.901876 127 198 27 0.000007 -1.000000 -0.000003
0.283457 0.470507 -0.696718 127 198 27 -0.000006 1.000000 0.000000
0.031061 0.332007 -0.961505 127 198 27 -0.053605 -0.085765 -0.994872
0.208247 0.434146 -0.966889 127 198 27 0.172838 0.000000 -0.984950
0.459050 0.470508 -0.111716 127 198 27 -0.000006 1.000000 0.000000
0.137555 0.426214 -0.936198 127 198 27 0.000005 -1.000000 -0.000040
0.071667 0.461930 -0.973740 127 198 27 0.068330 0.643662 -0.762253
0.237066 0.298790 -0.256670 127 198 27 0.046603 -0.998593 0.025316
0.164774 0.491268 -0.594941 127 198 27 -0.000006 1.000000 0.000000
0.392819 0.491270 -0.929513 127 198 27 0.000000 1.000000 0.000000
0.272999 0.426215 -0.160175 127 198 27 0.000006 -1.000000 0.000000
0.326071 0.426215 -0.441803 127 198 27 0.000006 -1.000000 0.000000
0.273363 0.426215 -0.619069 127 198 27 0.000006 -1.000000 0.000000
0.257482 0.426214 -0.639066 127 198 27 0.000006 -1.000000 0.000000
0.329663 0.491269 -0.530576 127 198 27 -0.000006 1.000000 0.000000
0.213694 0.470506 -0.674740 127 198 27 -0.000006 1.000000 0.000000
0.123148 0.302051 -0.734066 127 198 27 -0.021782 -0.999763 0.000000
0.370361 0.298198 -0.869156 127 198 27 0.000578 -0.978203 0.207648
0.375246 0.470507 -0.132728 127 198 27 -0.000006 1.000000 0.000000
0.203485 0.426214 -0.503892 127 198 27 0.000006 -1.000000 0.000000
0.396329 0.491269 -0.014911 127 198 27 -0.000007 1.000000 0.000001
0.161035 0.426214 -0.672600 127 198 27 0.000006 -1.000000 0.000000
0.008336 0.426215 -0.437057 127 198 27 0.000027 -1.000000 -0.000061
0.432894 0.491270 -0.426033 127 198 27 -0.000006 1.000000 0.000000
0.250801 0.491269 -0.492107 127 198 27 -0.000007 1.000000 0.000001
0.393347 0.491269 -0.825073 127 198 27 -0.000006 1.000000 -0.000001
0.473119 0.318059 -0.246717 127 198 27 -0.985401 -0.167924 0.028057
0.099684 0.491268 -0.330760 127 198 27 -0.000006 1.000000 0.000000
0.525799 0.457790 -0.309987 127 198 27 0.813778 0.581004 -0.014111
0.268757 0.294235 -0.494680 127 198 27 0.046603 -0.998593 0.025316
0.503426 0.417935 -0.221465 127 198 27 0.999795 0.000000 0.020227
0.494784 0.426216 -0.720088 127 198 27 0.000006 -1.000000 0.000000
0.161987 0.297353 -0.175156 127 198 27 0.046603 -0.998593 0.025316
0.047873 0.295681 -0.031009 127 198 27 0.046603 -0.998593 0.025316
0.045902 0.295217 -0.045694 127 198 27 0.046603 -0.998593 0.025316
0.287524 0.491269 -0.145536 127 198 27 -0.000006 1.000000 0.000000
0.264739 0.303741 -0.112313 127 198 27 0.046603 -0.998593 0.025316
0.169603 0.491268 -0.126301 127 198 27 -0.000007 1.000000 0.000000
0.116402 0.491268 -0.273579 127 198 27 -0.000006 1.000000 0.000000
0.042307 0.426213 -0.752857 127 198 27 0.000006 -1.000000 0.000000
0.167203 0.426214 -0.720585 127 198 27 0.000006 -1.000000 0.000000
0.078280 0.303029 -0.497678 127 198 27 -0.021782 -0.999763 0.000000
0.366459 0.491269 -0.042817 127 198 27 -0.000007 1.000000 0.000001
0.395912 0.426215 -0.457815 127 198 27 0.000006 -1.000000 0.000000
0.035945 0.491267 -0.382111 127 198 27 -0.000006 1.000000 0.000000
0.124599 0.299494 -0.021884 127 198 27 0.046603 -0.998593 0.025316
0.056506 0.470505 -0.115739 127 198 27 -0.000006 1.000000 0.000000
0.275069 0.470507 -0.202227 127 198 27 -0.000006 1.000000 0.000000
0.494747 0.412787 -0.836627 127 198 27 0.999890 0.000000 0.014829
0.317117 0.303296 -0.226297 127 198 27 0.046603 -0.998593 0.025316
0.469550 0.375215 -0.009073 127 198 27 -0.992261 -0.003604 -0.124115
0.289733 0.491269 -0.836374 127 198 27 -0.000006 1.000000 -0.000001
0.161629 0.426214 -0.253336 127 198 27 0.000006 -1.000000 0.000000
0.396081 0.491269 -0.830618 127 198 27 -0.000006 1.000000 -0.000001
0.167111 0.470506 -0.269824 127 198 27 -0.000006 1.000000 0.000000
0.493838 0.476654 -0.105708 127 198 27 0.990523 0.000000 0.137345
0.502937 0.409501 -0.204114 127 198 27 0.999201 0.000000 0.039970
0.243773 0.299423 -0.746904 127 198 27 -0.021782 -0.999763 0.000000
0.366192 0.467918 -0.937273 127 198 27 -0.352854 0.000000 -0.935678
0.462993 0.426216 -0.524046 127 198 27 0.000006 -1.000000 0.000000
0.170249 0.308503 -0.946092 127 198 27 -0.182516 0.269540 -0.945535
0.414216 0.426216 -0.973093 127 198 27 0.000000 -1.000000 0.000000
0.152763 0.470506 -0.199452 127 198 27 -0.000007 1.000000 0.000001
0.495593 0.314870 -0.458052 127 198 27 0.597130 0.016543 -0.801974
0.265150 0.426215 -0.561676 127 198 27 0.000006 -1.000000 0.000000
0.239322 0.491268 -0.693181 127 198 27 -0.000006 1.000000 0.000000
0.299033 0.426215 -0.452092 127 198 27 0.000006 -1.000000 0.000000
0.030372 0.304073 -0.208525 127 198 27 -0.021782 -0.999763 0.000000
0.166965 0.426214 -0.608068 127 198 27 0.000006 -1.000000 0.000000
0.112335 0.491268 -0.431002 127 198 27 -0.000006 1.000000 0.000000
0.390731 0.298271 -0.560016 127 198 27 0.046603 -0.998593 0.025316
0.014847 0.470505 -0.131165 127 198 27 -0.000006 1.000000 0.000000
0.341515 0.470507 -0.803957 127 198 27 -0.000006 1.000000 -0.000001
0.341374 0.470507 -0.749675 127 198 27 -0.000006 1.000000 0.000000
0.249784 0.426214 -0.465153 127 198 27 0.000006 -1.000000 0.000000
0.289883 0.426215 -0.198304 127 198 27 0.000006 -1.000000 0.000000
0.343299 0.426215 -0.647656 127 198 27 0.000006 -1.000000 0.000000
0.303357 0.491269 -0.027831 127 198 27 -0.000007 1.000000 0.000000
0.313043 0.294820 -0.553131 127 198 27 0.046603 -0.998593 0.025316
0.503898 0.391860 -0.342860 127 198 27 0.999682 0.000000 -0.025231
0.472266 0.426218 -0.334575 127 198 27 -0.000008 -1.000000 0.000064
0.045668 0.303739 -0.308807 127 198 27 -0.021782 -0.999763 0.000000
0.521471 0.426217 -0.251206 127 198 27 0.000027 -1.000000 -0.000061
0.515693 0.426216 -0.388855 127 198 27 0.000006 -1.000000 0.000000
0.476670 0.308754 -0.177701 127 198 27 -0.985401 -0.167924 0.028057
0.082810 0.296298 -0.877306 127 198 27 0.000578 -0.978203 0.207648
0.304312 0.491269 -0.113590 127 198 27 -0.000007 1.000000 0.000000
0.033490 0.426215 -0.161280 127 198 27 0.000010 -1.000000 0.000000
0.083682 0.297884 -0.010044 127 198 27 0.046603 -0.998593 0.025316
0.316933 0.470507 -0.146459 127 198 27 -0.000006 1.000000 0.000000
0.008634 0.491266 -0.931401 127 198 27 0.000000 1.000000 -0.000610
0.183000 0.305427 -0.820490 127 198 27 -0.084192 -0.974011 -0.210271
0.466847 0.336800 -0.354827 127 198 27 -0.985401 -0.167924 0.028057
0.153725 0.301385 -0.449130 127 198 27 -0.021782 -0.999763 0.000000
0.464011 0.310741 -0.972527 127 198 27 0.252163 -0.044649 -0.966654
0.043695 0.426213 -0.733622 127 198 27 0.000006 -1.000000 0.000000
0.058203 0.491267 -0.393491 127 198 27 -0.000006 1.000000 0.000000
0.299034 0.491269 -0.662305 127 198 27 -0.000006 1.000000 0.000000
0.483466 0.480449 -0.550371 127 198 27 0.682213 0.730825 -0.021893
0.363616 0.301752 -0.944927 127 198 27 -0.234680 -0.972065 0.003795
0.425454 0.491270 -0.011675 127 198 27 -0.000007 1.000000 0.000001
0.264019 0.426215 -0.724943 127 198 27 0.000006 -1.000000 0.000000
0.348707 0.491269 -0.324795 127 198 27 -0.000006 1.000000 0.000000
0.006936 0.491267 -0.355147 127 198 27 -0.000006 1.000000 0.000000
0.223199 0.491268 -0.212738 127 198 27 -0.000006 1.000000 0.000000
0.109297 0.470506 -0.616738 127 198 27 -0.000006 1.000000 0.000000
0.410944 0.321181 -0.072382 127 198 27 0.986835 -0.135027 0.089021
0.264040 0.491269 -0.106666 127 198 27 -0.000007 1.000000 0.000001
0.169834 0.491268 -0.823744 127 198 27 -0.000006 1.000000 -0.000001
0.155218 0.301352 -0.728516 127 198 27 -0.021782 -0.999763 0.000000
0.465780 0.339432 -0.390186 127 198 27 -0.999944 -0.007114 0.007849
0.048712 0.302415 -0.848397 127 198 27 0.000578 -0.978203 0.207648
0.322260 0.426215 -0.638718 127 198 27 0.000006 -1.000000 0.000000
0.131630 0.426214 -0.846643 127 198 27 0.000000 -1.000000 -0.000225
0.482949 0.421995 -0.718509 127 198 27 0.997489 0.008097 0.070355
0.316945 0.491269 -0.571438 127 198 27 -0.000006 1.000000 0.000000
0.500243 0.333924 -0.924119 127 198 27 0.425252 0.822640 -0.377392
0.499052 0.467740 -0.460858 127 198 27 0.000000 1.000000 0.000000
0.237379 0.303587 -0.068009 127 198 27 0.046603 -0.998593 0.025316
0.331828 0.426214 -0.836367 127 198 27 0.000008 -1.000000 0.000001
0.319166 0.378109 -0.934379 127 198 27 -0.220463 0.016751 -0.975252
0.440498 0.470508 -0.283567 127 198 27 -0.000006 1.000000 0.000000
0.185089 0.426214 -0.580385 127 198 27 0.000006 -1.000000 0.000000
0.279633 0.470507 -0.847068 127 198 27 -0.000006 1.000000 0.000000
0.128795 0.426214 -0.599211 127 198 27 0.000006 -1.000000 0.000000
0.204071 0.470506 -0.074423 127 198 27 -0.000006 1.000000 0.000000
0.323275 0.470507 -0.213507 127 198 27 -0.000006 1.000000 0.000000
0.182718 0.426214 -0.708581 127 198 27 0.000006 -1.000000 0.000000
0.299404 0.426215 -0.201462 127 198 27 0.000006 -1.000000 0.000000
0.105416 0.470506 -0.415871 127 198 27 -0.000006 1.000000 0.000000
0.113689 0.426214 -0.672029 127 198 27 0.000006 -1.000000 0.000000
0.212779 0.470508 -0.923706 127 198 27 -0.000005 1.000000 0.000037
0.324946 0.295025 -0.566958 127 198 27 0.046603 -0.998593 0.025316
0.033030 0.426213 -0.971467 127 198 27 0.000003 -1.000000 -0.000033
0.360567 0.301580 -0.373957 127 198 27 0.046603 -0.998593 0.025316
0.229912 0.491268 -0.420797 127 198 27 -0.000006 1.000000 0.000000
0.255283 0.300113 -0.238032 127 198 27 0.046603 -0.998593 0.025316
0.360361 0.426215 -0.389406 127 198 27 -0.000008 -1.000000 0.000064
0.454857 0.376357 -0.959574 127 198 27 0.875916 -0.001438 -0.482462
0.473848 0.313244 -0.249942 127 198 27 -0.985401 -0.167924 0.028057
0.500324 0.465415 -0.756606 127 198 27 0.499935 0.865152 0.039708
0.494425 0.381788 -0.830846 127 198 27 0.998104 0.000000 0.061548
0.044301 0.301976 -0.126789 127 198 27 -0.310364 -0.935560 -0.168529
0.460248 0.470508 -0.863169 127 198 27 -0.000006 1.000000 0.000000
0.077888 0.304864 -0.836939 127 198 27 0.000578 -0.978203 0.207648
0.506178 0.328551 -0.374711 127 198 27 0.994724 0.018820 -0.100844
0.212364 0.470506 -0.143662 127 198 27 -0.000007 1.000000 0.000000
0.503913 0.343652 -0.155654 127 198 27 0.996311 0.000531 0.085819
0.125814 0.301993 -0.673380 127 198 27 -0.021782 -0.999763 0.000000
0.162785 0.301188 -0.738249 127 198 27 -0.021782 -0.999763 0.000000
0.265743 0.491269 -0.312261 127 198 27 -0.000006 1.000000 0.000000
0.225818 0.491268 -0.561213 127 198 27 -0.000006 1.000000 0.000000
0.286662 0.300051 -0.298220 127 198 27 0.046603 -0.998593 0.025316
0.503828 0.388020 -0.345237 127 198 27 0.999554 0.000000 -0.029866
0.499339 0.470508 -0.327492 127 198 27 -0.000006 1.000000 0.000000
0.432881 0.426215 -0.445514 127 198 27 0.000006 -1.000000 0.000000
0.517090 0.444508 -0.103060 127 198 27 0.949104 0.284590 0.134946
0.383748 0.296674 -0.862084 127 198 27 -0.120869 -0.922452 -0.366705
0.459686 0.491270 -0.520486 127 198 27 -0.000006 1.000000 0.000000
0.500617 0.394676 -0.895381 127 198 27 0.736039 -0.000413 0.676939
0.500185 0.464480 -0.720417 127 198 27 0.501562 0.864845 0.021865
0.190555 0.300717 -0.389139 127 198 27 -0.310364 -0.935560 -0.168529
0.399608 0.390186 -0.957470 127 198 27 -0.228229 0.000000 -0.973607
0.191241 0.426214 -0.724543 127 198 27 0.000006 -1.000000 0.000000
0.340317 0.491269 -0.653134 127 198 27 -0.000006 1.000000 0.000000
0.409828 0.315324 -0.068899 127 198 27 0.986835 -0.135027 0.089021
0.079176 0.301668 -0.952162 127 198 27 -0.035328 -0.999376 0.000000
0.049780 0.426213 -0.919532 127 198 27 0.000008 -1.000000 -0.000001
0.401679 0.309057 -0.902842 127 198 27 0.086446 -0.087566 -0.992401
0.511207 0.465579 -0.172741 127 198 27 0.497525 0.865415 0.059381
0.315308 0.491269 -0.568464 127 198 27 -0.000006 1.000000 0.000000
0.406304 0.470507 -0.072555 127 198 27 -0.000007 1.000000 0.000000
0.499383 0.335010 -0.107942 127 198 27 0.980038 -0.015190 0.198230
0.059160 0.470505 -0.728167 127 198 27 -0.000006 1.000000 0.000000
0.493562 0.489736 -0.895214 127 198 27 0.658080 0.734683 -0.164839
0.142934 0.426214 -0.548337 127 198 27 0.000006 -1.000000 0.000000
0.385085 0.491269 -0.048606 127 198 27 -0.000007 1.000000 0.000001
0.496935 0.333540 -0.445642 127 198 27 -0.049595 0.997162 0.056646
0.013124 0.426213 -0.741079 127 198 27 0.000006 -1.000000 0.000000
0.094895 0.470506 -0.769541 127 198 27 -0.000006 1.000000 0.000000
0.511309 0.426216 -0.850919 127 198 27 0.000008 -1.000000 0.000001
0.096409 0.426213 -0.868526 127 198 27 0.000008 -1.000000 -0.000002
0.171227 0.426213 -0.811114 127 198 27 0.000008 -1.000000 0.000002
0.472997 0.470508 -0.071015 127 198 27 -0.000006 1.000000 0.000000
0.417535 0.470508 -0.478398 127 198 27 -0.000006 1.000000 0.000000
0.103720 0.426214 -0.302137 127 198 27 0.000006 -1.000000 0.000000
0.024954 0.491267 -0.912508 127 198 27 -0.000012 1.000000 -0.000081
0.417193 0.306388 -0.288557 127 198 27 0.046603 -0.998593 0.025316
0.156428 0.338205 -0.946395 127 198 27 -0.979099 0.202713 -0.016496
0.480649 0.309185 -0.219125 127 198 27 0.897149 -0.441319 -0.018990
0.183664 0.304800 -0.896125 127 198 27 0.001449 -0.582779 -0.812629
0.061017 0.302215 -0.849374 127 198 27 0.000578 -0.978203 0.207648
0.478428 0.305904 -0.247825 127 198 27 0.897149 -0.441319 -0.018990
0.353822 0.297025 -0.737563 127 198 27 -0.021782 -0.999763 0.000000
0.238290 0.470506 -0.010800 127 198 27 -0.000006 1.000000 0.000000
0.380948 0.426215 -0.450713 127 198 27 0.000006 -1.000000 0.000000
0.015038 0.470505 -0.285734 127 198 27 -0.000007 1.000000 0.000001
0.023018 0.491267 -0.153271 127 198 27 -0.000006 1.000000 0.000000
0.457775 0.304489 -0.616841 127 198 27 0.986835 -0.135027 0.089021
0.064565 0.426213 -0.506626 127 198 27 0.000006 -1.000000 0.000000
0.434065 0.470508 -0.083792 127 198 27 -0.000006 1.000000 0.000000
0.333129 0.302314 -0.294477 127 198 27 0.046603 -0.998593 0.025316
0.295418 0.491269 -0.667471 127 198 27 -0.000006 1.000000 0.000000
0.116272 0.491268 -0.456315 127 198 27 -0.000006 1.000000 0.000000
0.216106 0.426214 -0.779791 127 198 27 0.000008 -1.000000 0.000001
0.102287 0.302506 -0.440134 127 198 27 -0.021782 -0.999763 0.000000
0.424743 0.470507 -0.369049 127 198 27 -0.000006 1.000000 0.000000
0.108389 0.491268 -0.299475 127 198 27 -0.000006 1.000000 0.000000
0.489463 0.426214 -0.424285 127 198 27 0.000000 1.000000 0.000000
0.289812 0.491269 -0.237470 127 198 27 -0.000006 1.000000 0.000000
0.145463 0.491268 -0.183810 127 198 27 -0.000007 1.000000 0.000001
0.079495 0.491267 -0.237994 127 198 27 -0.000007 1.000000 0.000001
0.481800 0.347693 -0.542645 127 198 27 0.996456 0.080089 0.025727
0.399752 0.306068 -0.269070 127 198 27 0.046603 -0.998593 0.025316
0.282434 0.470507 -0.318251 127 198 27 -0.000006 1.000000 0.000000
0.508689 0.426216 -0.570532 127 198 27 0.000006 -1.000000 0.000000
0.297770 0.491269 -0.486950 127 198 27 -0.000007 1.000000 0.000001
0.053176 0.491267 -0.252003 127 198 27 -0.000007 1.000000 0.000001
0.486583 0.491270 -0.296001 127 198 27 -0.000006 1.000000 0.000000
0.253355 0.470507 -0.792152 127 198 27 -0.000006 1.000000 0.000000
0.492408 0.467740 -0.091394 127 198 27 0.000000 1.000000 0.000000
0.510651 0.426216 -0.511255 127 198 27 0.000006 -1.000000 0.000000
0.502644 0.461703 -0.061951 127 198 27 0.812421 0.581154 0.047246
0.399291 0.426215 -0.850901 127 198 27 0.000000 -1.000000 -0.000225
0.377054 0.426215 -0.728195 127 198 27 0.000006 -1.000000 0.000000
0.472973 0.317192 -0.257036 127 198 27 -0.985401 -0.167924 0.028057
0.317816 0.426215 -0.151457 127 198 27 0.000006 -1.000000 0.000000
0.249478 0.426214 -0.889513 127 198 27 0.000008 -1.000000 -0.000002
0.104133 0.491268 -0.236180 127 198 27 -0.000007 1.000000 0.000000
0.141888 0.426214 -0.721856 127 198 27 0.000006 -1.000000 0.000000
0.264849 0.426214 -0.308371 127 198 27 0.000006 -1.000000 0.000000
0.316927 0.426215 -0.169312 127 198 27 0.000006 -1.000000 0.000000
0.131994 0.470506 -0.794396 127 198 27 -0.000006 1.000000 -0.000001
0.017337 0.301798 -0.851214 127 198 27 0.000578 -0.978203 0.207648
0.208276 0.470506 -0.394361 127 198 27 -0.000006 1.000000 0.000000
0.520088 0.454345 -0.438532 127 198 27 0.807396 0.582048 -0.096600
0.196995 0.299780 -0.395800 127 198 27 -0.310364 -0.935560 -0.168529
0.272999 0.297551 -0.371676 127 198 27 0.046603 -0.998593 0.025316
0.457434 0.426216 -0.132035 127 198 27 0.000006 -1.000000 0.000000
0.008788 0.491267 -0.884492 127 198 27 -0.000006 1.000000 0.000000
0.208716 0.491268 -0.112424 127 198 27 -0.000007 1.000000 0.000000
0.151740 0.426214 -0.474015 127 198 27 0.000006 -1.000000 0.000000
0.418454 0.491270 -0.583693 127 198 27 -0.000006 1.000000 0.000000
0.441438 0.426216 -0.489376 127 198 27 0.000006 -1.000000 0.000000
0.467704 0.312033 -0.472956 127 198 27 -0.985401 -0.167924 0.028057
0.451568 0.491270 -0.703009 127 198 27 -0.000006 1.000000 0.000000
0.482969 0.296017 -0.438848 127 198 27 0.000000 -0.961863 0.273530
0.404413 0.491269 -0.898157 127 198 27 -0.000006 1.000000 0.000003
0.254209 0.299196 -0.802713 127 198 27 -0.021782 -0.999763 0.000000
0.066129 0.426213 -0.038202 127 198 27 0.000005 -1.000000 0.000000
0.198297 0.297136 -0.250558 127 198 27 0.046603 -0.998593 0.025316
0.099651 0.470506 -0.089427 127 198 27 -0.000006 1.000000 0.000000
0.121634 0.449910 -0.977422 127 198 27 0.127061 0.328336 -0.935976
0.129397 0.301915 -0.405374 127 198 27 -0.021782 -0.999763 0.000000
0.376743 0.491269 -0.267356 127 198 27 -0.000006 1.000000 0.000000
0.364893 0.303059 -0.323568 127 198 27 0.046603 -0.998593 0.025316
0.507411 0.467740 -0.243646 127 198 27 0.000000 1.000000 0.000000
0.285842 0.298507 -0.714946 127 198 27 -0.021782 -0.999763 0.000000
0.187622 0.491268 -0.828769 127 198 27 -0.000006 1.000000 -0.000001
0.426302 0.491270 -0.040568 127 198 27 -0.000007 1.000000 0.000000
0.412428 0.470507 -0.882563 127 198 27 -0.000006 1.000000 0.000000
0.007905 0.426215 -0.181017 127 198 27 0.000010 -1.000000 0.000000
0.317033 0.426215 -0.301663 127 198 27 0.000006 -1.000000 0.000000
0.135429 0.491268 -0.676836 127 198 27 -0.000006 1.000000 0.000000
0.526582 0.447484 -0.188775 127 198 27 0.956028 0.283764 0.074079
0.113263 0.426216 -0.111210 127 198 27 0.000010 -1.000000 0.000000
0.491287 0.467740 -0.058450 127 198 27 0.000000 1.000000 0.000000
0.404402 0.294232 -0.744485 127 198 27 0.046603 -0.998593 0.025316
0.314780 0.426216 -0.327999 127 198 27 0.000027 -1.000000 -0.000061
0.486099 0.426216 -0.020819 127 198 27 0.000007 -1.000000 -0.000001
0.040372 0.491267 -0.512404 127 198 27 -0.000007 1.000000 0.000001
0.150139 0.301463 -0.699177 127 198 27 -0.021782 -0.999763 0.000000
0.504155 0.425683 -0.327043 127 198 27 0.998144 0.059213 -0.014242
0.048865 0.491267 -0.016213 127 198 27 -0.000006 1.000000 0.000000
0.145700 0.491268 -0.385057 127 198 27 -0.000006 1.000000 0.000000
0.453480 0.318934 -0.522145 127 198 27 -0.980943 -0.171870 -0.090613
0.196457 0.491268 -0.392248 127 198 27 -0.000006 1.000000 0.000000
0.132875 0.491268 -0.154991 127 198 27 -0.000007 1.000000 0.000000
0.115474 0.457198 -0.973056 127 198 27 0.103010 0.643122 -0.758804
0.386583 0.491269 -0.154331 127 198 27 -0.000006 1.000000 0.000000
0.088724 0.450557 -0.981165 127 198 27 0.084342 0.328953 -0.940572
0.146572 0.470506 -0.234886 127 198 27 -0.000006 1.000000 0.000000
0.370936 0.491269 -0.785447 127 198 27 -0.000006 1.000000 0.000000
0.452691 0.470508 -0.688080 127 198 27 -0.000006 1.000000 0.000000
0.068802 0.303235 -0.310571 127 198 27 -0.021782 -0.999763 0.000000
0.242104 0.491268 -0.437857 127 198 27 -0.000006 1.000000 0.000000
0.024505 0.299696 -0.861136 127 198 27 0.000578 -0.978203 0.207648
0.257706 0.299120 -0.795897 127 198 27 -0.021782 -0.999763 0.000000
0.414950 0.470508 -0.111035 127 198 27 -0.000006 1.000000 0.000000
0.140392 0.294263 -0.257261 127 198 27 0.046603 -0.998593 0.025316
0.161887 0.300702 -0.940214 127 198 27 0.159648 -0.987174 0.000000
0.431174 0.426216 -0.091318 127 198 27 0.000006 -1.000000 0.000000
0.305159 0.426215 -0.441403 127 198 27 0.000006 -1.000000 0.000000
0.128918 0.426214 -0.570008 127 198 27 0.000006 -1.000000 0.000000
0.046195 0.470505 -0.643762 127 198 27 -0.000006 1.000000 0.000000
0.081871 0.323914 -0.913056 127 198 27 -0.006891 -0.601427 -0.798898
0.279988 0.426215 -0.291937 127 198 27 0.000006 -1.000000 0.000000
0.341281 0.298876 -0.445118 127 198 27 0.046603 -0.998593 0.025316
0.278119 0.298675 -0.676769 127 198 27 -0.021782 -0.999763 0.000000
0.107624 0.426213 -0.783689 127 198 27 0.000008 -1.000000 0.000001
0.144340 0.301589 -0.582821 127 198 27 -0.021782 -0.999763 0.000000
0.080982 0.426213 -0.958317 127 198 27 0.000004 -1.000000 -0.000026
0.334527 0.297094 -0.874257 127 198 27 0.000578 -0.978203 0.207648
0.146222 0.301548 -0.569052 127 198 27 -0.021782 -0.999763 0.000000
0.317281 0.308149 -0.035175 127 198 27 0.046603 -0.998593 0.025316
0.470449 0.296368 -0.769651 127 198 27 0.986835 -0.135027 0.089021
0.382794 0.491269 -0.030292 127 198 27 -0.000007 1.000000 0.000001
0.146071 0.426216 -0.413997 127 198 27 -0.000008 -1.000000 0.000064
0.480479 0.348375 -0.562476 127 198 27 0.984423 0.103065 -0.142442
0.243198 0.470506 -0.635407 127 198 27 -0.000006 1.000000 0.000000
0.399109 0.309478 -0.133387 127 198 27 0.046603 -0.998593 0.025316
0.452826 0.314979 -0.233065 127 198 27 -0.009368 -0.999956 0.000000
0.032598 0.304024 -0.314042 127 198 27 -0.021782 -0.999763 0.000000
0.321917 0.297721 -0.830454 127 198 27 -0.021782 -0.999763 0.000000
0.498974 0.325520 -0.103015 127 198 27 0.988944 0.006260 0.148160
0.243170 0.299636 -0.234522 127 198 27 0.046603 -0.998593 0.025316
0.385715 0.307748 -0.176968 127 198 27 0.046603 -0.998593 0.025316
0.217284 0.491268 -0.107472 127 198 27 -0.000007 1.000000 0.000000
0.446858 0.426218 -0.862938 127 198 27 0.000000 -1.000000 -0.000225
0.212452 0.304178 -0.840548 127 198 27 0.000578 -0.978203 0.207648
0.231957 0.491268 -0.203408 127 198 27 -0.000006 1.000000 0.000000
0.152100 0.470506 -0.201923 127 198 27 -0.000007 1.000000 0.000001
0.439588 0.470508 -0.671422 127 198 27 -0.000006 1.000000 0.000000
0.232084 0.294578 -0.431543 127 198 27 -0.310364 -0.935560 -0.168529
0.133881 0.327224 -0.951095 127 198 27 -0.332449 0.456245 -0.825420
0.472674 0.309057 -0.316224 127 198 27 -0.985401 -0.167924 0.028057
0.511525 0.426216 -0.155449 127 198 27 0.000006 -1.000000 0.000000
0.270041 0.426215 -0.136222 127 198 27 0.000007 -1.000000 -0.000001
0.376399 0.491269 -0.169558 127 198 27 -0.000006 1.000000 0.000000
0.007391 0.426213 -0.584199 127 198 27 0.000006 -1.000000 0.000000
0.323233 0.322078 -0.910683 127 198 27 0.088528 -0.071046 -0.993537
0.453454 0.298597 -0.662590 127 198 27 0.046603 -0.998593 0.025316
0.364839 0.426215 -0.027660 127 198 27 0.000006 -1.000000 0.000000
0.288743 0.426214 -0.908092 127 198 27 0.000007 -1.000000 -0.000003
0.348906 0.426216 -0.317267 127 198 27 0.000027 -1.000000 -0.000061
0.494296 0.327174 -0.796187 127 198 27 0.758741 -0.256098 0.598937
0.430242 0.315191 -0.206284 127 198 27 -0.009368 -0.999956 0.000000
0.077773 0.491267 -0.531404 127 198 27 -0.000007 1.000000 0.000000
0.019200 0.470505 -0.718221 127 198 27 -0.000006 1.000000 0.000000
0.021960 0.304256 -0.655354 127 198 27 -0.021782 -0.999763 0.000000
0.073780 0.303127 -0.749592 127 198 27 -0.021782 -0.999763 0.000000
0.186482 0.426217 -0.032465 127 198 27 0.000010 -1.000000 0.000000
0.019492 0.491267 -0.387001 127 198 27 -0.000006 1.000000 0.000000
0.482158 0.426216 -0.455982 127 198 27 0.000006 -1.000000 0.000000
0.087630 0.426213 -0.616433 127 198 27 0.000006 -1.000000 0.000000
0.338473 0.297360 -0.798483 127 198 27 -0.021782 -0.999763 0.000000
0.063387 0.491267 -0.811370 127 198 27 -0.000006 1.000000 0.000001
0.300931 0.426215 -0.024890 127 198 27 0.000006 -1.000000 0.000000
0.087249 0.470505 -0.290217 127 198 27 -0.000006 1.000000 0.000000
0.467094 0.321216 -0.439434 127 198 27 -0.985401 -0.167924 0.028057
0.054498 0.426215 -0.136362 127 198 27 0.000010 -1.000000 0.000000
0.308012 0.491269 -0.761833 127 198 27 -0.000006 1.000000 0.000000
0.465219 0.324837 -0.484315 127 198 27 -0.999443 -0.031565 0.010797
0.522148 0.426216 -0.136076 127 198 27 0.000006 -1.000000 0.000000
0.398506 0.491269 -0.353775 127 198 27 -0.000006 1.000000 0.000000
0.453695 0.426215 -0.847357 127 198 27 0.000008 -1.000000 0.000001
0.497279 0.327045 -0.450872 127 198 27 0.811279 0.061564 0.581409
0.482209 0.485975 -0.087353 127 198 27 0.676691 0.731770 0.081249
0.481854 0.426214 -0.084948 127 198 27 0.000000 1.000000 0.000000
0.221940 0.470506 -0.309342 127 198 27 -0.000006 1.000000 0.000000
0.473153 0.491270 -0.823755 127 198 27 -0.000006 1.000000 -0.000001
0.165985 0.426214 -0.667367 127 198 27 0.000006 -1.000000 0.000000
0.503294 0.413176 -0.215118 127 198 27 0.999562 0.000000 0.029586
0.131578 0.299417 -0.862748 127 198 27 0.000578 -0.978203 0.207648
0.482633 0.345374 -0.674481 127 198 27 0.916003 0.391098 0.089334
0.223929 0.321311 -0.932960 127 198 27 0.406591 -0.913610 0.000000
0.308608 0.470507 -0.556605 127 198 27 -0.000006 1.000000 0.000000
0.307207 0.304426 -0.163481 127 198 27 0.046603 -0.998593 0.025316
0.076052 0.470504 -0.938832 127 198 27 -0.000048 1.000000 -0.000318
0.313873 0.426215 -0.737432 127 198 27 0.000006 -1.000000 0.000000
0.070055 0.426214 -0.845929 127 198 27 0.000000 -1.000000 -0.000225
0.109669 0.426214 -0.586439 127 198 27 0.000006 -1.000000 0.000000
0.314435 0.297884 -0.693102 127 198 27 -0.021782 -0.999763 0.000000
0.237167 0.491269 -0.907569 127 198 27 -0.000010 1.000000 -0.000043
0.314382 0.470507 -0.511752 127 198 27 -0.000006 1.000000 0.000000
0.027799 0.491267 -0.207068 127 198 27 -0.000007 1.000000 0.000000
0.481256 0.328703 -0.731294 127 198 27 0.000000 -0.926425 0.376479
0.436584 0.426216 -0.277037 127 198 27 0.000027 -1.000000 -0.000061
0.374440 0.491269 -0.107925 127 198 27 -0.000006 1.000000 0.000000
0.158141 0.426214 -0.162477 127 198 27 0.000006 -1.000000 0.000000
0.303797 0.299204 -0.363188 127 198 27 0.046603 -0.998593 0.025316
0.374633 0.470507 -0.685489 127 198 27 -0.000006 1.000000 0.000000
0.426896 0.426215 -0.522950 127 198 27 0.000006 -1.000000 0.000000
0.459651 0.470508 -0.882704 127 198 27 -0.000006 1.000000 0.000000
0.497348 0.388346 -0.127476 127 198 27 0.995456 0.000000 0.095226
0.081710 0.491267 -0.884612 127 198 27 -0.000006 1.000000 0.000001
0.159441 0.470506 -0.096839 127 198 27 -0.000006 1.000000 0.000000
0.056329 0.426212 -0.786244 127 198 27 0.000008 -1.000000 0.000001
0.227471 0.491268 -0.399065 127 198 27 -0.000006 1.000000 0.000000
0.303249 0.491269 -0.199000 127 198 27 -0.000006 1.000000 0.000000
0.034066 0.491267 -0.309081 127 198 27 -0.000006 1.000000 0.000000
0.052162 0.303598 -0.490857 127 198 27 -0.021782 -0.999763 0.000000
0.478462 0.364860 -0.600435 127 198 27 0.999138 0.000000 -0.041509
0.230681 0.426214 -0.477520 127 198 27 0.000006 -1.000000 0.000000
0.095025 0.470506 -0.736599 127 198 27 -0.000006 1.000000 0.000000
0.528936 0.431498 -0.910924 127 198 27 0.968368 0.000003 -0.249528
0.493026 0.467740 -0.524383 127 198 27 0.000000 1.000000 0.000000
0.056170 0.294969 -0.074383 127 198 27 0.046603 -0.998593 0.025316
0.254434 0.491269 -0.620262 127 198 27 -0.000006 1.000000 0.000000
0.334489 0.306061 -0.149186 127 198 27 0.046603 -0.998593 0.025316
0.057182 0.470505 -0.584041 127 198 27 -0.000006 1.000000 0.000000
0.091269 0.443847 -0.983283 127 198 27 0.084342 0.328953 -0.940572
0.480571 0.337803 -0.563528 127 198 27 0.999969 0.007672 -0.001608
0.488030 0.469281 -0.519443 127 198 27 0.994972 0.000000 -0.100155
0.278949 0.426215 -0.138848 127 198 27 0.000007 -1.000000 -0.000001
0.132339 0.491268 -0.624527 127 198 27 -0.000006 1.000000 0.000000
0.132922 0.491268 -0.543197 127 198 27 -0.000006 1.000000 0.000000
0.480254 0.368043 -0.927955 127 198 27 0.997339 0.007581 0.072506
0.477627 0.486318 -0.034645 127 198 27 0.681642 0.730953 0.032745
0.401239 0.470507 -0.809519 127 198 27 -0.000006 1.000000 -0.000001
0.335299 0.470507 -0.100560 127 198 27 -0.000007 1.000000 0.000000
0.117730 0.426214 -0.614605 127 198 27 0.000006 -1.000000 0.000000
0.108560 0.302369 -0.512759 127 198 27 -0.021782 -0.999763 0.000000
0.293786 0.426214 -0.822807 127 198 27 0.000008 -1.000000 0.000002
0.477457 0.307989 -0.154607 127 198 27 -0.985401 -0.167924 0.028057
0.386487 0.491269 -0.046113 127 198 27 -0.000007 1.000000 0.000001
0.399653 0.470507 -0.291200 127 198 27 -0.000006 1.000000 0.000000
0.074122 0.470505 -0.079730 127 198 27 -0.000006 1.000000 0.000000
0.461330 0.426216 -0.485379 127 198 27 0.000006 -1.000000 0.000000
0.322260 0.426215 -0.511608 127 198 27 0.000006 -1.000000 0.000000
0.031804 0.426213 -0.489594 127 198 27 0.000006 -1.000000 0.000000
0.273027 0.296424 -0.416206 127 198 27 0.046603 -0.998593 0.025316
0.229687 0.426214 -0.270196 127 198 27 0.000006 -1.000000 0.000000
0.120813 0.470506 -0.774080 127 198 27 -0.000006 1.000000 0.000000
0.379255 0.491269 -0.684516 127 198 27 -0.000006 1.000000 0.000000
0.503735 0.379973 -0.242438 127 198 27 0.999906 0.000000 0.013713
0.033084 0.302911 -0.111320 127 198 27 -0.310364 -0.935560 -0.168529
0.156962 0.295673 -0.232162 127 198 27 0.046603 -0.998593 0.025316
0.261461 0.300830 -0.221121 127 198 27 0.046603 -0.998593 0.025316
0.468269 0.343079 -0.021636 127 198 27 0.999976 -0.000230 -0.006884
0.481690 0.470508 -0.388829 127 198 27 -0.000006 1.000000 0.000000
0.215026 0.491268 -0.575180 127 198 27 -0.000006 1.000000 0.000000
0.318740 0.328633 -0.937409 127 198 27 -0.768334 -0.364530 -0.526099
0.347984 0.426215 -0.795062 127 198 27 0.000008 -1.000000 0.000002
0.480209 0.360555 -0.926794 127 198 27 0.996119 0.005028 0.087876
0.078374 0.491267 -0.769445 127 198 27 -0.000006 1.000000 0.000000
0.467015 0.330833 -0.203405 127 198 27 0.999976 -0.000230 -0.006884
0.474146 0.301959 -0.478256 127 198 27 -0.991226 -0.058107 0.118722
0.432386 0.470508 -0.054363 127 198 27 -0.000007 1.000000 0.000000
0.167616 0.337098 -0.942816 127 198 27 0.217780 0.037765 -0.975267
