ply
format ascii 1.0
element vertex 722
property float x
property float y
property float z
property uchar red
property uchar green
property uchar blue
property float nx
property float ny
property float nz
end_header
-0.269722 0.916060 -0.567164 174 95 10 0.000000 -1.000000 0.000000
-0.317525 1.000000 -0.443493 174 95 10 0.000000 1.000000 0.000000
-0.288999 0.916060 -0.195381 174 95 10 0.000000 -1.000000 0.000000
-0.147713 1.000000 -0.562403 174 95 10 0.000000 1.000000 0.000000
-0.285892 0.916060 -0.348757 174 95 10 0.000000 -1.000000 0.000000
-0.048227 1.000000 -0.376537 174 95 10 0.000000 1.000000 0.000000
-0.592673 0.916060 -0.405300 174 95 10 0.000000 -1.000000 0.000000
-0.625893 0.918626 -0.671846 174 95 10 0.000000 1.000000 0.000000
-0.711418 0.916060 -0.130796 174 95 10 0.000000 -1.000000 0.000000
-0.439580 0.916060 -0.552471 174 95 10 0.000000 -1.000000 0.000000
-0.068961 1.000000 -0.622057 174 95 10 0.000000 1.000000 0.000000
-0.398247 0.916060 -0.333657 174 95 10 0.000000 -1.000000 0.000000
-0.699478 0.916060 -0.442277 174 95 10 0.000000 -1.000000 0.000000
-0.395364 0.916060 -0.414642 174 95 10 0.000000 -1.000000 0.000000
-0.725424 1.000000 -0.338883 174 95 10 0.000000 1.000000 0.000000
-0.662543 0.956994 -0.749971 174 95 10 0.010061 -0.486823 -0.873443
-0.529088 0.916060 -0.491174 174 95 10 0.000000 -1.000000 0.000000
-0.610486 0.917287 -0.621105 174 95 10 -0.011475 0.000000 0.999934
-0.475530 0.916060 -0.591451 174 95 10 0.000000 -1.000000 0.000000
-0.560433 0.941194 -0.739987 174 95 10 0.010058 -0.486877 -0.873413
-0.139415 0.916060 -0.273280 174 95 10 0.000000 -1.000000 0.000000
-0.441726 0.916060 -0.453099 174 95 10 0.000000 -1.000000 0.000000
-0.139387 1.000000 -0.436628 174 95 10 0.000000 1.000000 0.000000
-0.204055 0.916060 -0.370480 174 95 10 0.000000 -1.000000 0.000000
-0.683224 0.918626 -0.287916 174 95 10 0.000000 1.000000 0.000000
-0.003271 1.000000 -0.697343 174 95 10 0.000000 1.000000 0.000000
-0.092369 0.916060 -0.049679 174 95 10 0.000000 -1.000000 0.000000
-0.629858 1.000000 -0.532087 174 95 10 0.000000 1.000000 0.000000
-0.272288 0.916060 -0.528842 174 95 10 0.000000 -1.000000 0.000000
-0.681918 1.000000 -0.477555 174 95 10 0.000000 1.000000 0.000000
-0.566586 0.964856 -0.747978 174 95 10 0.011261 0.209742 -0.977692
-0.469017 0.916060 -0.278208 174 95 10 0.000000 -1.000000 0.000000
-0.314557 1.000000 -0.478011 174 95 10 0.000000 1.000000 0.000000
-0.362005 0.916060 -0.408966 174 95 10 0.000000 -1.000000 0.000000
-0.194798 0.916060 -0.619881 174 95 10 0.000000 -1.000000 0.000000
-0.410644 0.916060 -0.702829 174 95 10 0.000000 -1.000000 0.000000
-0.720520 0.918626 -0.179853 174 95 10 0.000000 1.000000 0.000000
-0.035646 0.918626 -0.663716 174 95 10 0.000000 1.000000 0.000000
-0.129550 1.000000 -0.230278 174 95 10 0.000000 1.000000 0.000000
-0.374274 0.916060 -0.628447 174 95 10 0.000000 -1.000000 0.000000
-0.722717 0.967581 -0.749192 174 95 10 0.011261 0.209742 -0.977692
-0.035652 1.000000 -0.314172 174 95 10 0.000000 1.000000 0.000000
-0.340074 1.000000 -0.001527 174 95 10 0.000000 1.000000 0.000000
-0.682860 0.916060 -0.475686 174 95 10 0.000000 -1.000000 0.000000
-0.607715 1.000000 -0.606122 174 95 10 0.000000 1.000000 0.000000
-0.125249 1.000000 -0.229380 174 95 10 0.000000 1.000000 0.000000
-0.614483 0.918626 -0.706926 174 95 10 0.000000 1.000000 0.000000
-0.110713 0.932666 -0.730054 174 95 10 0.010058 -0.486877 -0.873413
-0.682999 0.916060 -0.639715 174 95 10 0.000000 -1.000000 0.000000
-0.563962 1.000000 -0.306164 174 95 10 0.000000 1.000000 0.000000
-0.610550 1.000000 -0.490836 174 95 10 0.000000 1.000000 0.000000
-0.403900 0.916060 -0.628727 174 95 10 0.000000 -1.000000 0.000000
-0.351123 1.000000 -0.332583 174 95 10 0.000000 1.000000 0.000000
-0.130871 0.916060 -0.101995 174 95 10 0.000000 -1.000000 0.000000
-0.527873 0.916060 -0.368940 174 95 10 0.000000 -1.000000 0.000000
-0.608610 0.918626 -0.721280 174 95 10 0.000000 1.000000 0.000000
-0.031864 1.000000 -0.427055 174 95 10 0.000000 1.000000 0.000000
-0.722600 1.000000 -0.108284 174 95 10 0.000000 1.000000 0.000000
-0.525691 1.000000 -0.346555 174 95 10 0.000000 1.000000 0.000000
-0.440423 0.916060 -0.251322 174 95 10 0.000000 -1.000000 0.000000
-0.628392 1.000000 -0.267529 174 95 10 0.000000 1.000000 0.000000
-0.519106 0.916060 -0.403312 174 95 10 0.000000 -1.000000 0.000000
-0.205022 1.000000 -0.721915 174 95 10 0.000000 1.000000 0.000000
-0.733264 0.901805 -0.075608 174 95 10 -0.999934 0.000000 -0.011519
-0.608959 0.916060 -0.372025 174 95 10 0.000000 -1.000000 0.000000
-0.660063 0.916060 -0.318107 174 95 10 0.000000 -1.000000 0.000000
-0.467631 0.916060 -0.480502 174 95 10 0.000000 -1.000000 0.000000
-0.519523 0.916060 -0.393321 174 95 10 0.000000 -1.000000 0.000000
-0.580887 1.000000 -0.012559 174 95 10 0.000000 1.000000 0.000000
-0.260249 0.916060 -0.471563 174 95 10 0.000000 -1.000000 0.000000
-0.638101 0.911111 -0.640369 174 95 10 -0.999934 0.000000 -0.011508
-0.444534 1.000000 -0.597505 174 95 10 0.000000 1.000000 0.000000
-0.309068 0.916060 -0.578685 174 95 10 0.000000 -1.000000 0.000000
-0.550714 0.918626 -0.718953 174 95 10 0.000000 1.000000 0.000000
-0.671344 0.918626 -0.669630 174 95 10 0.000000 1.000000 0.000000
-0.081824 1.000000 -0.630624 174 95 10 0.000000 1.000000 0.000000
-0.104148 1.000000 -0.184950 174 95 10 0.000000 1.000000 0.000000
-0.002634 0.916060 -0.385408 174 95 10 0.000000 -1.000000 0.000000
-0.736726 0.957257 -0.499745 174 95 10 -0.873548 -0.486634 -0.010062
-0.512665 0.918626 -0.661676 174 95 10 0.000000 1.000000 0.000000
-0.447941 1.000000 -0.168161 174 95 10 0.000000 1.000000 0.000000
-0.681893 0.918626 -0.084173 174 95 10 0.000000 1.000000 0.000000
-0.574786 1.000000 -0.727211 174 95 10 0.000000 1.000000 0.000000
-0.475585 0.944131 -0.740647 174 95 10 0.010058 -0.486877 -0.873413
-0.117481 1.000000 -0.344069 174 95 10 0.000000 1.000000 0.000000
-0.067361 1.000000 -0.499033 174 95 10 0.000000 1.000000 0.000000
-0.069209 1.000000 -0.018880 174 95 10 0.000000 1.000000 0.000000
-0.650197 0.918626 -0.690254 174 95 10 0.000000 1.000000 0.000000
-0.007063 0.916060 -0.626456 174 95 10 0.000000 -1.000000 0.000000
-0.607951 0.916060 -0.540500 174 95 10 0.000000 -1.000000 0.000000
-0.642281 0.918626 -0.206750 174 95 10 0.000000 1.000000 0.000000
-0.645842 1.000000 -0.586064 174 95 10 0.000000 1.000000 0.000000
-0.534202 1.000000 -0.600567 174 95 10 0.000000 1.000000 0.000000
-0.103037 0.916060 -0.010015 174 95 10 0.000000 -1.000000 0.000000
-0.310093 0.916060 -0.021269 174 95 10 0.000000 -1.000000 0.000000
-0.382379 1.000000 -0.448215 174 95 10 0.000000 1.000000 0.000000
-0.067058 1.000000 -0.481467 174 95 10 0.000000 1.000000 0.000000
-0.118681 0.916060 -0.136295 174 95 10 0.000000 -1.000000 0.000000
-0.340822 0.916060 -0.659437 174 95 10 0.000000 -1.000000 0.000000
-0.637610 0.938582 -0.739420 174 95 10 0.010058 -0.486877 -0.873413
-0.468714 0.916060 -0.392503 174 95 10 0.000000 -1.000000 0.000000
-0.642470 0.916060 -0.448967 174 95 10 0.000000 -1.000000 0.000000
-0.068449 1.000000 -0.241262 174 95 10 0.000000 1.000000 0.000000
-0.055071 0.916060 -0.653126 174 95 10 0.000000 -1.000000 0.000000
-0.572137 0.918626 -0.644836 174 95 10 0.000000 1.000000 0.000000
-0.657567 0.918626 -0.204220 174 95 10 0.000000 1.000000 0.000000
-0.028068 0.918626 -0.671978 174 95 10 0.000000 1.000000 0.000000
-0.567226 1.000000 -0.681493 174 95 10 0.000000 1.000000 0.000000
-0.636056 0.918626 -0.651914 174 95 10 0.000000 1.000000 0.000000
-0.179865 1.000000 -0.039601 174 95 10 0.000000 1.000000 0.000000
-0.735937 0.972932 -0.328501 174 95 10 -0.977782 0.209320 -0.011259
-0.129351 0.916060 -0.714101 174 95 10 0.000000 -1.000000 0.000000
-0.717241 0.918626 -0.720305 174 95 10 0.000000 1.000000 0.000000
-0.001704 1.000000 -0.605440 174 95 10 0.000000 1.000000 0.000000
-0.319268 0.916060 -0.537491 174 95 10 0.000000 -1.000000 0.000000
-0.451890 1.000000 -0.165332 174 95 10 0.000000 1.000000 0.000000
-0.405576 0.916060 -0.622779 174 95 10 0.000000 -1.000000 0.000000
-0.056789 0.935028 -0.730750 174 95 10 0.010058 -0.486877 -0.873413
-0.404810 1.000000 -0.516173 174 95 10 0.000000 1.000000 0.000000
-0.220415 0.916060 -0.606711 174 95 10 0.000000 -1.000000 0.000000
-0.440118 0.918626 -0.631335 174 95 10 0.000000 1.000000 0.000000
-0.476084 0.916060 -0.241277 174 95 10 0.000000 -1.000000 0.000000
-0.557341 1.000000 -0.383483 174 95 10 0.000000 1.000000 0.000000
-0.738784 0.969741 -0.140624 174 95 10 -0.977759 0.209431 -0.011262
-0.435064 1.000000 -0.416626 174 95 10 0.000000 1.000000 0.000000
-0.254256 1.000000 -0.393318 174 95 10 0.000000 1.000000 0.000000
-0.502134 0.916060 -0.247662 174 95 10 0.000000 -1.000000 0.000000
-0.179293 1.000000 -0.538942 174 95 10 0.000000 1.000000 0.000000
-0.634142 1.000000 -0.697147 174 95 10 0.000000 1.000000 0.000000
-0.566177 0.916060 -0.204702 174 95 10 0.000000 -1.000000 0.000000
-0.527425 0.916060 -0.061351 174 95 10 0.000000 -1.000000 0.000000
-0.224855 1.000000 -0.322417 174 95 10 0.000000 1.000000 0.000000
-0.485661 0.916060 -0.297809 174 95 10 0.000000 -1.000000 0.000000
-0.598934 0.916060 -0.712256 174 95 10 0.000000 -1.000000 0.000000
-0.187234 1.000000 -0.052638 174 95 10 0.000000 1.000000 0.000000
-0.567891 1.000000 -0.440477 174 95 10 0.000000 1.000000 0.000000
-0.374396 0.916060 -0.537210 174 95 10 0.000000 -1.000000 0.000000
-0.697995 1.000000 -0.572035 174 95 10 0.000000 1.000000 0.000000
-0.245747 0.916060 -0.349963 174 95 10 0.000000 -1.000000 0.000000
-0.151484 1.000000 -0.426524 174 95 10 0.000000 1.000000 0.000000
-0.661732 1.000000 -0.564469 174 95 10 0.000000 1.000000 0.000000
-0.175942 1.000000 -0.562493 174 95 10 0.000000 1.000000 0.000000
-0.134797 0.981435 -0.739448 174 95 10 0.011261 0.209742 -0.977692
-0.010474 1.000000 -0.010749 174 95 10 0.000000 1.000000 0.000000
-0.381511 1.000000 -0.354448 174 95 10 0.000000 1.000000 0.000000
-0.501323 1.000000 -0.122178 174 95 10 0.000000 1.000000 0.000000
-0.572469 0.916060 -0.267237 174 95 10 0.000000 -1.000000 0.000000
-0.210970 0.916060 -0.144338 174 95 10 0.000000 -1.000000 0.000000
-0.704986 0.918626 -0.399137 174 95 10 0.000000 1.000000 0.000000
-0.411862 0.918626 -0.697478 174 95 10 0.000000 1.000000 0.000000
-0.510930 1.000000 -0.587835 174 95 10 0.000000 1.000000 0.000000
-0.697344 0.992574 -0.743538 174 95 10 0.011261 0.209742 -0.977692
-0.674624 0.916060 -0.651868 174 95 10 0.000000 -1.000000 0.000000
-0.702867 0.916060 -0.163650 174 95 10 0.000000 -1.000000 0.000000
-0.289214 1.000000 -0.683704 174 95 10 0.000000 1.000000 0.000000
-0.504280 0.916060 -0.690998 174 95 10 0.000000 -1.000000 0.000000
-0.033681 1.000000 -0.067699 174 95 10 0.000000 1.000000 0.000000
-0.095650 0.936016 -0.731748 174 95 10 0.010058 -0.486877 -0.873413
-0.401701 1.000000 -0.178218 174 95 10 0.000000 1.000000 0.000000
-0.207112 0.916060 -0.204140 174 95 10 0.000000 -1.000000 0.000000
-0.499805 1.000000 -0.596469 174 95 10 0.000000 1.000000 0.000000
-0.084158 1.000000 -0.190528 174 95 10 0.000000 1.000000 0.000000
-0.179245 0.916060 -0.645417 174 95 10 0.000000 -1.000000 0.000000
-0.528148 1.000000 -0.540515 174 95 10 0.000000 1.000000 0.000000
-0.508451 0.918626 -0.639207 174 95 10 0.000000 1.000000 0.000000
-0.719668 1.000000 -0.663924 174 95 10 0.000000 1.000000 0.000000
-0.617846 0.918626 -0.070911 174 95 10 0.000000 1.000000 0.000000
-0.204703 0.916060 -0.203135 174 95 10 0.000000 -1.000000 0.000000
-0.387844 1.000000 -0.478508 174 95 10 0.000000 1.000000 0.000000
-0.495257 0.955288 -0.747093 174 95 10 0.010061 -0.486823 -0.873443
-0.730844 0.908260 -0.285712 174 95 10 -0.999934 0.000000 -0.011519
-0.514258 1.000000 -0.325867 174 95 10 0.000000 1.000000 0.000000
-0.302893 1.000000 -0.117696 174 95 10 0.000000 1.000000 0.000000
-0.525394 1.000000 -0.188762 174 95 10 0.000000 1.000000 0.000000
-0.213194 1.000000 -0.312412 174 95 10 0.000000 1.000000 0.000000
-0.176884 1.000000 -0.073199 174 95 10 0.000000 1.000000 0.000000
-0.680573 1.000000 -0.458092 174 95 10 0.000000 1.000000 0.000000
-0.151010 1.000000 -0.707528 174 95 10 0.000000 1.000000 0.000000
-0.726173 0.933515 -0.267662 174 95 10 -0.873548 -0.486634 -0.010062
-0.382960 1.000000 -0.223867 174 95 10 0.000000 1.000000 0.000000
-0.268318 1.000000 -0.269545 174 95 10 0.000000 1.000000 0.000000
-0.199233 1.000000 -0.336221 174 95 10 0.000000 1.000000 0.000000
-0.193888 1.000000 -0.631888 174 95 10 0.000000 1.000000 0.000000
-0.284248 0.918626 -0.655532 174 95 10 0.000000 1.000000 0.000000
-0.502767 0.916060 -0.377210 174 95 10 0.000000 -1.000000 0.000000
-0.013972 0.916060 -0.118771 174 95 10 0.000000 -1.000000 0.000000
-0.507812 0.916060 -0.083026 174 95 10 0.000000 -1.000000 0.000000
-0.041751 1.000000 -0.184308 174 95 10 0.000000 1.000000 0.000000
-0.700340 0.918626 -0.600283 174 95 10 0.000000 1.000000 0.000000
-0.683970 1.000000 -0.478840 174 95 10 0.000000 1.000000 0.000000
-0.633035 1.000000 -0.018695 174 95 10 0.000000 1.000000 0.000000
-0.362535 0.998970 -0.738311 174 95 10 0.011258 0.209632 -0.977716
-0.212147 1.000000 -0.060827 174 95 10 0.000000 1.000000 0.000000
-0.436015 1.000000 -0.727284 174 95 10 0.000000 1.000000 0.000000
-0.555071 0.918626 -0.666882 174 95 10 0.000000 1.000000 0.000000
-0.343989 1.000000 -0.299095 174 95 10 0.000000 1.000000 0.000000
-0.419077 1.000000 -0.542483 174 95 10 0.000000 1.000000 0.000000
-0.507170 1.000000 -0.112022 174 95 10 0.000000 1.000000 0.000000
-0.509757 1.000000 -0.536674 174 95 10 0.000000 1.000000 0.000000
-0.042199 1.000000 -0.717799 174 95 10 0.000000 1.000000 0.000000
-0.734828 0.953406 -0.478276 174 95 10 -0.873548 -0.486634 -0.010062
-0.595634 1.000000 -0.365434 174 95 10 0.000000 1.000000 0.000000
-0.615820 0.916060 -0.104616 174 95 10 0.000000 -1.000000 0.000000
-0.570739 0.916060 -0.161800 174 95 10 0.000000 -1.000000 0.000000
-0.704779 0.918626 -0.041403 174 95 10 0.000000 1.000000 0.000000
-0.076082 1.000000 -0.507568 174 95 10 0.000000 1.000000 0.000000
-0.607690 1.000000 -0.227610 174 95 10 0.000000 1.000000 0.000000
-0.346665 0.916060 -0.310014 174 95 10 0.000000 -1.000000 0.000000
-0.023072 0.916060 -0.686097 174 95 10 0.000000 -1.000000 0.000000
-0.555302 0.916060 -0.671620 174 95 10 0.000000 -1.000000 0.000000
-0.729341 0.914474 -0.416149 174 95 10 -0.999934 0.000000 -0.011519
-0.658328 0.918626 -0.333028 174 95 10 0.000000 1.000000 0.000000
-0.259327 0.996205 -0.737715 174 95 10 0.011258 0.209632 -0.977716
-0.230633 1.000000 -0.015954 174 95 10 0.000000 1.000000 0.000000
-0.068308 0.916060 -0.551361 174 95 10 0.000000 -1.000000 0.000000
-0.681986 0.918626 -0.608292 174 95 10 0.000000 1.000000 0.000000
-0.213395 1.000000 -0.278795 174 95 10 0.000000 1.000000 0.000000
-0.463242 0.920881 -0.727545 174 95 10 0.010058 -0.486877 -0.873413
-0.435597 0.916060 -0.202584 174 95 10 0.000000 -1.000000 0.000000
-0.119489 0.916060 -0.096635 174 95 10 0.000000 -1.000000 0.000000
-0.425041 1.000000 -0.122655 174 95 10 0.000000 1.000000 0.000000
-0.412815 0.918626 -0.634903 174 95 10 0.000000 1.000000 0.000000
-0.616107 0.918626 -0.473425 174 95 10 0.000000 1.000000 0.000000
-0.366355 1.000000 -0.591727 174 95 10 0.000000 1.000000 0.000000
-0.521006 1.000000 -0.173437 174 95 10 0.000000 1.000000 0.000000
-0.703857 0.918626 -0.650673 174 95 10 0.000000 1.000000 0.000000
-0.257618 1.000000 -0.290693 174 95 10 0.000000 1.000000 0.000000
-0.711117 1.000000 -0.388394 174 95 10 0.000000 1.000000 0.000000
-0.458478 1.000000 -0.719324 174 95 10 0.000000 1.000000 0.000000
-0.511070 0.916060 -0.375091 174 95 10 0.000000 -1.000000 0.000000
-0.129676 0.916060 -0.291630 174 95 10 0.000000 -1.000000 0.000000
-0.543394 0.916060 -0.693823 174 95 10 0.000000 -1.000000 0.000000
-0.597191 0.916060 -0.559401 174 95 10 0.000000 -1.000000 0.000000
-0.303100 0.916060 -0.369051 174 95 10 0.000000 -1.000000 0.000000
-0.135365 0.918626 -0.705659 174 95 10 0.000000 1.000000 0.000000
-0.727847 0.942726 -0.567805 174 95 10 -0.873548 -0.486634 -0.010062
-0.583962 1.000000 -0.397689 174 95 10 0.000000 1.000000 0.000000
-0.247067 0.916060 -0.120882 174 95 10 0.000000 -1.000000 0.000000
-0.726216 0.999283 -0.682850 174 95 10 -0.977782 0.209320 -0.011259
-0.727296 0.998692 -0.599987 174 95 10 -0.977782 0.209320 -0.011259
-0.615048 1.000000 -0.709945 174 95 10 0.000000 1.000000 0.000000
-0.472809 0.916060 -0.252544 174 95 10 0.000000 -1.000000 0.000000
-0.623310 0.918626 -0.394065 174 95 10 0.000000 1.000000 0.000000
-0.560211 1.000000 -0.616377 174 95 10 0.000000 1.000000 0.000000
-0.039610 0.980661 -0.738518 174 95 10 0.011258 0.209632 -0.977716
-0.316431 0.916060 -0.450313 174 95 10 0.000000 -1.000000 0.000000
-0.040313 0.916060 -0.495093 174 95 10 0.000000 -1.000000 0.000000
-0.199731 0.916060 -0.362002 174 95 10 0.000000 -1.000000 0.000000
-0.376848 0.986077 -0.741240 174 95 10 0.011261 0.209742 -0.977692
-0.301196 0.916060 -0.365200 174 95 10 0.000000 -1.000000 0.000000
-0.716585 0.922217 -0.553621 174 95 10 -0.873548 -0.486634 -0.010062
-0.097378 1.000000 -0.363340 174 95 10 0.000000 1.000000 0.000000
-0.054978 0.954459 -0.741559 174 95 10 0.010061 -0.486823 -0.873443
-0.729832 0.937173 -0.126894 174 95 10 -0.873548 -0.486634 -0.010062
-0.393523 0.916060 -0.516885 174 95 10 0.000000 -1.000000 0.000000
-0.656736 0.915574 -0.741556 174 95 10 0.011475 0.000000 -0.999934
-0.663712 0.918626 -0.678413 174 95 10 0.000000 1.000000 0.000000
-0.283042 1.000000 -0.423113 174 95 10 0.000000 1.000000 0.000000
-0.728861 0.941824 -0.436189 174 95 10 -0.873548 -0.486634 -0.010062
-0.242620 0.916060 -0.574088 174 95 10 0.000000 -1.000000 0.000000
-0.515299 1.000000 -0.248861 174 95 10 0.000000 1.000000 0.000000
-0.603226 0.918626 -0.717313 174 95 10 0.000000 1.000000 0.000000
-0.604655 0.973089 -0.746651 174 95 10 0.011261 0.209742 -0.977692
-0.730647 0.913324 -0.302810 174 95 10 -0.999934 0.000000 -0.011519
-0.014636 0.916060 -0.219368 174 95 10 0.000000 -1.000000 0.000000
-0.272576 0.916060 -0.130735 174 95 10 0.000000 -1.000000 0.000000
-0.507023 0.916060 -0.282020 174 95 10 0.000000 -1.000000 0.000000
-0.082682 1.000000 -0.558558 174 95 10 0.000000 1.000000 0.000000
-0.523488 0.918914 -0.727142 174 95 10 0.010058 -0.486877 -0.873413
-0.080515 1.000000 -0.629020 174 95 10 0.000000 1.000000 0.000000
-0.602039 0.916060 -0.359032 174 95 10 0.000000 -1.000000 0.000000
-0.223330 1.000000 -0.363753 174 95 10 0.000000 1.000000 0.000000
-0.679450 0.918626 -0.165714 174 95 10 0.000000 1.000000 0.000000
-0.252841 0.916060 -0.065702 174 95 10 0.000000 -1.000000 0.000000
-0.347588 0.950184 -0.742547 174 95 10 0.010061 -0.486823 -0.873443
-0.711123 1.000000 -0.384929 174 95 10 0.000000 1.000000 0.000000
-0.698173 0.918626 -0.558975 174 95 10 0.000000 1.000000 0.000000
-0.387697 0.916060 -0.052840 174 95 10 0.000000 -1.000000 0.000000
-0.433045 0.916060 -0.700903 174 95 10 0.000000 -1.000000 0.000000
-0.203842 0.916060 -0.187535 174 95 10 0.000000 -1.000000 0.000000
-0.455420 0.916060 -0.574112 174 95 10 0.000000 -1.000000 0.000000
-0.420158 0.916060 -0.692377 174 95 10 0.000000 -1.000000 0.000000
-0.541045 0.916060 -0.078816 174 95 10 0.000000 -1.000000 0.000000
-0.682582 1.000000 -0.627697 174 95 10 0.000000 1.000000 0.000000
-0.671992 0.918626 -0.661185 174 95 10 0.000000 1.000000 0.000000
-0.097874 0.916060 -0.022104 174 95 10 0.000000 -1.000000 0.000000
-0.647209 1.000000 -0.218188 174 95 10 0.000000 1.000000 0.000000
-0.279579 0.918626 -0.694829 174 95 10 0.000000 1.000000 0.000000
-0.171014 1.000000 -0.720921 174 95 10 0.000000 1.000000 0.000000
-0.060982 0.916060 -0.157009 174 95 10 0.000000 -1.000000 0.000000
-0.472944 1.000000 -0.007047 174 95 10 0.000000 1.000000 0.000000
-0.516147 0.916060 -0.192181 174 95 10 0.000000 -1.000000 0.000000
-0.242241 1.000000 -0.678830 174 95 10 0.000000 1.000000 0.000000
-0.035375 0.916060 -0.183662 174 95 10 0.000000 -1.000000 0.000000
-0.721045 0.924158 -0.260285 174 95 10 -0.873519 -0.486687 -0.010059
-0.550955 0.916060 -0.157721 174 95 10 0.000000 -1.000000 0.000000
-0.349935 1.000000 -0.303714 174 95 10 0.000000 1.000000 0.000000
-0.062606 0.916060 -0.454961 174 95 10 0.000000 -1.000000 0.000000
-0.380759 1.000000 -0.446084 174 95 10 0.000000 1.000000 0.000000
-0.120029 1.000000 -0.512595 174 95 10 0.000000 1.000000 0.000000
-0.058405 0.916060 -0.353000 174 95 10 0.000000 -1.000000 0.000000
-0.165109 1.000000 -0.095565 174 95 10 0.000000 1.000000 0.000000
-0.664243 0.916060 -0.380649 174 95 10 0.000000 -1.000000 0.000000
-0.028231 1.000000 -0.108965 174 95 10 0.000000 1.000000 0.000000
-0.291203 0.916060 -0.478748 174 95 10 0.000000 -1.000000 0.000000
-0.738316 0.965947 -0.251862 174 95 10 -0.977759 0.209431 -0.011262
-0.341704 1.000000 -0.240004 174 95 10 0.000000 1.000000 0.000000
-0.260940 1.000000 -0.347050 174 95 10 0.000000 1.000000 0.000000
-0.179319 1.000000 -0.115632 174 95 10 0.000000 1.000000 0.000000
-0.706210 0.918626 -0.091102 174 95 10 0.000000 1.000000 0.000000
-0.189543 0.916060 -0.352733 174 95 10 0.000000 -1.000000 0.000000
-0.195281 0.916060 -0.461772 174 95 10 0.000000 -1.000000 0.000000
-0.407888 1.000000 -0.554018 174 95 10 0.000000 1.000000 0.000000
-0.089096 0.916060 -0.010587 174 95 10 0.000000 -1.000000 0.000000
-0.608307 0.916060 -0.195761 174 95 10 0.000000 -1.000000 0.000000
-0.619026 0.918626 -0.569193 174 95 10 0.000000 1.000000 0.000000
-0.230125 1.000000 -0.631198 174 95 10 0.000000 1.000000 0.000000
-0.407494 1.000000 -0.200103 174 95 10 0.000000 1.000000 0.000000
-0.571623 1.000000 -0.216272 174 95 10 0.000000 1.000000 0.000000
-0.728901 0.935771 -0.139950 174 95 10 -0.873548 -0.486634 -0.010062
-0.312984 0.916060 -0.718639 174 95 10 0.000000 -1.000000 0.000000
-0.714223 0.916060 -0.390702 174 95 10 0.000000 -1.000000 0.000000
-0.156215 1.000000 -0.145614 174 95 10 0.000000 1.000000 0.000000
-0.639470 1.000000 -0.507227 174 95 10 0.000000 1.000000 0.000000
-0.645372 0.918626 -0.637566 174 95 10 0.000000 1.000000 0.000000
-0.573924 0.916060 -0.311577 174 95 10 0.000000 -1.000000 0.000000
-0.637665 0.918626 -0.400268 174 95 10 0.000000 1.000000 0.000000
-0.209045 0.925830 -0.727376 174 95 10 0.010058 -0.486877 -0.873413
-0.418527 1.000000 -0.214370 174 95 10 0.000000 1.000000 0.000000
-0.722612 0.934104 -0.605281 174 95 10 -0.873548 -0.486634 -0.010062
-0.711594 0.918626 -0.645733 174 95 10 0.000000 1.000000 0.000000
-0.511365 0.916060 -0.547816 174 95 10 0.000000 -1.000000 0.000000
-0.501897 0.916060 -0.076485 174 95 10 0.000000 -1.000000 0.000000
-0.002853 0.916060 -0.444930 174 95 10 0.000000 -1.000000 0.000000
-0.474196 1.000000 -0.010015 174 95 10 0.000000 1.000000 0.000000
-0.595879 1.000000 -0.684363 174 95 10 0.000000 1.000000 0.000000
-0.588887 0.918626 -0.703371 174 95 10 0.000000 1.000000 0.000000
-0.039462 1.000000 -0.260947 174 95 10 0.000000 1.000000 0.000000
-0.605967 0.915242 -0.734256 174 95 10 0.999934 0.000000 0.011509
-0.278001 0.918626 -0.619310 174 95 10 0.000000 1.000000 0.000000
-0.352161 0.918626 -0.721785 174 95 10 0.000000 1.000000 0.000000
-0.325735 0.916060 -0.015496 174 95 10 0.000000 -1.000000 0.000000
-0.650120 0.918626 -0.334071 174 95 10 0.000000 1.000000 0.000000
-0.571108 0.916060 -0.278258 174 95 10 0.000000 -1.000000 0.000000
-0.444526 0.916060 -0.706953 174 95 10 0.000000 -1.000000 0.000000
-0.369789 0.916060 -0.163470 174 95 10 0.000000 -1.000000 0.000000
-0.466312 0.916060 -0.322305 174 95 10 0.000000 -1.000000 0.000000
-0.140497 1.000000 -0.663038 174 95 10 0.000000 1.000000 0.000000
-0.517513 1.000000 -0.367869 174 95 10 0.000000 1.000000 0.000000
-0.389743 1.000000 -0.199774 174 95 10 0.000000 1.000000 0.000000
-0.107841 1.000000 -0.414500 174 95 10 0.000000 1.000000 0.000000
-0.337137 1.000000 -0.212670 174 95 10 0.000000 1.000000 0.000000
-0.515679 0.916060 -0.628922 174 95 10 0.000000 -1.000000 0.000000
-0.189690 1.000000 -0.052627 174 95 10 0.000000 1.000000 0.000000
-0.349548 0.916060 -0.142834 174 95 10 0.000000 -1.000000 0.000000
-0.310305 0.916060 -0.645958 174 95 10 0.000000 -1.000000 0.000000
-0.393778 0.916060 -0.628056 174 95 10 0.000000 -1.000000 0.000000
-0.480862 0.916060 -0.012282 174 95 10 0.000000 -1.000000 0.000000
-0.683094 0.918626 -0.675550 174 95 10 0.000000 1.000000 0.000000
-0.143867 0.971539 -0.741676 174 95 10 0.011261 0.209742 -0.977692
-0.647236 0.918626 -0.668810 174 95 10 0.000000 1.000000 0.000000
-0.002938 1.000000 -0.239384 174 95 10 0.000000 1.000000 0.000000
-0.526934 0.916060 -0.006128 174 95 10 0.000000 -1.000000 0.000000
-0.373574 1.000000 -0.124297 174 95 10 0.000000 1.000000 0.000000
-0.179179 0.916060 -0.358719 174 95 10 0.000000 -1.000000 0.000000
-0.082446 1.000000 -0.490952 174 95 10 0.000000 1.000000 0.000000
-0.197883 0.918626 -0.663012 174 95 10 0.000000 1.000000 0.000000
-0.657954 0.916060 -0.327081 174 95 10 0.000000 -1.000000 0.000000
-0.643325 0.918626 -0.639149 174 95 10 0.000000 1.000000 0.000000
-0.574218 1.000000 -0.705909 174 95 10 0.000000 1.000000 0.000000
-0.580330 0.916060 -0.254763 174 95 10 0.000000 -1.000000 0.000000
-0.054966 0.935676 -0.731090 174 95 10 0.010058 -0.486877 -0.873413
-0.622369 0.918626 -0.608176 174 95 10 0.000000 1.000000 0.000000
-0.395482 1.000000 0.686832 211 3 113 0.000000 1.000000 0.000000
-0.625434 1.000000 0.378917 211 3 113 0.000000 1.000000 0.000000
-0.733478 0.935346 0.278046 211 3 113 -0.873519 -0.486687 -0.010059
-0.583143 0.916060 0.163510 211 3 113 0.000000 -1.000000 0.000000
-0.664150 0.918626 0.620286 211 3 113 0.000000 1.000000 0.000000
-0.009953 1.000000 0.554716 211 3 113 0.000000 1.000000 0.000000
-0.196572 0.916060 0.543317 211 3 113 0.000000 -1.000000 0.000000
-0.685923 1.000000 0.515521 211 3 113 0.000000 1.000000 0.000000
-0.161430 1.000000 0.135085 211 3 113 0.000000 1.000000 0.000000
-0.426533 1.000000 0.674141 211 3 113 0.000000 1.000000 0.000000
-0.488834 0.916060 0.287686 211 3 113 0.000000 -1.000000 0.000000
-0.144725 1.000000 0.057247 211 3 113 0.000000 1.000000 0.000000
-0.417562 1.000000 0.618697 211 3 113 0.000000 1.000000 0.000000
-0.722203 1.000000 0.313393 211 3 113 0.000000 1.000000 0.000000
-0.695006 0.918626 0.347725 211 3 113 0.000000 1.000000 0.000000
-0.256191 0.916060 0.130190 211 3 113 0.000000 -1.000000 0.000000
-0.740473 0.992563 0.430389 211 3 113 -0.977782 0.209320 -0.011259
-0.224309 0.981190 0.735373 211 3 113 -0.011259 0.209319 0.977783
-0.158392 1.000000 0.118476 211 3 113 0.000000 1.000000 0.000000
-0.255323 1.000000 0.522143 211 3 113 0.000000 1.000000 0.000000
-0.113449 0.965653 0.739977 211 3 113 -0.011262 0.209426 0.977760
-0.018725 0.916060 0.127713 211 3 113 0.000000 -1.000000 0.000000
-0.702842 1.000000 0.040494 211 3 113 0.000000 1.000000 0.000000
-0.624254 0.916060 0.108501 211 3 113 0.000000 -1.000000 0.000000
-0.034516 0.916060 0.230931 211 3 113 0.000000 -1.000000 0.000000
-0.729264 1.000000 0.274182 211 3 113 0.000000 1.000000 0.000000
-0.296055 1.000000 0.730355 211 3 113 0.000000 1.000000 0.000000
-0.026497 0.916060 0.621644 211 3 113 0.000000 -1.000000 0.000000
-0.617576 0.916060 0.036826 211 3 113 0.000000 -1.000000 0.000000
-0.084037 0.918626 0.729238 211 3 113 0.000000 1.000000 0.000000
-0.152176 1.000000 0.206848 211 3 113 0.000000 1.000000 0.000000
-0.745760 0.965551 0.387096 211 3 113 -0.977759 0.209431 -0.011262
-0.413164 0.918626 0.632943 211 3 113 0.000000 1.000000 0.000000
-0.367476 0.916060 0.079577 211 3 113 0.000000 -1.000000 0.000000
-0.451298 0.916060 0.248200 211 3 113 0.000000 -1.000000 0.000000
-0.335151 0.916060 0.514521 211 3 113 0.000000 -1.000000 0.000000
-0.100039 1.000000 0.235012 211 3 113 0.000000 1.000000 0.000000
-0.607880 1.000000 0.678622 211 3 113 0.000000 1.000000 0.000000
-0.445963 1.000000 0.025740 211 3 113 0.000000 1.000000 0.000000
-0.627720 0.916060 0.569629 211 3 113 0.000000 -1.000000 0.000000
-0.715588 0.916060 0.373604 211 3 113 0.000000 -1.000000 0.000000
-0.422569 0.916060 0.102214 211 3 113 0.000000 -1.000000 0.000000
-0.643684 1.000000 0.607225 211 3 113 0.000000 1.000000 0.000000
-0.395657 0.917554 0.728177 211 3 113 -0.011519 0.000000 0.999934
-0.071970 1.000000 0.311085 211 3 113 0.000000 1.000000 0.000000
-0.479524 0.918626 0.610261 211 3 113 0.000000 1.000000 0.000000
-0.504289 0.946359 0.730606 211 3 113 -0.010062 -0.486632 0.873549
-0.447099 0.916060 0.711335 211 3 113 0.000000 -1.000000 0.000000
-0.637564 0.914256 0.725391 211 3 113 -0.011519 0.000000 0.999934
-0.622632 0.866801 0.616935 211 3 113 0.999934 0.000000 0.011508
-0.701874 0.918626 0.670816 211 3 113 0.000000 1.000000 0.000000
-0.295195 1.000000 0.208475 211 3 113 0.000000 1.000000 0.000000
-0.632910 0.918626 0.691607 211 3 113 0.000000 1.000000 0.000000
-0.326122 0.916060 0.424739 211 3 113 0.000000 -1.000000 0.000000
-0.736990 0.994528 0.164411 211 3 113 -0.977782 0.209320 -0.011259
-0.131656 1.000000 0.102428 211 3 113 0.000000 1.000000 0.000000
-0.650914 0.916060 0.346690 211 3 113 0.000000 -1.000000 0.000000
-0.011373 1.000000 0.519735 211 3 113 0.000000 1.000000 0.000000
-0.622772 0.888518 0.629082 211 3 113 0.999934 0.000000 0.011508
-0.424327 0.988613 0.731481 211 3 113 -0.011259 0.209319 0.977783
-0.160007 0.925488 0.722945 211 3 113 -0.010059 -0.486686 0.873519
-0.365222 0.918626 0.706430 211 3 113 0.000000 1.000000 0.000000
-0.653069 1.000000 0.137050 211 3 113 0.000000 1.000000 0.000000
-0.607383 0.916060 0.425228 211 3 113 0.000000 -1.000000 0.000000
-0.729262 0.927067 0.312580 211 3 113 -0.873519 -0.486687 -0.010059
-0.059855 0.916060 0.638517 211 3 113 0.000000 -1.000000 0.000000
-0.180127 0.916060 0.066513 211 3 113 0.000000 -1.000000 0.000000
-0.168967 1.000000 0.464731 211 3 113 0.000000 1.000000 0.000000
-0.085516 1.000000 0.675998 211 3 113 0.000000 1.000000 0.000000
-0.364026 0.916060 0.357046 211 3 113 0.000000 -1.000000 0.000000
-0.333102 1.000000 0.419083 211 3 113 0.000000 1.000000 0.000000
-0.452394 1.000000 0.023854 211 3 113 0.000000 1.000000 0.000000
-0.123544 1.000000 0.295480 211 3 113 0.000000 1.000000 0.000000
-0.173289 0.918626 0.640637 211 3 113 0.000000 1.000000 0.000000
-0.610185 0.844878 0.605786 211 3 113 0.011508 0.000000 -0.999934
-0.502289 0.917415 0.714505 211 3 113 -0.010059 -0.486686 0.873519
-0.061635 0.916060 0.661633 211 3 113 0.000000 -1.000000 0.000000
-0.269718 1.000000 0.110604 211 3 113 0.000000 1.000000 0.000000
-0.380156 0.916060 0.571635 211 3 113 0.000000 -1.000000 0.000000
-0.125858 1.000000 0.101769 211 3 113 0.000000 1.000000 0.000000
-0.423805 1.000000 0.037013 211 3 113 0.000000 1.000000 0.000000
-0.030877 0.948131 0.737046 211 3 113 -0.010062 -0.486632 0.873549
-0.732774 0.991578 0.727294 211 3 113 -0.011259 0.209319 0.977783
-0.076579 0.916060 0.200182 211 3 113 0.000000 -1.000000 0.000000
-0.281715 0.918626 0.705594 211 3 113 0.000000 1.000000 0.000000
-0.266556 0.915904 0.609740 211 3 113 0.011508 0.000000 -0.999934
-0.742978 0.995972 0.711243 211 3 113 -0.977759 0.209431 -0.011262
-0.346771 1.000000 0.526740 211 3 113 0.000000 1.000000 0.000000
-0.401758 0.986220 0.732253 211 3 113 -0.011259 0.209319 0.977783
-0.476423 0.916060 0.525567 211 3 113 0.000000 -1.000000 0.000000
-0.630611 0.916060 0.588148 211 3 113 0.000000 -1.000000 0.000000
-0.148866 1.000000 0.440143 211 3 113 0.000000 1.000000 0.000000
-0.591453 0.838145 0.606001 211 3 113 0.011508 0.000000 -0.999934
-0.246640 1.000000 0.671431 211 3 113 0.000000 1.000000 0.000000
-0.388874 0.916060 0.388785 211 3 113 0.000000 -1.000000 0.000000
-0.637154 0.918626 0.640345 211 3 113 0.000000 1.000000 0.000000
-0.655294 0.916060 0.363170 211 3 113 0.000000 -1.000000 0.000000
-0.044752 1.000000 0.403470 211 3 113 0.000000 1.000000 0.000000
-0.018023 0.916060 0.037136 211 3 113 0.000000 -1.000000 0.000000
-0.444701 1.000000 0.309046 211 3 113 0.000000 1.000000 0.000000
-0.260222 0.916060 0.139188 211 3 113 0.000000 -1.000000 0.000000
-0.633938 0.918626 0.520251 211 3 113 0.000000 1.000000 0.000000
-0.439359 0.916060 0.293940 211 3 113 0.000000 -1.000000 0.000000
-0.099200 0.930859 0.726637 211 3 113 -0.010059 -0.486686 0.873519
-0.302459 0.950323 0.735139 211 3 113 -0.010062 -0.486632 0.873549
-0.121110 1.000000 0.618517 211 3 113 0.000000 1.000000 0.000000
-0.157056 0.916060 0.265788 211 3 113 0.000000 -1.000000 0.000000
-0.313105 0.916060 0.663458 211 3 113 0.000000 -1.000000 0.000000
-0.421387 1.000000 0.537247 211 3 113 0.000000 1.000000 0.000000
-0.034507 0.916060 0.059147 211 3 113 0.000000 -1.000000 0.000000
-0.083799 1.000000 0.677686 211 3 113 0.000000 1.000000 0.000000
-0.523903 1.000000 0.560879 211 3 113 0.000000 1.000000 0.000000
-0.584936 0.916060 0.525422 211 3 113 0.000000 -1.000000 0.000000
-0.556718 0.916060 0.161018 211 3 113 0.000000 -1.000000 0.000000
-0.550584 0.916060 0.661437 211 3 113 0.000000 -1.000000 0.000000
-0.697660 0.918626 0.523413 211 3 113 0.000000 1.000000 0.000000
-0.185984 0.916060 0.498310 211 3 113 0.000000 -1.000000 0.000000
-0.466584 1.000000 0.350646 211 3 113 0.000000 1.000000 0.000000
-0.666754 0.918626 0.426645 211 3 113 0.000000 1.000000 0.000000
-0.649127 0.916060 0.000489 211 3 113 0.000000 -1.000000 0.000000
-0.721830 0.916060 0.452341 211 3 113 0.000000 -1.000000 0.000000
-0.512813 1.000000 0.132162 211 3 113 0.000000 1.000000 0.000000
-0.022809 1.000000 0.139041 211 3 113 0.000000 1.000000 0.000000
-0.647042 0.916060 0.090037 211 3 113 0.000000 -1.000000 0.000000
-0.491248 1.000000 0.081463 211 3 113 0.000000 1.000000 0.000000
-0.384263 0.918626 0.712639 211 3 113 0.000000 1.000000 0.000000
-0.280652 0.916060 0.583676 211 3 113 0.000000 -1.000000 0.000000
-0.275604 0.916060 0.696484 211 3 113 0.000000 -1.000000 0.000000
-0.603140 1.000000 0.145706 211 3 113 0.000000 1.000000 0.000000
-0.202312 0.916060 0.565583 211 3 113 0.000000 -1.000000 0.000000
-0.597270 1.000000 0.709309 211 3 113 0.000000 1.000000 0.000000
-0.347448 0.934286 0.725687 211 3 113 -0.010062 -0.486632 0.873549
-0.492115 0.918626 0.687515 211 3 113 0.000000 1.000000 0.000000
-0.739539 1.000000 0.651160 211 3 113 0.000000 1.000000 0.000000
-0.541918 1.000000 0.180863 211 3 113 0.000000 1.000000 0.000000
-0.279209 1.000000 0.183002 211 3 113 0.000000 1.000000 0.000000
-0.083478 0.918626 0.713476 211 3 113 0.000000 1.000000 0.000000
-0.181163 0.918626 0.683955 211 3 113 0.000000 1.000000 0.000000
-0.453394 0.916060 0.273412 211 3 113 0.000000 -1.000000 0.000000
-0.740718 0.971663 0.062967 211 3 113 -0.977759 0.209431 -0.011262
-0.258884 0.916060 0.645796 211 3 113 0.000000 -1.000000 0.000000
-0.573439 1.000000 0.053335 211 3 113 0.000000 1.000000 0.000000
-0.434306 0.916060 0.397127 211 3 113 0.000000 -1.000000 0.000000
-0.745142 0.976519 0.537342 211 3 113 -0.977759 0.209431 -0.011262
-0.009220 0.916060 0.292228 211 3 113 0.000000 -1.000000 0.000000
-0.743569 0.983320 0.527313 211 3 113 -0.977759 0.209431 -0.011262
-0.211334 0.916060 0.418984 211 3 113 0.000000 -1.000000 0.000000
-0.440852 0.916060 0.217674 211 3 113 0.000000 -1.000000 0.000000
-0.005201 1.000000 0.370424 211 3 113 0.000000 1.000000 0.000000
-0.018063 0.916060 0.172707 211 3 113 0.000000 -1.000000 0.000000
-0.028080 0.916060 0.500806 211 3 113 0.000000 -1.000000 0.000000
-0.101610 0.918626 0.643548 211 3 113 0.000000 1.000000 0.000000
-0.496002 1.000000 0.423476 211 3 113 0.000000 1.000000 0.000000
-0.168848 1.000000 0.463729 211 3 113 0.000000 1.000000 0.000000
-0.419537 1.000000 0.232991 211 3 113 0.000000 1.000000 0.000000
-0.704568 0.928858 0.718550 211 3 113 -0.010062 -0.486632 0.873549
-0.356541 1.000000 0.181488 211 3 113 0.000000 1.000000 0.000000
-0.203893 0.916060 0.360869 211 3 113 0.000000 -1.000000 0.000000
-0.059840 0.996644 0.733959 211 3 113 -0.011259 0.209319 0.977783
-0.655026 0.916245 0.668927 211 3 113 -0.999934 0.000000 -0.011475
-0.706376 0.918626 0.412846 211 3 113 0.000000 1.000000 0.000000
-0.178322 0.916060 0.098798 211 3 113 0.000000 -1.000000 0.000000
-0.486703 0.916060 0.230023 211 3 113 0.000000 -1.000000 0.000000
-0.468105 0.916060 0.262173 211 3 113 0.000000 -1.000000 0.000000
-0.684919 1.000000 0.095376 211 3 113 0.000000 1.000000 0.000000
-0.623162 0.893472 0.605636 211 3 113 0.011508 0.000000 -0.999934
-0.268789 1.000000 0.235280 211 3 113 0.000000 1.000000 0.000000
-0.280332 0.916060 0.378195 211 3 113 0.000000 -1.000000 0.000000
-0.204114 1.000000 0.298428 211 3 113 0.000000 1.000000 0.000000
-0.162381 1.000000 0.716211 211 3 113 0.000000 1.000000 0.000000
-0.748121 0.952982 0.696415 211 3 113 -0.873519 -0.486687 -0.010059
-0.236525 1.000000 0.681974 211 3 113 0.000000 1.000000 0.000000
-0.707162 1.000000 0.299039 211 3 113 0.000000 1.000000 0.000000
-0.690100 0.916060 0.612180 211 3 113 0.000000 -1.000000 0.000000
-0.299072 0.918626 0.634358 211 3 113 0.000000 1.000000 0.000000
-0.740569 0.973446 0.083170 211 3 113 -0.977759 0.209431 -0.011262
-0.141543 0.918626 0.728656 211 3 113 0.000000 1.000000 0.000000
-0.202419 0.916060 0.453249 211 3 113 0.000000 -1.000000 0.000000
-0.619942 1.000000 0.256514 211 3 113 0.000000 1.000000 0.000000
-0.628332 0.877209 0.607475 211 3 113 0.011475 0.000000 -0.999934
-0.503191 1.000000 0.332256 211 3 113 0.000000 1.000000 0.000000
-0.269549 1.000000 0.685730 211 3 113 0.000000 1.000000 0.000000
-0.271946 1.000000 0.016845 211 3 113 0.000000 1.000000 0.000000
-0.169063 0.916060 0.024914 211 3 113 0.000000 -1.000000 0.000000
-0.204919 0.916060 0.162611 211 3 113 0.000000 -1.000000 0.000000
-0.605682 1.000000 0.547414 211 3 113 0.000000 1.000000 0.000000
-0.564936 0.916060 0.706557 211 3 113 0.000000 -1.000000 0.000000
-0.438884 1.000000 0.247952 211 3 113 0.000000 1.000000 0.000000
-0.466999 0.918626 0.624824 211 3 113 0.000000 1.000000 0.000000
-0.176702 0.918626 0.674302 211 3 113 0.000000 1.000000 0.000000
-0.036018 0.918626 0.613720 211 3 113 0.000000 1.000000 0.000000
-0.155848 0.987197 0.734875 211 3 113 -0.011259 0.209319 0.977783
-0.312016 0.916060 0.651127 211 3 113 0.000000 -1.000000 0.000000
-0.163833 1.000000 0.278798 211 3 113 0.000000 1.000000 0.000000
-0.002494 0.916060 0.599843 211 3 113 0.000000 -1.000000 0.000000
-0.522862 0.916060 0.376828 211 3 113 0.000000 -1.000000 0.000000
-0.441669 0.916060 0.415814 211 3 113 0.000000 -1.000000 0.000000
-0.431383 0.916060 0.603064 211 3 113 0.000000 -1.000000 0.000000
-0.015832 1.000000 0.199961 211 3 113 0.000000 1.000000 0.000000
-0.523648 1.000000 0.086295 211 3 113 0.000000 1.000000 0.000000
-0.652402 1.000000 0.208509 211 3 113 0.000000 1.000000 0.000000
-0.334312 1.000000 0.341708 211 3 113 0.000000 1.000000 0.000000
-0.235162 0.916060 0.554224 211 3 113 0.000000 -1.000000 0.000000
-0.648316 0.918626 0.681014 211 3 113 0.000000 1.000000 0.000000
-0.334211 1.000000 0.572000 211 3 113 0.000000 1.000000 0.000000
-0.318295 0.916060 0.264176 211 3 113 0.000000 -1.000000 0.000000
-0.435628 0.916060 0.698548 211 3 113 0.000000 -1.000000 0.000000
-0.742450 0.908495 0.608428 211 3 113 -0.999933 0.000000 -0.011592
-0.741839 0.993564 0.567607 211 3 113 -0.977759 0.209431 -0.011262
-0.408576 0.916060 0.487380 211 3 113 0.000000 -1.000000 0.000000
-0.025667 1.000000 0.434371 211 3 113 0.000000 1.000000 0.000000
-0.301798 0.916060 0.487033 211 3 113 0.000000 -1.000000 0.000000
-0.196027 0.918626 0.706602 211 3 113 0.000000 1.000000 0.000000
-0.693193 1.000000 0.232762 211 3 113 0.000000 1.000000 0.000000
-0.064379 0.916060 0.052495 211 3 113 0.000000 -1.000000 0.000000
-0.221485 0.916060 0.495241 211 3 113 0.000000 -1.000000 0.000000
-0.678851 0.918626 0.580929 211 3 113 0.000000 1.000000 0.000000
-0.196921 0.916060 0.244870 211 3 113 0.000000 -1.000000 0.000000
-0.750790 0.958044 0.684177 211 3 113 -0.977759 0.209431 -0.011262
-0.170388 0.916060 0.394970 211 3 113 0.000000 -1.000000 0.000000
-0.082162 0.934308 0.728755 211 3 113 -0.010059 -0.486686 0.873519
-0.360247 1.000000 0.444735 211 3 113 0.000000 1.000000 0.000000
-0.318997 0.916060 0.358032 211 3 113 0.000000 -1.000000 0.000000
-0.241155 0.916060 0.579740 211 3 113 0.000000 -1.000000 0.000000
-0.618562 0.916060 0.152945 211 3 113 0.000000 -1.000000 0.000000
-0.673383 0.916060 0.561087 211 3 113 0.000000 -1.000000 0.000000
-0.743780 0.962721 0.162517 211 3 113 -0.977759 0.209431 -0.011262
-0.500151 1.000000 0.362210 211 3 113 0.000000 1.000000 0.000000
-0.494592 0.972497 0.734122 211 3 113 -0.011259 0.209319 0.977783
-0.151166 0.952653 0.738180 211 3 113 -0.010062 -0.486632 0.873549
-0.285347 1.000000 0.302798 211 3 113 0.000000 1.000000 0.000000
-0.664692 0.918626 0.238550 211 3 113 0.000000 1.000000 0.000000
-0.688092 0.916060 0.001389 211 3 113 0.000000 -1.000000 0.000000
-0.001747 0.916060 0.125202 211 3 113 0.000000 -1.000000 0.000000
-0.078989 0.916060 0.151791 211 3 113 0.000000 -1.000000 0.000000
-0.501017 0.940848 0.727574 211 3 113 -0.010062 -0.486632 0.873549
-0.607657 0.916060 0.264555 211 3 113 0.000000 -1.000000 0.000000
-0.158431 1.000000 0.529818 211 3 113 0.000000 1.000000 0.000000
-0.088823 0.916060 0.170014 211 3 113 0.000000 -1.000000 0.000000
-0.508505 0.916060 0.422817 211 3 113 0.000000 -1.000000 0.000000
-0.448945 0.916060 0.264023 211 3 113 0.000000 -1.000000 0.000000
-0.160567 0.916060 0.118504 211 3 113 0.000000 -1.000000 0.000000
-0.057583 1.000000 0.000858 211 3 113 0.000000 1.000000 0.000000
-0.098125 0.918626 0.717519 211 3 113 0.000000 1.000000 0.000000
-0.706055 0.918626 0.087511 211 3 113 0.000000 1.000000 0.000000
-0.055095 1.000000 0.266049 211 3 113 0.000000 1.000000 0.000000
-0.490904 1.000000 0.038864 211 3 113 0.000000 1.000000 0.000000
-0.149678 0.918626 0.672315 211 3 113 0.000000 1.000000 0.000000
-0.654663 0.886956 0.637274 211 3 113 -0.999934 0.000000 -0.011475
-0.055007 1.000000 0.311797 211 3 113 0.000000 1.000000 0.000000
-0.689025 1.000000 0.158187 211 3 113 0.000000 1.000000 0.000000
-0.594561 0.916060 0.201673 211 3 113 0.000000 -1.000000 0.000000
-0.062924 0.918626 0.627747 211 3 113 0.000000 1.000000 0.000000
-0.608636 0.916060 0.405906 211 3 113 0.000000 -1.000000 0.000000
-0.181393 1.000000 0.559748 211 3 113 0.000000 1.000000 0.000000
-0.368609 0.924483 0.719982 211 3 113 -0.010059 -0.486686 0.873519
-0.615047 0.917731 0.072079 211 3 113 0.999934 0.000000 0.011516
-0.519401 0.916060 0.207308 211 3 113 0.000000 -1.000000 0.000000
-0.629460 1.000000 0.363432 211 3 113 0.000000 1.000000 0.000000
-0.609225 1.000000 0.508284 211 3 113 0.000000 1.000000 0.000000
-0.302316 1.000000 0.317212 211 3 113 0.000000 1.000000 0.000000
-0.110977 0.916060 0.121142 211 3 113 0.000000 -1.000000 0.000000
-0.661605 0.916060 0.332465 211 3 113 0.000000 -1.000000 0.000000
-0.539943 1.000000 0.202067 211 3 113 0.000000 1.000000 0.000000
-0.167676 0.924377 0.722237 211 3 113 -0.010059 -0.486686 0.873519
-0.586645 1.000000 0.610590 211 3 113 0.000000 1.000000 0.000000
-0.509044 1.000000 0.571689 211 3 113 0.000000 1.000000 0.000000
-0.305877 1.000000 0.030365 211 3 113 0.000000 1.000000 0.000000
-0.587601 0.916060 0.656251 211 3 113 0.000000 -1.000000 0.000000
-0.189176 1.000000 0.088885 211 3 113 0.000000 1.000000 0.000000
-0.387010 0.916060 0.055321 211 3 113 0.000000 -1.000000 0.000000
-0.239966 1.000000 0.509149 211 3 113 0.000000 1.000000 0.000000
-0.134463 0.916060 0.336804 211 3 113 0.000000 -1.000000 0.000000
-0.150371 0.916060 0.268924 211 3 113 0.000000 -1.000000 0.000000
-0.429286 0.918626 0.637917 211 3 113 0.000000 1.000000 0.000000
-0.066433 1.000000 0.412315 211 3 113 0.000000 1.000000 0.000000
-0.675262 0.916060 0.148448 211 3 113 0.000000 -1.000000 0.000000
-0.232116 0.916060 0.682521 211 3 113 0.000000 -1.000000 0.000000
-0.346694 1.000000 0.559823 211 3 113 0.000000 1.000000 0.000000
-0.332716 0.916060 0.098059 211 3 113 0.000000 -1.000000 0.000000
-0.068152 1.000000 0.549346 211 3 113 0.000000 1.000000 0.000000
-0.651801 1.000000 0.223643 211 3 113 0.000000 1.000000 0.000000
-0.355726 0.918626 0.687996 211 3 113 0.000000 1.000000 0.000000
-0.561928 1.000000 0.008868 211 3 113 0.000000 1.000000 0.000000
-0.687240 1.000000 0.005533 211 3 113 0.000000 1.000000 0.000000
-0.544531 1.000000 0.670994 211 3 113 0.000000 1.000000 0.000000
-0.383619 1.000000 0.265678 211 3 113 0.000000 1.000000 0.000000
-0.130610 1.000000 0.130067 211 3 113 0.000000 1.000000 0.000000
-0.733654 0.918626 0.078026 211 3 113 0.000000 1.000000 0.000000
-0.659792 0.918626 0.169395 211 3 113 0.000000 1.000000 0.000000
-0.322268 1.000000 0.679619 211 3 113 0.000000 1.000000 0.000000
-0.544317 1.000000 0.088950 211 3 113 0.000000 1.000000 0.000000
-0.272126 0.916060 0.591553 211 3 113 0.000000 -1.000000 0.000000
-0.700870 0.918626 0.017585 211 3 113 0.000000 1.000000 0.000000
-0.487006 0.916060 0.369379 211 3 113 0.000000 -1.000000 0.000000
-0.473961 0.918626 0.623326 211 3 113 0.000000 1.000000 0.000000
-0.215452 1.000000 0.443844 211 3 113 0.000000 1.000000 0.000000
-0.611805 0.916060 0.411040 211 3 113 0.000000 -1.000000 0.000000
-0.621368 1.000000 0.063146 211 3 113 0.000000 1.000000 0.000000
-0.689351 0.916060 0.533436 211 3 113 0.000000 -1.000000 0.000000
-0.035356 0.920528 0.721617 211 3 113 -0.010059 -0.486686 0.873519
-0.098031 0.916060 0.526558 211 3 113 0.000000 -1.000000 0.000000
-0.220301 1.000000 0.275442 211 3 113 0.000000 1.000000 0.000000
-0.039267 0.916060 0.395664 211 3 113 0.000000 -1.000000 0.000000
-0.159314 1.000000 0.301636 211 3 113 0.000000 1.000000 0.000000
-0.680068 0.918626 0.406284 211 3 113 0.000000 1.000000 0.000000
-0.198694 1.000000 0.507358 211 3 113 0.000000 1.000000 0.000000
-0.318116 0.919454 0.717762 211 3 113 -0.010059 -0.486686 0.873519
-0.308687 0.916060 0.506073 211 3 113 0.000000 -1.000000 0.000000
-0.692202 0.915643 0.606742 211 3 113 0.011475 0.000000 -0.999934
-0.732570 0.937273 0.106020 211 3 113 -0.873519 -0.486687 -0.010059
-0.037884 1.000000 0.132178 211 3 113 0.000000 1.000000 0.000000
-0.741387 0.913743 0.629563 211 3 113 -0.999934 0.000000 -0.011519
-0.339475 0.916060 0.014450 211 3 113 0.000000 -1.000000 0.000000
-0.124284 0.916060 0.287966 211 3 113 0.000000 -1.000000 0.000000
-0.358053 0.918626 0.721022 211 3 113 0.000000 1.000000 0.000000
-0.314237 1.000000 0.447955 211 3 113 0.000000 1.000000 0.000000
-0.259653 1.000000 0.433353 211 3 113 0.000000 1.000000 0.000000
-0.080200 0.945033 0.734752 211 3 113 -0.010062 -0.486632 0.873549
-0.013599 1.000000 0.009913 211 3 113 0.000000 1.000000 0.000000
-0.598579 0.850341 0.605919 211 3 113 0.011508 0.000000 -0.999934
-0.338840 1.000000 0.216317 211 3 113 0.000000 1.000000 0.000000
-0.337621 1.000000 0.568500 211 3 113 0.000000 1.000000 0.000000
-0.499510 1.000000 0.011626 211 3 113 0.000000 1.000000 0.000000
-0.590318 1.000000 0.197832 211 3 113 0.000000 1.000000 0.000000
-0.474822 0.916060 0.160696 211 3 113 0.000000 -1.000000 0.000000
-0.631048 1.000000 0.105522 211 3 113 0.000000 1.000000 0.000000
-0.214447 0.916060 0.040608 211 3 113 0.000000 -1.000000 0.000000
-0.291891 0.916060 0.711641 211 3 113 0.000000 -1.000000 0.000000
-0.493738 1.000000 0.568700 211 3 113 0.000000 1.000000 0.000000
-0.676892 0.916060 0.556494 211 3 113 0.000000 -1.000000 0.000000
-0.673481 0.918626 0.285047 211 3 113 0.000000 1.000000 0.000000
-0.728881 1.000000 0.031101 211 3 113 0.000000 1.000000 0.000000
-0.374994 0.916060 0.126479 211 3 113 0.000000 -1.000000 0.000000
-0.693006 0.916060 0.318625 211 3 113 0.000000 -1.000000 0.000000
-0.589058 0.916060 0.586924 211 3 113 0.000000 -1.000000 0.000000
-0.254078 0.916060 0.324919 211 3 113 0.000000 -1.000000 0.000000
-0.238336 1.000000 0.184278 211 3 113 0.000000 1.000000 0.000000
-0.083885 0.916060 0.230040 211 3 113 0.000000 -1.000000 0.000000
-0.321110 0.916060 0.115927 211 3 113 0.000000 -1.000000 0.000000
-0.717634 1.000000 0.382240 211 3 113 0.000000 1.000000 0.000000
-0.441254 0.916060 0.076535 211 3 113 0.000000 -1.000000 0.000000
-0.151512 0.916060 0.571075 211 3 113 0.000000 -1.000000 0.000000
-0.712627 0.918626 0.222911 211 3 113 0.000000 1.000000 0.000000
-0.313230 0.916060 0.499525 211 3 113 0.000000 -1.000000 0.000000
-0.467966 0.916060 0.312584 211 3 113 0.000000 -1.000000 0.000000
-0.677459 0.918626 0.082189 211 3 113 0.000000 1.000000 0.000000
-0.685307 0.916060 0.593114 211 3 113 0.000000 -1.000000 0.000000
-0.458579 0.918626 0.722942 211 3 113 0.000000 1.000000 0.000000
