ply
format ascii 1.0
element vertex 724
property float x
property float y
property float z
property uchar red
property uchar green
property uchar blue
property float nx
property float ny
property float nz
end_header
0.363115 0.500124 -0.114311 22 99 146 0.000000 1.000000 0.000000
0.450350 0.345067 -0.951518 22 99 146 -0.000010 -0.374619 -0.927179
0.160270 0.500124 -0.134923 22 99 146 0.000000 1.000000 0.000000
0.342076 0.454259 -0.922846 22 99 146 -0.000402 -1.000000 0.000050
0.051844 0.454555 -0.169134 22 99 146 -0.000002 1.000000 0.000000
0.272399 0.344610 -0.842577 22 99 146 0.000000 -1.000000 0.000000
0.186893 0.344610 -0.243255 22 99 146 0.000000 -1.000000 0.000000
0.049635 0.500124 -0.726397 22 99 146 0.000000 1.000000 0.000000
0.210981 0.500124 -0.635255 22 99 146 0.000000 1.000000 0.000000
0.506461 0.454198 -0.619306 22 99 146 0.000000 -1.000000 0.000000
0.529146 0.464475 -0.101827 22 99 146 1.000000 0.000000 -0.000015
0.146018 0.344610 -0.408477 22 99 146 0.000000 -1.000000 0.000000
0.131800 0.454198 -0.228071 22 99 146 0.000000 -1.000000 0.000000
0.527388 0.462961 -0.850871 22 99 146 1.000000 0.000000 0.000000
0.106244 0.500124 -0.890846 22 99 146 0.000000 1.000000 0.000000
0.366457 0.344610 -0.784060 22 99 146 0.000000 -1.000000 0.000000
0.469796 0.344610 -0.350232 22 99 146 0.000000 -1.000000 0.000000
0.032815 0.344610 -0.936795 22 99 146 0.000000 -1.000000 0.000000
0.093338 0.344610 -0.785553 22 99 146 0.000000 -1.000000 0.000000
0.150982 0.454555 -0.467231 22 99 146 -0.000002 1.000000 0.000000
0.179016 0.344610 -0.822563 22 99 146 0.000000 -1.000000 0.000000
0.163116 0.344610 -0.923888 22 99 146 0.000000 -1.000000 0.000000
0.255984 0.454556 -0.043329 22 99 146 -0.000002 1.000000 0.000000
0.401306 0.500124 -0.683312 22 99 146 0.000000 1.000000 0.000000
0.528691 0.475293 -0.585697 22 99 146 0.996197 0.087135 -0.000012
0.409686 0.421346 -0.912093 22 99 146 -1.000000 0.000000 0.000000
0.190254 0.351640 -0.953479 22 99 146 -0.000010 0.000000 -1.000000
0.462606 0.347848 -0.919449 22 99 146 0.000000 1.000000 0.000000
0.110517 0.454555 -0.920948 22 99 146 -0.000002 1.000000 0.000000
0.094551 0.500124 -0.624905 22 99 146 0.000000 1.000000 0.000000
0.443789 0.344610 -0.904852 22 99 146 0.000000 -1.000000 0.000000
0.465066 0.454199 -0.663559 22 99 146 0.000004 -1.000000 -0.000058
0.308853 0.454198 -0.041507 22 99 146 0.000000 -1.000000 0.000000
0.306475 0.500124 -0.850609 22 99 146 0.000000 1.000000 0.000000
0.364751 0.454202 -0.718090 22 99 146 0.000004 -1.000000 -0.000058
0.175130 0.363872 -0.948244 22 99 146 0.000000 1.000000 0.000000
0.257641 0.500124 -0.136382 22 99 146 0.000000 1.000000 0.000000
0.218083 0.344610 -0.123040 22 99 146 0.000000 -1.000000 0.000000
0.118551 0.344610 -0.409822 22 99 146 0.000000 -1.000000 0.000000
0.219404 0.500124 -0.845263 22 99 146 0.000000 1.000000 0.000000
0.091541 0.500124 -0.730698 22 99 146 0.000000 1.000000 0.000000
0.009607 0.344610 -0.337128 22 99 146 0.000000 -1.000000 0.000000
0.291127 0.454198 -0.562149 22 99 146 0.000000 -1.000000 0.000000
0.052685 0.454198 -0.402729 22 99 146 0.000000 -1.000000 0.000000
0.414176 0.454556 -0.690429 22 99 146 -0.000002 1.000000 0.000000
0.047181 0.454198 -0.627599 22 99 146 0.000000 -1.000000 0.000000
0.167531 0.454555 -0.525594 22 99 146 -0.000002 1.000000 0.000000
0.488004 0.347848 -0.866269 22 99 146 0.000000 1.000000 0.000000
0.495863 0.400159 -0.818365 22 99 146 1.000000 0.000000 -0.000011
0.495864 0.367629 -0.773841 22 99 146 1.000000 0.000000 -0.000011
0.443384 0.454198 -0.469037 22 99 146 0.000000 -1.000000 0.000000
0.446907 0.454556 -0.056480 22 99 146 -0.000002 1.000000 0.000000
0.475307 0.454198 -0.560022 22 99 146 0.000000 -1.000000 0.000000
0.139774 0.500124 -0.551805 22 99 146 0.000000 1.000000 0.000000
0.148871 0.500124 -0.203536 22 99 146 0.000000 1.000000 0.000000
0.019479 0.500124 -0.521798 22 99 146 0.000000 1.000000 0.000000
0.032442 0.454555 -0.263421 22 99 146 -0.000002 1.000000 0.000000
0.060180 0.344610 -0.474376 22 99 146 0.000000 -1.000000 0.000000
0.483426 0.500124 -0.311755 22 99 146 0.000000 1.000000 0.000000
0.295424 0.454241 -0.844503 22 99 146 -0.000007 -1.000000 -0.000355
0.495862 0.395069 -0.897914 22 99 146 1.000000 0.000000 -0.000011
0.393416 0.500124 -0.544374 22 99 146 0.000000 1.000000 0.000000
0.017345 0.454555 -0.683705 22 99 146 -0.000002 1.000000 0.000000
0.066338 0.500124 -0.886100 22 99 146 0.000000 1.000000 0.000000
0.499544 0.344610 -0.350967 22 99 146 0.000000 -1.000000 0.000000
0.131600 0.454198 -0.454730 22 99 146 0.000000 -1.000000 0.000000
0.495864 0.399006 -0.703590 22 99 146 1.000000 0.000000 -0.000011
0.506842 0.500124 -0.182387 22 99 146 0.000000 1.000000 0.000000
0.092758 0.500124 -0.743581 22 99 146 0.000000 1.000000 0.000000
0.236917 0.500124 -0.720177 22 99 146 0.000000 1.000000 0.000000
0.503237 0.349095 -0.847086 22 99 146 0.927046 -0.374948 -0.000010
0.017049 0.454247 -0.860352 22 99 146 0.000006 -1.000000 -0.000399
0.231167 0.389909 -0.945771 22 99 146 -0.000011 0.000000 -1.000000
0.479930 0.454198 -0.419300 22 99 146 0.000000 -1.000000 0.000000
0.462611 0.454198 -0.184456 22 99 146 0.000000 -1.000000 0.000000
0.066512 0.454198 -0.076751 22 99 146 0.000000 -1.000000 0.000000
0.495869 0.399365 -0.294267 22 99 146 1.000000 0.000000 -0.000011
0.495867 0.416492 -0.478207 22 99 146 1.000000 0.000000 -0.000011
0.088415 0.454198 -0.629385 22 99 146 0.000000 -1.000000 0.000000
0.528918 0.460283 -0.502481 22 99 146 0.945606 -0.325314 -0.000015
0.064405 0.454555 -0.673788 22 99 146 -0.000002 1.000000 0.000000
0.069523 0.454198 -0.448359 22 99 146 0.000000 -1.000000 0.000000
0.094735 0.454198 -0.568857 22 99 146 0.000000 -1.000000 0.000000
0.435217 0.344610 -0.274544 22 99 146 0.000000 -1.000000 0.000000
0.085561 0.500124 -0.986716 22 99 146 0.000000 1.000000 0.000000
0.309249 0.454198 -0.461108 22 99 146 0.000000 -1.000000 0.000000
0.397179 0.454198 -0.542456 22 99 146 0.000000 -1.000000 0.000000
0.343075 0.500124 -0.221591 22 99 146 0.000000 1.000000 0.000000
0.334117 0.500124 -0.481076 22 99 146 0.000000 1.000000 0.000000
0.465031 0.344610 -0.208197 22 99 146 0.000000 -1.000000 0.000000
0.020724 0.500124 -0.402708 22 99 146 0.000000 1.000000 0.000000
0.522202 0.491846 -0.044895 22 99 146 0.000000 1.000000 0.000000
0.374282 0.344610 -0.031885 22 99 146 0.000000 -1.000000 0.000000
0.332439 0.454556 -0.925617 22 99 146 -0.000002 1.000000 0.000000
0.034960 0.454555 -0.750132 22 99 146 -0.000002 1.000000 0.000000
0.299496 0.500124 -0.386271 22 99 146 0.000000 1.000000 0.000000
0.430560 0.500124 -0.702932 22 99 146 0.000000 1.000000 0.000000
0.409686 0.377523 -0.905117 22 99 146 -1.000000 0.000000 0.000000
0.240318 0.454556 -0.341811 22 99 146 -0.000002 1.000000 0.000000
0.361225 0.344610 -0.420752 22 99 146 0.000000 -1.000000 0.000000
0.227692 0.454198 -0.161380 22 99 146 0.000000 -1.000000 0.000000
0.118436 0.454344 -0.997644 22 99 146 0.000000 -0.999963 0.008605
0.521864 0.491846 -0.061913 22 99 146 0.000000 1.000000 0.000000
0.321593 0.500124 -0.414088 22 99 146 0.000000 1.000000 0.000000
0.180253 0.454555 -0.691940 22 99 146 -0.000002 1.000000 0.000000
0.059944 0.500124 -0.878546 22 99 146 0.000000 1.000000 0.000000
0.233847 0.454555 -0.128753 22 99 146 -0.000002 1.000000 0.000000
0.192618 0.454555 -0.515441 22 99 146 -0.000002 1.000000 0.000000
0.118243 0.500124 -0.579760 22 99 146 0.000000 1.000000 0.000000
0.121743 0.349514 -0.953312 22 99 146 -0.000010 -0.374619 -0.927179
0.493941 0.500124 -0.042289 22 99 146 0.000000 1.000000 0.000000
0.188133 0.500124 -0.594837 22 99 146 0.000000 1.000000 0.000000
0.067741 0.344610 -0.691009 22 99 146 0.000000 -1.000000 0.000000
0.429504 0.500124 -0.097516 22 99 146 0.000000 1.000000 0.000000
0.069653 0.454555 -0.105475 22 99 146 -0.000002 1.000000 0.000000
0.384193 0.454556 -0.129222 22 99 146 -0.000002 1.000000 0.000000
0.369429 0.344610 -0.096240 22 99 146 0.000000 -1.000000 0.000000
0.028016 0.454198 -0.493113 22 99 146 0.000000 -1.000000 0.000000
0.049550 0.454198 -0.242043 22 99 146 0.000000 -1.000000 0.000000
0.300658 0.463425 -0.981710 22 99 146 -0.231928 0.000000 -0.972733
0.457464 0.454198 -0.204233 22 99 146 0.000000 -1.000000 0.000000
0.370012 0.454556 -0.478270 22 99 146 -0.000002 1.000000 0.000000
0.337032 0.454556 -0.698244 22 99 146 -0.000002 1.000000 0.000000
0.370648 0.344610 -0.116831 22 99 146 0.000000 -1.000000 0.000000
0.527635 0.456556 -0.532199 22 99 146 0.945606 -0.325314 -0.000015
0.404450 0.454198 -0.128929 22 99 146 0.000000 -1.000000 0.000000
0.440229 0.454556 -0.495942 22 99 146 -0.000002 1.000000 0.000000
0.357606 0.404436 -0.945773 22 99 146 -0.000011 0.000000 -1.000000
0.015182 0.344610 -0.071917 22 99 146 0.000000 -1.000000 0.000000
-0.001200 0.454555 -0.201729 22 99 146 -0.000002 1.000000 0.000000
0.164394 0.454198 -0.400847 22 99 146 0.000000 -1.000000 0.000000
0.272704 0.454224 -0.799449 22 99 146 0.000006 -1.000000 -0.000399
0.206975 0.500124 -0.722945 22 99 146 0.000000 1.000000 0.000000
0.281524 0.344610 -0.626153 22 99 146 0.000000 -1.000000 0.000000
0.309951 0.347089 -0.932725 22 99 146 -0.359443 0.933167 -0.000140
0.484507 0.454555 -0.688591 22 99 146 0.000105 1.000000 -0.000001
0.417721 0.454190 -0.888731 22 99 146 0.000000 1.000000 0.000000
0.071119 0.344610 -0.787046 22 99 146 0.000000 -1.000000 0.000000
0.464692 0.500124 -0.228893 22 99 146 0.000000 1.000000 0.000000
0.063115 0.500124 -0.504306 22 99 146 0.000000 1.000000 0.000000
0.527313 0.455612 -0.188257 22 99 146 0.945433 -0.325816 -0.000009
0.418055 0.347255 -0.868014 22 99 146 -0.134201 0.979703 0.148905
0.135621 0.454198 -0.238419 22 99 146 0.000000 -1.000000 0.000000
0.427572 0.454556 -0.127977 22 99 146 -0.000002 1.000000 0.000000
0.048771 0.500124 -0.058006 22 99 146 0.000000 1.000000 0.000000
0.368693 0.454198 -0.177911 22 99 146 0.000000 -1.000000 0.000000
0.380801 0.370736 -0.945773 22 99 146 -0.000011 0.000000 -1.000000
0.409805 0.344610 -0.663152 22 99 146 0.000000 -1.000000 0.000000
0.218812 0.454555 -0.253762 22 99 146 -0.000002 1.000000 0.000000
0.183174 0.368431 -0.945771 22 99 146 -0.000011 0.000000 -1.000000
0.394130 0.454556 -0.822408 22 99 146 -0.000002 1.000000 0.000000
0.116163 0.454268 -0.917238 22 99 146 -0.000007 -1.000000 -0.000355
0.248000 0.454198 -0.461806 22 99 146 0.000000 -1.000000 0.000000
0.209772 0.454555 -0.573070 22 99 146 -0.000002 1.000000 0.000000
0.425368 0.454198 -0.204907 22 99 146 0.000000 -1.000000 0.000000
0.086859 0.500124 -0.743913 22 99 146 0.000000 1.000000 0.000000
0.073461 0.500124 -0.127532 22 99 146 0.000000 1.000000 0.000000
0.518062 0.472703 -0.917549 22 99 146 0.935004 0.117480 -0.334612
0.376614 0.454556 -0.795724 22 99 146 -0.000002 1.000000 0.000000
0.439186 0.454556 -0.747678 22 99 146 -0.000002 1.000000 0.000000
0.223313 0.344610 -0.903490 22 99 146 0.000000 -1.000000 0.000000
0.419727 0.390101 -0.863926 22 99 146 0.000000 0.000000 1.000000
0.461842 0.454198 -0.452457 22 99 146 0.000000 -1.000000 0.000000
0.081598 0.500124 -0.117217 22 99 146 0.000000 1.000000 0.000000
0.276709 0.454556 -0.865552 22 99 146 -0.000002 1.000000 0.000000
0.524910 0.490906 -0.467800 22 99 146 0.979654 0.200693 -0.000009
0.132107 0.454202 -0.740593 22 99 146 0.000004 -1.000000 -0.000058
0.524538 0.454198 -0.340050 22 99 146 0.000000 -1.000000 0.000000
0.122757 0.344610 -0.367348 22 99 146 0.000000 -1.000000 0.000000
0.405550 0.454198 -0.268183 22 99 146 0.000000 -1.000000 0.000000
0.181564 0.454198 -0.591745 22 99 146 0.000000 -1.000000 0.000000
0.342191 0.454556 -0.271637 22 99 146 -0.000002 1.000000 0.000000
0.365187 0.344610 -0.639904 22 99 146 0.000000 -1.000000 0.000000
0.204669 0.454555 -0.077751 22 99 146 -0.000002 1.000000 0.000000
0.489534 0.454198 -0.528073 22 99 146 0.000000 -1.000000 0.000000
0.182530 0.344610 -0.225484 22 99 146 0.000000 -1.000000 0.000000
0.380062 0.454845 -0.992902 22 99 146 -0.010013 -0.325765 -0.945398
0.328695 0.344610 -0.491491 22 99 146 0.000000 -1.000000 0.000000
0.459002 0.454556 -0.717440 22 99 146 -0.000002 1.000000 0.000000
0.311717 0.500124 -0.399124 22 99 146 0.000000 1.000000 0.000000
0.495865 0.415645 -0.661390 22 99 146 1.000000 0.000000 -0.000011
0.337333 0.500124 -0.721719 22 99 146 0.000000 1.000000 0.000000
0.493962 0.344610 -0.682380 22 99 146 0.000000 -1.000000 0.000000
0.146815 0.454198 -0.528627 22 99 146 0.000000 -1.000000 0.000000
0.374336 0.347848 -0.897027 22 99 146 0.000000 1.000000 0.000000
0.371523 0.344610 -0.410981 22 99 146 0.000000 -1.000000 0.000000
0.059019 0.344610 -0.546790 22 99 146 0.000000 -1.000000 0.000000
0.495863 0.402419 -0.854002 22 99 146 1.000000 0.000000 -0.000011
0.506086 0.413687 -0.869322 22 99 146 1.000000 0.000000 -0.000059
0.419949 0.344610 -0.353118 22 99 146 0.000000 -1.000000 0.000000
0.482205 0.344610 -0.322862 22 99 146 0.000000 -1.000000 0.000000
0.236374 0.454198 -0.029391 22 99 146 0.000000 -1.000000 0.000000
0.382137 0.454231 -0.819541 22 99 146 -0.000007 -1.000000 -0.000355
0.528921 0.460278 -0.167452 22 99 146 0.945606 -0.325314 -0.000015
0.277938 0.454198 -0.176805 22 99 146 0.000000 -1.000000 0.000000
0.013982 0.454208 -0.763686 22 99 146 0.000006 -1.000000 -0.000399
0.350370 0.500124 -0.442291 22 99 146 0.000000 1.000000 0.000000
0.495865 0.412857 -0.653861 22 99 146 1.000000 0.000000 -0.000011
0.179972 0.454555 -0.655149 22 99 146 -0.000002 1.000000 0.000000
0.077943 0.372635 -0.945770 22 99 146 -0.000011 0.000000 -1.000000
0.156257 0.359890 -0.952931 22 99 146 -0.000010 0.372953 -0.927850
0.240660 0.454198 -0.373961 22 99 146 0.000000 -1.000000 0.000000
0.436377 0.346626 -0.810878 22 99 146 -0.284960 0.958127 -0.028123
0.495866 0.384915 -0.562400 22 99 146 1.000000 0.000000 -0.000011
0.195012 0.454555 -0.857489 22 99 146 -0.000002 1.000000 0.000000
0.368885 0.344610 -0.111828 22 99 146 0.000000 -1.000000 0.000000
0.345990 0.454198 -0.049167 22 99 146 0.000000 -1.000000 0.000000
0.064764 0.454555 -0.254244 22 99 146 -0.000002 1.000000 0.000000
0.081931 0.454198 -0.343614 22 99 146 0.000000 -1.000000 0.000000
0.415129 0.500124 -0.741320 22 99 146 0.000000 1.000000 0.000000
0.523856 0.491846 -0.252974 22 99 146 0.000000 1.000000 0.000000
0.388117 0.500124 -0.965709 22 99 146 0.000000 1.000000 0.000000
0.280743 0.344610 -0.174789 22 99 146 0.000000 -1.000000 0.000000
0.253909 0.454556 -0.296423 22 99 146 -0.000002 1.000000 0.000000
0.068056 0.454198 -0.245642 22 99 146 0.000000 -1.000000 0.000000
0.413235 0.500124 -0.036322 22 99 146 0.000000 1.000000 0.000000
0.164900 0.454213 -0.667518 22 99 146 -0.000128 -0.999999 0.001205
0.495872 0.421523 -0.022463 22 99 146 1.000000 0.000000 -0.000011
0.295360 0.454198 -0.202301 22 99 146 0.000000 -1.000000 0.000000
0.329002 0.454556 -0.736410 22 99 146 -0.000002 1.000000 0.000000
0.338579 0.500124 -0.802101 22 99 146 0.000000 1.000000 0.000000
0.105101 0.454555 -0.788116 22 99 146 -0.000002 1.000000 0.000000
0.412095 0.454324 -0.970281 22 99 146 0.000279 -0.999999 -0.001248
0.090837 0.344610 -0.044985 22 99 146 0.000000 -1.000000 0.000000
0.110435 0.344610 -0.893103 22 99 146 0.000000 -1.000000 0.000000
0.376407 0.454556 -0.244385 22 99 146 -0.000002 1.000000 0.000000
0.445036 0.454198 -0.071427 22 99 146 0.000000 -1.000000 0.000000
0.186474 0.454198 -0.546032 22 99 146 0.000000 -1.000000 0.000000
0.147286 0.454555 -0.214878 22 99 146 -0.000002 1.000000 0.000000
0.134996 0.454555 -0.063289 22 99 146 -0.000002 1.000000 0.000000
0.246434 0.454198 -0.502100 22 99 146 0.000000 -1.000000 0.000000
0.495864 0.367875 -0.781092 22 99 146 1.000000 0.000000 -0.000011
0.413058 0.454200 -0.689392 22 99 146 0.000004 -1.000000 -0.000058
0.196344 0.500124 -0.225391 22 99 146 0.000000 1.000000 0.000000
0.266773 0.454198 -0.324703 22 99 146 0.000000 -1.000000 0.000000
0.200602 0.454555 -0.100346 22 99 146 -0.000002 1.000000 0.000000
0.395728 0.454198 -0.500810 22 99 146 0.000000 -1.000000 0.000000
0.119269 0.454555 -0.598447 22 99 146 -0.000002 1.000000 0.000000
0.321539 0.344610 -0.780283 22 99 146 0.000000 -1.000000 0.000000
0.253286 0.500124 -0.414875 22 99 146 0.000000 1.000000 0.000000
0.237995 0.344610 -0.426031 22 99 146 0.000000 -1.000000 0.000000
0.470456 0.454556 -0.658398 22 99 146 -0.000002 1.000000 0.000000
0.500047 0.363872 -0.360526 22 99 146 0.000000 1.000000 0.000000
0.445821 0.398351 -0.945774 22 99 146 -0.000011 0.000000 -1.000000
0.245301 0.500124 -0.638728 22 99 146 0.000000 1.000000 0.000000
0.046889 0.454555 -0.016277 22 99 146 -0.000002 1.000000 0.000000
0.512867 0.454166 -0.785940 22 99 146 -0.032230 -0.999448 -0.008016
0.119090 0.500124 -0.471817 22 99 146 0.000000 1.000000 0.000000
0.238889 0.454241 -0.844831 22 99 146 -0.000007 -1.000000 -0.000355
0.527429 0.477996 -0.313741 22 99 146 0.000000 1.000000 0.000000
0.409686 0.385938 -0.874621 22 99 146 -1.000000 0.000000 0.000000
0.379464 0.344610 -0.921903 22 99 146 0.000000 -1.000000 0.000000
0.137859 0.500124 -0.002309 22 99 146 0.000000 1.000000 0.000000
0.239185 0.454198 -0.516099 22 99 146 0.000000 -1.000000 0.000000
0.111152 0.344610 -0.466718 22 99 146 0.000000 -1.000000 0.000000
0.516110 0.454198 -0.614254 22 99 146 0.000000 -1.000000 0.000000
0.112692 0.500124 -0.981900 22 99 146 0.000000 1.000000 0.000000
0.481455 0.454556 -0.002375 22 99 146 -0.000002 1.000000 0.000000
0.337438 0.454201 -0.705451 22 99 146 0.000004 -1.000000 -0.000058
0.154912 0.454555 -0.190601 22 99 146 -0.000002 1.000000 0.000000
0.274499 0.454556 -0.042994 22 99 146 -0.000002 1.000000 0.000000
0.449103 0.455364 -0.984409 22 99 146 0.318544 -0.325451 -0.890287
0.351927 0.500124 -0.572674 22 99 146 0.000000 1.000000 0.000000
0.198653 0.454555 -0.063767 22 99 146 -0.000002 1.000000 0.000000
0.372900 0.344610 -0.718171 22 99 146 0.000000 -1.000000 0.000000
0.259083 0.454556 -0.028248 22 99 146 -0.000002 1.000000 0.000000
0.521042 0.492036 -0.523461 22 99 146 0.946089 -0.323906 -0.000012
0.495870 0.388683 -0.216865 22 99 146 1.000000 0.000000 -0.000011
0.236847 0.454556 -0.645067 22 99 146 -0.000002 1.000000 0.000000
0.378598 0.454198 -0.012961 22 99 146 0.000000 -1.000000 0.000000
0.484849 0.347848 -0.803195 22 99 146 0.000000 1.000000 0.000000
0.115626 0.454555 -0.901650 22 99 146 -0.000002 1.000000 0.000000
0.138820 0.500124 -0.614531 22 99 146 0.000000 1.000000 0.000000
0.288545 0.454556 -0.164958 22 99 146 -0.000002 1.000000 0.000000
0.429816 0.454190 -0.926652 22 99 146 0.000000 1.000000 0.000000
0.476151 0.454356 -0.960125 22 99 146 0.001426 -0.999995 -0.002882
0.069518 0.344610 -0.396517 22 99 146 0.000000 -1.000000 0.000000
0.000514 0.454555 -0.587211 22 99 146 -0.000002 1.000000 0.000000
0.495679 0.500124 -0.848105 22 99 146 0.000000 1.000000 0.000000
0.510139 0.454198 -0.447036 22 99 146 0.000000 -1.000000 0.000000
0.421277 0.454198 -0.497392 22 99 146 0.000000 -1.000000 0.000000
0.215062 0.438019 -0.945771 22 99 146 -0.000011 0.000000 -1.000000
0.443916 0.344610 -0.863575 22 99 146 0.000000 -1.000000 0.000000
0.448210 0.454816 -0.984528 22 99 146 0.318544 -0.325451 -0.890287
0.527168 0.472886 -0.868356 22 99 146 0.996738 0.080711 -0.000036
0.429975 0.434659 -0.863926 22 99 146 0.000000 0.000000 1.000000
0.427946 0.344610 -0.707205 22 99 146 0.000000 -1.000000 0.000000
0.173765 0.500124 -0.859470 22 99 146 0.000000 1.000000 0.000000
0.378762 0.500124 -0.150849 22 99 146 0.000000 1.000000 0.000000
0.345133 0.500124 -0.719758 22 99 146 0.000000 1.000000 0.000000
0.485396 0.454555 -0.741369 22 99 146 0.000105 1.000000 -0.000001
0.071667 0.500124 -0.785866 22 99 146 0.000000 1.000000 0.000000
0.276521 0.500124 -0.802607 22 99 146 0.000000 1.000000 0.000000
0.374431 0.362856 -0.951741 22 99 146 -0.000010 0.372932 -0.927859
0.142022 0.454198 -0.093817 22 99 146 0.000000 -1.000000 0.000000
0.280671 0.500124 -0.055720 22 99 146 0.000000 1.000000 0.000000
0.233814 0.344610 -0.363651 22 99 146 0.000000 -1.000000 0.000000
0.181523 0.454555 -0.265863 22 99 146 -0.000002 1.000000 0.000000
0.187041 0.454555 -0.141127 22 99 146 -0.000002 1.000000 0.000000
0.070691 0.500124 -0.079920 22 99 146 0.000000 1.000000 0.000000
0.529143 0.461043 -0.337590 22 99 146 1.000000 0.000000 -0.000015
0.405529 0.454556 -0.396721 22 99 146 -0.000002 1.000000 0.000000
0.523888 0.491846 -0.607029 22 99 146 0.000000 1.000000 0.000000
0.182982 0.454198 -0.047884 22 99 146 0.000000 -1.000000 0.000000
0.350412 0.454556 -0.874747 22 99 146 -0.000002 1.000000 0.000000
0.120551 0.454210 -0.647260 22 99 146 -0.000009 -0.999999 -0.001451
0.495862 0.435318 -0.892676 22 99 146 1.000000 0.000000 -0.000011
0.405214 0.454198 -0.189683 22 99 146 0.000000 -1.000000 0.000000
0.370801 0.454556 -0.341302 22 99 146 -0.000002 1.000000 0.000000
0.462831 0.344610 -0.426883 22 99 146 0.000000 -1.000000 0.000000
0.227882 0.454555 -0.341439 22 99 146 -0.000002 1.000000 0.000000
0.527485 0.456121 -0.528051 22 99 146 0.945606 -0.325314 -0.000015
0.136964 0.454555 -0.705957 22 99 146 -0.000002 1.000000 0.000000
0.418686 0.500124 -0.619548 22 99 146 0.000000 1.000000 0.000000
0.013972 0.454555 -0.584057 22 99 146 -0.000002 1.000000 0.000000
0.519111 0.491846 -0.890275 22 99 146 0.000000 1.000000 0.000000
0.029785 0.500124 -0.983032 22 99 146 0.000000 1.000000 0.000000
0.162744 0.454555 -0.331225 22 99 146 -0.000002 1.000000 0.000000
0.036597 0.500124 -0.310070 22 99 146 0.000000 1.000000 0.000000
0.194416 0.454198 -0.113154 22 99 146 0.000000 -1.000000 0.000000
0.273265 0.500124 -0.610934 22 99 146 0.000000 1.000000 0.000000
0.115453 0.500124 -0.889078 22 99 146 0.000000 1.000000 0.000000
0.046693 0.500124 -0.643755 22 99 146 0.000000 1.000000 0.000000
0.471444 0.454556 -0.388910 22 99 146 -0.000002 1.000000 0.000000
0.155043 0.454198 -0.335422 22 99 146 0.000000 -1.000000 0.000000
0.149026 0.500124 -0.636570 22 99 146 0.000000 1.000000 0.000000
0.102696 0.425002 -0.945770 22 99 146 -0.000011 0.000000 -1.000000
0.486199 0.344610 -0.131259 22 99 146 0.000000 -1.000000 0.000000
0.134433 0.344610 -0.727040 22 99 146 0.000000 -1.000000 0.000000
0.294718 0.344610 -0.437713 22 99 146 0.000000 -1.000000 0.000000
0.136324 0.344610 -0.795155 22 99 146 0.000000 -1.000000 0.000000
0.503169 0.500124 -0.152910 22 99 146 0.000000 1.000000 0.000000
0.396746 0.421942 -0.945773 22 99 146 -0.000011 0.000000 -1.000000
0.141581 0.344610 -0.761313 22 99 146 0.000000 -1.000000 0.000000
0.396733 0.483470 -0.992325 22 99 146 -0.010660 0.000000 -0.999943
0.526849 0.465320 -0.878140 22 99 146 0.993423 0.000000 -0.114500
0.113947 0.454198 -0.365969 22 99 146 0.000000 -1.000000 0.000000
0.076938 0.500124 -0.709533 22 99 146 0.000000 1.000000 0.000000
0.014255 0.454555 -0.390391 22 99 146 -0.000002 1.000000 0.000000
0.394224 0.344610 -0.036562 22 99 146 0.000000 -1.000000 0.000000
0.529147 0.462846 -0.030504 22 99 146 1.000000 0.000000 -0.000015
0.259635 0.454556 -0.516189 22 99 146 -0.000002 1.000000 0.000000
0.082868 0.454198 -0.155845 22 99 146 0.000000 -1.000000 0.000000
0.233412 0.500124 -0.067530 22 99 146 0.000000 1.000000 0.000000
0.024602 0.500124 -0.674236 22 99 146 0.000000 1.000000 0.000000
0.178283 0.454239 -0.837278 22 99 146 0.000006 -1.000000 -0.000399
0.397835 0.454556 -0.743136 22 99 146 -0.000002 1.000000 0.000000
0.105709 0.454211 -0.767590 22 99 146 0.000006 -1.000000 -0.000399
0.368059 0.454556 -0.836832 22 99 146 -0.000002 1.000000 0.000000
0.358579 0.500124 -0.488910 22 99 146 0.000000 1.000000 0.000000
0.387477 0.454556 -0.607678 22 99 146 -0.000002 1.000000 0.000000
0.335984 0.454203 -0.734035 22 99 146 0.000004 -1.000000 -0.000058
0.525287 0.489074 -0.253924 22 99 146 0.979655 0.200691 -0.000009
0.477023 0.454556 -0.177448 22 99 146 -0.000002 1.000000 0.000000
0.011250 0.500124 -0.199955 22 99 146 0.000000 1.000000 0.000000
0.198457 0.454198 -0.284034 22 99 146 0.000000 -1.000000 0.000000
0.213619 0.454198 -0.584540 22 99 146 0.000000 -1.000000 0.000000
0.306137 0.454556 -0.151558 22 99 146 -0.000002 1.000000 0.000000
0.474376 0.454198 -0.177202 22 99 146 0.000000 -1.000000 0.000000
0.181240 0.344610 -0.226785 22 99 146 0.000000 -1.000000 0.000000
0.227983 0.454198 -0.372047 22 99 146 0.000000 -1.000000 0.000000
0.477855 0.454556 -0.486046 22 99 146 -0.000002 1.000000 0.000000
0.436424 0.454198 -0.386406 22 99 146 0.000000 -1.000000 0.000000
0.039434 0.344610 -0.797868 22 99 146 0.000000 -1.000000 0.000000
0.503487 0.454190 -0.918345 22 99 146 0.000000 1.000000 0.000000
0.070367 0.454198 -0.093237 22 99 146 0.000000 -1.000000 0.000000
0.351020 0.500124 -0.075874 22 99 146 0.000000 1.000000 0.000000
0.150422 0.454555 -0.033903 22 99 146 -0.000002 1.000000 0.000000
0.143980 0.389136 -0.945771 22 99 146 -0.000011 0.000000 -1.000000
0.502401 0.361442 -0.812073 22 99 146 0.927729 0.373254 -0.000009
-0.000974 0.454213 -0.774333 22 99 146 0.000006 -1.000000 -0.000399
0.357766 0.344610 -0.852333 22 99 146 0.000000 -1.000000 0.000000
0.077459 0.454555 -0.767138 22 99 146 -0.000002 1.000000 0.000000
0.264156 0.454556 -0.584168 22 99 146 -0.000002 1.000000 0.000000
0.474450 0.344610 -0.514097 22 99 146 0.000000 -1.000000 0.000000
0.495869 0.375322 -0.280031 22 99 146 1.000000 0.000000 -0.000011
0.100097 0.454255 -0.881289 22 99 146 -0.000007 -1.000000 -0.000355
0.163652 0.500124 -0.482842 22 99 146 0.000000 1.000000 0.000000
0.030454 0.344610 -0.793832 22 99 146 0.000000 -1.000000 0.000000
0.373162 0.500124 -0.535973 22 99 146 0.000000 1.000000 0.000000
0.409273 0.344610 -0.255327 22 99 146 0.000000 -1.000000 0.000000
0.473420 0.454556 -0.619845 22 99 146 -0.000002 1.000000 0.000000
0.226059 0.344610 -0.587783 22 99 146 0.000000 -1.000000 0.000000
0.344693 0.454198 -0.595254 22 99 146 0.000000 -1.000000 0.000000
0.517671 0.500124 -0.551583 22 99 146 0.000000 1.000000 0.000000
0.322756 0.500124 -0.093659 22 99 146 0.000000 1.000000 0.000000
0.454147 0.454198 -0.337018 22 99 146 0.000000 -1.000000 0.000000
0.255204 0.344610 -0.132195 22 99 146 0.000000 -1.000000 0.000000
0.096659 0.454555 -0.411218 22 99 146 -0.000002 1.000000 0.000000
0.278926 0.454556 -0.123851 22 99 146 -0.000002 1.000000 0.000000
0.261587 0.500124 -0.857193 22 99 146 0.000000 1.000000 0.000000
0.343873 0.500124 -0.068651 22 99 146 0.000000 1.000000 0.000000
0.038926 0.344610 -0.533961 22 99 146 0.000000 -1.000000 0.000000
0.408373 0.344610 -0.181567 22 99 146 0.000000 -1.000000 0.000000
0.409686 0.422337 -0.911761 22 99 146 -1.000000 0.000000 0.000000
0.494812 0.500124 -0.928832 22 99 146 0.000000 1.000000 0.000000
0.059226 0.344610 -0.784834 22 99 146 0.000000 -1.000000 0.000000
0.019863 0.454555 -0.904601 22 99 146 -0.000002 1.000000 0.000000
0.006305 0.454198 -0.165421 22 99 146 0.000000 -1.000000 0.000000
0.352190 0.454201 -0.699407 22 99 146 0.000004 -1.000000 -0.000058
0.495867 0.419480 -0.450287 22 99 146 1.000000 0.000000 -0.000011
0.138221 0.454555 -0.445094 22 99 146 -0.000002 1.000000 0.000000
0.232065 0.490753 -0.980468 22 99 146 0.269692 0.311054 -0.911324
0.497486 0.363872 -0.381854 22 99 146 0.000000 1.000000 0.000000
0.324505 0.500124 -0.316990 22 99 146 0.000000 1.000000 0.000000
0.108144 0.500124 -0.161775 22 99 146 0.000000 1.000000 0.000000
0.036251 0.500124 -0.946450 22 99 146 0.000000 1.000000 0.000000
0.250472 0.344610 -0.079847 22 99 146 0.000000 -1.000000 0.000000
0.026266 0.363872 -0.947671 22 99 146 0.000000 1.000000 0.000000
0.285804 0.454198 -0.190851 22 99 146 0.000000 -1.000000 0.000000
0.137177 0.482424 -0.996628 22 99 146 -0.000011 -0.331879 -0.943322
0.528700 0.475267 -0.070157 22 99 146 0.996175 0.087386 -0.000015
0.042323 0.344610 -0.726472 22 99 146 0.000000 -1.000000 0.000000
0.388829 0.423547 -0.945773 22 99 146 -0.000011 0.000000 -1.000000
0.273381 0.344610 -0.004568 22 99 146 0.000000 -1.000000 0.000000
0.358170 0.454305 -0.967234 22 99 146 0.000279 -0.999999 -0.001248
0.197377 0.344610 -0.298310 22 99 146 0.000000 -1.000000 0.000000
0.409686 0.363028 -0.944802 22 99 146 -1.000000 0.000000 0.000000
0.134766 0.454555 -0.865995 22 99 146 -0.000002 1.000000 0.000000
0.176885 0.344610 -0.410967 22 99 146 0.000000 -1.000000 0.000000
0.453570 0.454556 -0.821910 22 99 146 -0.000002 1.000000 0.000000
0.495864 0.391906 -0.738234 22 99 146 1.000000 0.000000 -0.000011
0.131161 0.344610 -0.116399 22 99 146 0.000000 -1.000000 0.000000
0.452444 0.344610 -0.344660 22 99 146 0.000000 -1.000000 0.000000
0.461429 0.454556 -0.248520 22 99 146 -0.000002 1.000000 0.000000
0.495872 0.411883 -0.027518 22 99 146 1.000000 0.000000 -0.000011
0.191981 0.454199 -0.679335 22 99 146 0.000004 -1.000000 -0.000058
0.185722 0.500124 -0.400952 22 99 146 0.000000 1.000000 0.000000
0.064767 0.344610 -0.225632 22 99 146 0.000000 -1.000000 0.000000
0.133304 0.454555 -0.649665 22 99 146 -0.000002 1.000000 0.000000
0.252307 0.344610 -0.543199 22 99 146 0.000000 -1.000000 0.000000
0.135745 0.500124 -0.596605 22 99 146 0.000000 1.000000 0.000000
0.070323 0.344610 -0.213568 22 99 146 0.000000 -1.000000 0.000000
0.471332 0.500124 -0.411074 22 99 146 0.000000 1.000000 0.000000
0.088599 0.454555 -0.592721 22 99 146 -0.000002 1.000000 0.000000
0.413188 0.454198 -0.635617 22 99 146 0.000000 -1.000000 0.000000
0.027782 0.454555 -0.259996 22 99 146 -0.000002 1.000000 0.000000
0.412157 0.454556 -0.240609 22 99 146 -0.000002 1.000000 0.000000
0.245872 0.344610 -0.186285 22 99 146 0.000000 -1.000000 0.000000
0.312216 0.454198 -0.625776 22 99 146 0.000000 -1.000000 0.000000
0.030609 0.344610 -0.598677 22 99 146 0.000000 -1.000000 0.000000
0.355888 0.500124 -0.244373 22 99 146 0.000000 1.000000 0.000000
0.502811 0.348043 -0.894627 22 99 146 0.927046 -0.374948 -0.000010
0.149137 0.454198 -0.440728 22 99 146 0.000000 -1.000000 0.000000
0.258923 0.454198 -0.455102 22 99 146 0.000000 -1.000000 0.000000
0.172753 0.454555 -0.762313 22 99 146 -0.000002 1.000000 0.000000
0.163837 0.344610 -0.782598 22 99 146 0.000000 -1.000000 0.000000
0.273079 0.454252 -0.875461 22 99 146 -0.000007 -1.000000 -0.000355
0.336666 0.454199 -0.666779 22 99 146 0.000004 -1.000000 -0.000058
0.312735 0.344610 -0.093884 22 99 146 0.000000 -1.000000 0.000000
0.458794 0.454556 -0.749849 22 99 146 -0.000002 1.000000 0.000000
0.248489 0.344610 -0.854514 22 99 146 0.000000 -1.000000 0.000000
0.366455 0.344610 -0.064577 22 99 146 0.000000 -1.000000 0.000000
0.319598 0.454556 -0.718404 22 99 146 -0.000002 1.000000 0.000000
0.248314 0.454556 -0.846214 22 99 146 -0.000002 1.000000 0.000000
0.156116 0.454555 -0.678934 22 99 146 -0.000002 1.000000 0.000000
0.409686 0.363716 -0.932435 22 99 146 -1.000000 0.000000 0.000000
0.346457 0.500124 -0.748161 22 99 146 0.000000 1.000000 0.000000
0.474195 0.347848 -0.761606 22 99 146 0.000000 1.000000 0.000000
0.038125 0.344610 -0.684260 22 99 146 0.000000 -1.000000 0.000000
0.432931 0.454556 -0.775302 22 99 146 -0.000002 1.000000 0.000000
0.240293 0.454556 -0.265367 22 99 146 -0.000002 1.000000 0.000000
0.114079 0.500124 -0.144220 22 99 146 0.000000 1.000000 0.000000
0.056274 0.454555 -0.355031 22 99 146 -0.000002 1.000000 0.000000
0.381942 0.443755 -0.945773 22 99 146 -0.000011 0.000000 -1.000000
0.495862 0.402415 -0.912223 22 99 146 1.000000 0.000000 -0.000011
0.267252 0.500124 -0.248017 22 99 146 0.000000 1.000000 0.000000
0.000297 0.500124 -0.189126 22 99 146 0.000000 1.000000 0.000000
0.529069 0.460705 -0.076809 22 99 146 0.945606 -0.325314 -0.000015
0.369304 0.344610 -0.509709 22 99 146 0.000000 -1.000000 0.000000
0.225340 0.344610 -0.015135 22 99 146 0.000000 -1.000000 0.000000
0.105304 0.500124 -0.699837 22 99 146 0.000000 1.000000 0.000000
0.267261 0.454556 -0.529529 22 99 146 -0.000002 1.000000 0.000000
0.448520 0.344610 -0.709767 22 99 146 0.000000 -1.000000 0.000000
0.333726 0.500124 -0.372364 22 99 146 0.000000 1.000000 0.000000
0.296905 0.500124 -0.739718 22 99 146 0.000000 1.000000 0.000000
0.124058 0.344610 -0.131355 22 99 146 0.000000 -1.000000 0.000000
0.336303 0.454556 -0.189646 22 99 146 -0.000002 1.000000 0.000000
0.134340 0.454198 -0.065707 22 99 146 0.000000 -1.000000 0.000000
0.196257 0.500124 -0.161144 22 99 146 0.000000 1.000000 0.000000
0.429499 0.454556 -0.452628 22 99 146 -0.000002 1.000000 0.000000
0.236077 0.344610 -0.740440 22 99 146 0.000000 -1.000000 0.000000
0.385697 0.454338 -0.987931 22 99 146 0.000279 -0.999999 -0.001248
0.012831 0.500124 -0.490993 22 99 146 0.000000 1.000000 0.000000
0.027968 0.500124 -0.108777 22 99 146 0.000000 1.000000 0.000000
0.018854 0.454555 -0.853882 22 99 146 -0.000002 1.000000 0.000000
0.415636 0.344610 -0.649662 22 99 146 0.000000 -1.000000 0.000000
0.437564 0.363872 -0.947601 22 99 146 0.000000 1.000000 0.000000
0.028264 0.500124 -0.514642 22 99 146 0.000000 1.000000 0.000000
0.283067 0.454556 -0.882671 22 99 146 -0.000002 1.000000 0.000000
0.231898 0.344610 -0.571822 22 99 146 0.000000 -1.000000 0.000000
0.379143 0.344610 -0.575236 22 99 146 0.000000 -1.000000 0.000000
0.495871 0.452762 -0.079885 22 99 146 1.000000 0.000000 -0.000011
0.153766 0.454220 -0.790903 22 99 146 0.000006 -1.000000 -0.000399
0.129591 0.454198 -0.592558 22 99 146 0.000000 -1.000000 0.000000
0.064930 0.500124 -0.932211 22 99 146 0.000000 1.000000 0.000000
0.391308 0.455980 -0.993412 22 99 146 -0.010013 -0.325765 -0.945398
0.367572 0.454556 -0.442957 22 99 146 -0.000002 1.000000 0.000000
0.424168 0.454556 -0.650430 22 99 146 -0.000002 1.000000 0.000000
0.319860 0.500124 -0.213441 22 99 146 0.000000 1.000000 0.000000
0.125619 0.454555 -0.135642 22 99 146 -0.000002 1.000000 0.000000
0.378905 0.344610 -0.107735 22 99 146 0.000000 -1.000000 0.000000
0.447870 0.500124 -0.340236 22 99 146 0.000000 1.000000 0.000000
0.298620 0.454200 -0.694752 22 99 146 0.000004 -1.000000 -0.000058
0.010385 0.363872 -0.946466 22 99 146 0.000000 1.000000 0.000000
0.152179 0.454208 -0.760439 22 99 146 0.000006 -1.000000 -0.000399
0.085022 0.344610 -0.367800 22 99 146 0.000000 -1.000000 0.000000
0.467196 0.500124 -0.478284 22 99 146 0.000000 1.000000 0.000000
0.270693 0.454556 -0.925440 22 99 146 -0.000002 1.000000 0.000000
0.240431 0.344610 -0.228744 22 99 146 0.000000 -1.000000 0.000000
0.052274 0.454555 -0.317598 22 99 146 -0.000002 1.000000 0.000000
0.263306 0.344610 -0.501304 22 99 146 0.000000 -1.000000 0.000000
0.100519 0.500124 -0.667372 22 99 146 0.000000 1.000000 0.000000
0.496720 0.363872 -0.615408 22 99 146 0.000000 1.000000 0.000000
0.276664 0.454198 -0.532627 22 99 146 0.000000 -1.000000 0.000000
0.192964 0.454198 -0.367321 22 99 146 0.000000 -1.000000 0.000000
0.192824 0.500124 -0.162296 22 99 146 0.000000 1.000000 0.000000
0.171456 0.404725 -0.945771 22 99 146 -0.000011 0.000000 -1.000000
0.303541 0.454556 -0.916764 22 99 146 -0.000002 1.000000 0.000000
0.259420 0.454267 -0.919049 22 99 146 -0.000007 -1.000000 -0.000355
0.466826 0.344610 -0.529191 22 99 146 0.000000 -1.000000 0.000000
0.159415 0.454198 -0.410585 22 99 146 0.000000 -1.000000 0.000000
0.354074 0.344610 -0.113634 22 99 146 0.000000 -1.000000 0.000000
0.347104 0.454214 -0.772780 22 99 146 0.000006 -1.000000 -0.000399
0.024446 0.344610 -0.876788 22 99 146 0.000000 -1.000000 0.000000
0.391423 0.454243 -0.853599 22 99 146 -0.000402 -1.000000 0.000050
0.081142 0.344610 -0.781354 22 99 146 0.000000 -1.000000 0.000000
0.521760 0.497417 -0.613789 22 99 146 1.000000 0.000000 -0.000009
0.484246 0.454198 -0.439108 22 99 146 0.000000 -1.000000 0.000000
0.068418 0.454555 -0.033644 22 99 146 -0.000002 1.000000 0.000000
0.082656 0.454198 -0.403102 22 99 146 0.000000 -1.000000 0.000000
0.097034 0.344610 -0.224746 22 99 146 0.000000 -1.000000 0.000000
0.248310 0.454556 -0.257774 22 99 146 -0.000002 1.000000 0.000000
0.211401 0.344610 -0.870571 22 99 146 0.000000 -1.000000 0.000000
0.229025 0.454198 -0.122607 22 99 146 0.000000 -1.000000 0.000000
0.501267 0.500124 -0.208194 22 99 146 0.000000 1.000000 0.000000
0.202007 0.454198 -0.195260 22 99 146 0.000000 -1.000000 0.000000
0.254112 0.454556 -0.445423 22 99 146 -0.000002 1.000000 0.000000
0.365291 0.454251 -0.901463 22 99 146 -0.000402 -1.000000 0.000050
0.342702 0.454198 -0.201395 22 99 146 0.000000 -1.000000 0.000000
0.173169 0.500124 -0.590443 22 99 146 0.000000 1.000000 0.000000
0.187540 0.454198 -0.188628 22 99 146 0.000000 -1.000000 0.000000
0.524025 0.454211 -0.860692 22 99 146 -0.009461 -0.999955 -0.000510
0.164943 0.454555 -0.812605 22 99 146 -0.000002 1.000000 0.000000
0.449061 0.454198 -0.484218 22 99 146 0.000000 -1.000000 0.000000
0.454702 0.454190 -0.864630 22 99 146 0.000000 1.000000 0.000000
0.470027 0.344610 -0.272227 22 99 146 0.000000 -1.000000 0.000000
0.222688 0.344610 -0.163369 22 99 146 0.000000 -1.000000 0.000000
0.198777 0.500124 -0.104670 22 99 146 0.000000 1.000000 0.000000
0.076026 0.500124 -0.916205 22 99 146 0.000000 1.000000 0.000000
0.001897 0.500124 -0.484010 22 99 146 0.000000 1.000000 0.000000
0.189585 0.454555 -0.501211 22 99 146 -0.000002 1.000000 0.000000
0.229882 0.454202 -0.738864 22 99 146 0.000004 -1.000000 -0.000058
0.266317 0.454556 -0.752467 22 99 146 -0.000002 1.000000 0.000000
0.236559 0.500124 -0.361762 22 99 146 0.000000 1.000000 0.000000
0.054422 0.454555 -0.934287 22 99 146 -0.000002 1.000000 0.000000
0.185382 0.454555 -0.141995 22 99 146 -0.000002 1.000000 0.000000
0.389121 0.454556 -0.583457 22 99 146 -0.000002 1.000000 0.000000
0.145694 0.454198 -0.534802 22 99 146 0.000000 -1.000000 0.000000
0.306981 0.344610 -0.393791 22 99 146 0.000000 -1.000000 0.000000
0.469918 0.397710 -0.945751 22 99 146 0.359632 -0.015101 -0.932972
0.495867 0.414306 -0.458576 22 99 146 1.000000 0.000000 -0.000011
0.218338 0.454198 -0.475779 22 99 146 0.000000 -1.000000 0.000000
0.109380 0.344610 -0.616680 22 99 146 0.000000 -1.000000 0.000000
0.180501 0.344610 -0.160261 22 99 146 0.000000 -1.000000 0.000000
0.162431 0.500124 -0.163666 22 99 146 0.000000 1.000000 0.000000
0.453989 0.344610 -0.045980 22 99 146 0.000000 -1.000000 0.000000
0.059964 0.391577 -0.945770 22 99 146 -0.000011 0.000000 -1.000000
0.152326 0.500124 -0.971790 22 99 146 0.000000 1.000000 0.000000
0.285651 0.454198 -0.136768 22 99 146 0.000000 -1.000000 0.000000
0.283156 0.454198 -0.149892 22 99 146 0.000000 -1.000000 0.000000
0.387803 0.343917 -0.867720 22 99 146 -0.092070 0.984834 0.147057
0.035944 0.454228 -0.811822 22 99 146 0.000006 -1.000000 -0.000399
0.446192 0.454213 -0.771093 22 99 146 -0.000007 -1.000000 -0.000355
0.226030 0.454243 -0.849690 22 99 146 -0.000007 -1.000000 -0.000355
0.041262 0.500124 -0.296632 22 99 146 0.000000 1.000000 0.000000
0.095872 0.344610 -0.877314 22 99 146 0.000000 -1.000000 0.000000
0.076647 0.344610 -0.188180 22 99 146 0.000000 -1.000000 0.000000
0.356229 0.344610 -0.609043 22 99 146 0.000000 -1.000000 0.000000
0.427561 0.500124 -0.779825 22 99 146 0.000000 1.000000 0.000000
0.503830 0.487426 -0.938785 22 99 146 0.803701 0.304307 -0.511333
0.244209 0.500124 -0.424773 22 99 146 0.000000 1.000000 0.000000
0.122491 0.454555 -0.362187 22 99 146 -0.000002 1.000000 0.000000
0.160004 0.454198 -0.222113 22 99 146 0.000000 -1.000000 0.000000
0.033980 0.454555 -0.073795 22 99 146 -0.000002 1.000000 0.000000
0.305213 0.500124 -0.763667 22 99 146 0.000000 1.000000 0.000000
0.497531 0.363872 -0.701842 22 99 146 0.000000 1.000000 0.000000
0.036960 0.454555 -0.226546 22 99 146 -0.000002 1.000000 0.000000
0.399681 0.454556 -0.579674 22 99 146 -0.000002 1.000000 0.000000
0.126050 0.344610 -0.568385 22 99 146 0.000000 -1.000000 0.000000
0.276098 0.500124 -0.259577 22 99 146 0.000000 1.000000 0.000000
0.359557 0.454556 -0.845327 22 99 146 -0.000002 1.000000 0.000000
0.190369 0.344610 -0.222093 22 99 146 0.000000 -1.000000 0.000000
0.495870 0.400242 -0.205370 22 99 146 1.000000 0.000000 -0.000011
0.162783 0.454555 -0.906502 22 99 146 -0.000002 1.000000 0.000000
0.114984 0.454198 -0.440657 22 99 146 0.000000 -1.000000 0.000000
0.226627 0.454198 -0.351016 22 99 146 0.000000 -1.000000 0.000000
0.333137 0.454198 -0.602179 22 99 146 0.000000 -1.000000 0.000000
0.128175 0.500124 -0.781767 22 99 146 0.000000 1.000000 0.000000
0.036021 0.454555 -0.180509 22 99 146 -0.000002 1.000000 0.000000
0.076520 0.454198 -0.236903 22 99 146 0.000000 -1.000000 0.000000
0.164706 0.344610 -0.916470 22 99 146 0.000000 -1.000000 0.000000
0.350712 0.344610 -0.526618 22 99 146 0.000000 -1.000000 0.000000
0.466681 0.381353 -0.863926 22 99 146 0.000000 0.000000 1.000000
0.180454 0.344610 -0.612033 22 99 146 0.000000 -1.000000 0.000000
0.279672 0.500124 -0.774515 22 99 146 0.000000 1.000000 0.000000
0.459904 0.344610 -0.428575 22 99 146 0.000000 -1.000000 0.000000
0.398120 0.454239 -0.841718 22 99 146 -0.000007 -1.000000 -0.000355
0.271374 0.500124 -0.800303 22 99 146 0.000000 1.000000 0.000000
0.171068 0.454333 -0.984542 22 99 146 -0.000007 -0.999993 -0.003732
0.077970 0.500124 -0.251273 22 99 146 0.000000 1.000000 0.000000
0.380282 0.344610 -0.229613 22 99 146 0.000000 -1.000000 0.000000
0.330480 0.500124 -0.803392 22 99 146 0.000000 1.000000 0.000000
0.333451 0.500124 -0.392187 22 99 146 0.000000 1.000000 0.000000
0.243901 0.344610 -0.165162 22 99 146 0.000000 -1.000000 0.000000
0.170112 0.500124 -0.001262 22 99 146 0.000000 1.000000 0.000000
0.255874 0.454198 -0.350260 22 99 146 0.000000 -1.000000 0.000000
0.060415 0.454555 -0.779359 22 99 146 -0.000002 1.000000 0.000000
0.495871 0.383339 -0.096021 22 99 146 1.000000 0.000000 -0.000011
0.443975 0.344610 -0.030322 22 99 146 0.000000 -1.000000 0.000000
0.203279 0.344610 -0.673649 22 99 146 0.000000 -1.000000 0.000000
0.057481 0.344610 -0.852635 22 99 146 0.000000 -1.000000 0.000000
0.246516 0.344610 -0.045290 22 99 146 0.000000 -1.000000 0.000000
0.119744 0.344610 -0.159970 22 99 146 0.000000 -1.000000 0.000000
0.471043 0.454198 -0.114025 22 99 146 0.000000 -1.000000 0.000000
0.334953 0.454556 -0.561407 22 99 146 -0.000002 1.000000 0.000000
0.453158 0.454315 -0.948478 22 99 146 0.000854 -0.999998 -0.001691
0.295124 0.344610 -0.149311 22 99 146 0.000000 -1.000000 0.000000
0.460323 0.500124 -0.835218 22 99 146 0.000000 1.000000 0.000000
0.069274 0.454555 -0.656161 22 99 146 -0.000002 1.000000 0.000000
0.088741 0.500124 -0.752917 22 99 146 0.000000 1.000000 0.000000
0.453264 0.454198 -0.543887 22 99 146 0.000000 -1.000000 0.000000
0.407847 0.454198 -0.337451 22 99 146 0.000000 -1.000000 0.000000
0.249789 0.500124 -0.060849 22 99 146 0.000000 1.000000 0.000000
0.418266 0.500124 -0.185434 22 99 146 0.000000 1.000000 0.000000
0.154440 0.344610 -0.896134 22 99 146 0.000000 -1.000000 0.000000
0.188047 0.344610 -0.522932 22 99 146 0.000000 -1.000000 0.000000
0.450299 0.454198 -0.512553 22 99 146 0.000000 -1.000000 0.000000
0.426124 0.344610 -0.312040 22 99 146 0.000000 -1.000000 0.000000
0.179895 0.454215 -0.778349 22 99 146 0.000006 -1.000000 -0.000399
0.193435 0.500124 -0.307921 22 99 146 0.000000 1.000000 0.000000
0.159298 0.454555 -0.519422 22 99 146 -0.000002 1.000000 0.000000
0.069595 0.344610 -0.842324 22 99 146 0.000000 -1.000000 0.000000
0.415026 0.500124 -0.030016 22 99 146 0.000000 1.000000 0.000000
0.228481 0.454198 -0.583129 22 99 146 0.000000 -1.000000 0.000000
0.139315 0.500124 -0.423317 22 99 146 0.000000 1.000000 0.000000
0.085230 0.344610 -0.816305 22 99 146 0.000000 -1.000000 0.000000
0.203810 0.454556 -0.941426 22 99 146 0.000000 1.000000 0.000105
0.455551 0.454198 -0.371626 22 99 146 0.000000 -1.000000 0.000000
0.464236 0.454556 -0.489559 22 99 146 -0.000002 1.000000 0.000000
0.028809 0.454555 -0.466839 22 99 146 -0.000002 1.000000 0.000000
0.024917 0.454555 -0.244118 22 99 146 -0.000002 1.000000 0.000000
0.047922 0.344610 -0.726501 22 99 146 0.000000 -1.000000 0.000000
0.495863 0.373645 -0.797429 22 99 146 1.000000 0.000000 -0.000011
0.249716 0.344610 -0.412063 22 99 146 0.000000 -1.000000 0.000000
0.250464 0.344610 -0.699659 22 99 146 0.000000 -1.000000 0.000000
0.011283 0.500124 -0.512162 22 99 146 0.000000 1.000000 0.000000
0.211960 0.454198 -0.397160 22 99 146 0.000000 -1.000000 0.000000
0.128595 0.454250 -0.868076 22 99 146 -0.000007 -1.000000 -0.000355
0.400054 0.344610 -0.622559 22 99 146 0.000000 -1.000000 0.000000
0.238365 0.454556 -0.071426 22 99 146 -0.000002 1.000000 0.000000
0.159550 0.454213 -0.772054 22 99 146 0.000006 -1.000000 -0.000399
0.244754 0.454236 -0.829695 22 99 146 -0.000007 -1.000000 -0.000355
0.407978 0.454198 -0.042224 22 99 146 0.000000 -1.000000 0.000000
0.129166 0.454555 -0.668671 22 99 146 -0.000002 1.000000 0.000000
0.019310 0.454555 -0.178673 22 99 146 -0.000002 1.000000 0.000000
0.310210 0.344610 -0.779505 22 99 146 0.000000 -1.000000 0.000000
0.428690 0.500124 -0.045578 22 99 146 0.000000 1.000000 0.000000
0.373270 0.344610 -0.408559 22 99 146 0.000000 -1.000000 0.000000
0.238551 0.454198 -0.078690 22 99 146 0.000000 -1.000000 0.000000
0.140080 0.500124 -0.137518 22 99 146 0.000000 1.000000 0.000000
0.081355 0.344610 -0.929323 22 99 146 0.000000 -1.000000 0.000000
0.143320 0.454198 -0.415581 22 99 146 0.000000 -1.000000 0.000000
0.329763 0.500124 -0.958644 22 99 146 0.000000 1.000000 0.000000
0.109420 0.454198 -0.168943 22 99 146 0.000000 -1.000000 0.000000
0.435656 0.454198 -0.626270 22 99 146 0.000000 -1.000000 0.000000
0.212620 0.454555 -0.850089 22 99 146 -0.000002 1.000000 0.000000
0.175510 0.344610 -0.818474 22 99 146 0.000000 -1.000000 0.000000
0.529142 0.463264 -0.402653 22 99 146 1.000000 0.000000 -0.000015
0.300227 0.344610 -0.397393 22 99 146 0.000000 -1.000000 0.000000
0.201218 0.500124 -0.479764 22 99 146 0.000000 1.000000 0.000000
0.081315 0.500124 -0.149400 22 99 146 0.000000 1.000000 0.000000
0.479778 0.454556 -0.099933 22 99 146 -0.000002 1.000000 0.000000
0.030928 0.454198 -0.341015 22 99 146 0.000000 -1.000000 0.000000
0.086318 0.344610 -0.766249 22 99 146 0.000000 -1.000000 0.000000
0.326236 0.500124 -0.317965 22 99 146 0.000000 1.000000 0.000000
0.362491 0.344610 -0.895569 22 99 146 0.000000 -1.000000 0.000000
0.426628 0.344610 -0.945497 22 99 146 0.000000 -1.000000 0.000000
0.107808 0.500124 -0.696848 22 99 146 0.000000 1.000000 0.000000
0.117347 0.454555 -0.098393 22 99 146 -0.000002 1.000000 0.000000
0.310570 0.454198 -0.513287 22 99 146 0.000000 -1.000000 0.000000
0.264848 0.454198 -0.320373 22 99 146 0.000000 -1.000000 0.000000
0.002350 0.454555 -0.297841 22 99 146 -0.000002 1.000000 0.000000
0.412275 0.344610 -0.187446 22 99 146 0.000000 -1.000000 0.000000
0.106396 0.500124 -0.431851 22 99 146 0.000000 1.000000 0.000000
0.169552 0.344610 -0.528342 22 99 146 0.000000 -1.000000 0.000000
0.159540 0.500124 -0.006047 22 99 146 0.000000 1.000000 0.000000
0.370541 0.500124 -0.876664 22 99 146 0.000000 1.000000 0.000000
0.089991 0.500124 -0.770868 22 99 146 0.000000 1.000000 0.000000
0.131063 0.500124 -0.085453 22 99 146 0.000000 1.000000 0.000000
0.118113 0.344610 -0.359381 22 99 146 0.000000 -1.000000 0.000000
0.210065 0.500124 -0.814959 22 99 146 0.000000 1.000000 0.000000
0.424829 0.500124 -0.901536 22 99 146 0.000000 1.000000 0.000000
0.092958 0.500124 -0.840145 22 99 146 0.000000 1.000000 0.000000
0.320717 0.500124 -0.953087 22 99 146 0.000000 1.000000 0.000000
0.271350 0.454198 -0.550468 22 99 146 0.000000 -1.000000 0.000000
0.279324 0.344610 -0.394177 22 99 146 0.000000 -1.000000 0.000000
0.235483 0.454556 -0.573458 22 99 146 -0.000002 1.000000 0.000000
0.445016 0.500124 -0.383598 22 99 146 0.000000 1.000000 0.000000
0.171855 0.344610 -0.859799 22 99 146 0.000000 -1.000000 0.000000
0.128257 0.454555 -0.495755 22 99 146 -0.000002 1.000000 0.000000
-0.001451 0.344610 -0.370441 22 99 146 0.000000 -1.000000 0.000000
0.344281 0.344610 -0.676624 22 99 146 0.000000 -1.000000 0.000000
0.383491 0.454556 -0.047006 22 99 146 -0.000002 1.000000 0.000000
0.512024 0.454197 -0.803183 22 99 146 -0.000402 -1.000000 0.000050
0.375990 0.454198 -0.620005 22 99 146 0.000000 -1.000000 0.000000
0.499698 0.500124 -0.067983 22 99 146 0.000000 1.000000 0.000000
0.495864 0.393270 -0.702068 22 99 146 1.000000 0.000000 -0.000011
0.011757 0.367215 -0.945769 22 99 146 -0.000011 0.000000 -1.000000
0.279753 0.344610 -0.663580 22 99 146 0.000000 -1.000000 0.000000
0.335053 0.344610 -0.308690 22 99 146 0.000000 -1.000000 0.000000
0.079079 0.454555 -0.035208 22 99 146 -0.000002 1.000000 0.000000
0.318730 0.454198 -0.022165 22 99 146 0.000000 -1.000000 0.000000
0.152029 0.454199 -0.640258 22 99 146 -0.000009 -0.999999 -0.001451
