ply
format ascii 1.0
element vertex 730
property float x
property float y
property float z
property uchar red
property uchar green
property uchar blue
property float nx
property float ny
property float nz
end_header
-0.565310 0.930109 -0.656432 203 6 93 0.000000 -0.140826 -0.990034
-0.296794 0.899783 -0.432446 203 6 93 0.000002 -1.000000 0.000398
-0.176214 1.000000 -0.602976 203 6 93 0.000000 1.000000 0.000000
-0.454907 1.000000 -0.124388 203 6 93 0.000000 1.000000 0.000000
-0.114943 1.000000 -0.011070 203 6 93 0.000000 1.000000 0.000000
-0.304953 0.899823 -0.245475 203 6 93 0.000419 -1.000000 0.000021
-0.075405 0.899786 -0.427487 203 6 93 0.000002 -1.000000 0.000398
-0.507702 1.000000 -0.164178 203 6 93 0.000000 1.000000 0.000000
-0.179728 0.899823 -0.333742 203 6 93 0.000002 -1.000000 0.000398
-0.227933 1.000000 -0.300063 203 6 93 0.000000 1.000000 0.000000
-0.203574 1.000000 -0.083066 203 6 93 0.000000 1.000000 0.000000
-0.007105 0.899939 -0.041876 203 6 93 0.000002 -1.000000 0.000398
-0.042446 0.899938 -0.003216 203 6 93 0.000419 -1.000000 0.000021
-0.248068 1.000000 -0.522004 203 6 93 0.000000 1.000000 0.000000
-0.647730 0.906955 -0.413929 203 6 93 -0.514632 -0.857411 0.000000
-0.092132 0.899877 -0.199162 203 6 93 0.000002 -1.000000 0.000398
-0.214346 0.899749 -0.518903 203 6 93 0.000002 -1.000000 0.000398
-0.489031 1.000000 -0.011337 203 6 93 0.000000 1.000000 0.000000
-0.393807 0.893384 -0.600731 203 6 93 0.000235 0.000000 -1.000000
-0.613385 0.899706 -0.206280 203 6 93 0.000000 -1.000000 0.000000
-0.248286 0.899815 -0.353715 203 6 93 0.000002 -1.000000 0.000398
-0.249546 0.899802 -0.386483 203 6 93 0.000002 -1.000000 0.000398
-0.588469 1.000000 -0.174937 203 6 93 0.000000 1.000000 0.000000
-0.035574 1.000000 -0.422602 203 6 93 0.000000 1.000000 0.000000
-0.648911 0.991590 -0.348748 203 6 93 -0.857287 0.514839 0.000000
-0.528303 0.899724 -0.542313 203 6 93 0.000419 -1.000000 0.000021
-0.488221 0.899707 -0.622173 203 6 93 0.000000 -1.000000 0.000452
-0.153542 0.899797 -0.398297 203 6 93 0.000002 -1.000000 0.000398
-0.460982 1.000000 -0.503453 203 6 93 0.000000 1.000000 0.000000
-0.656202 0.965620 -0.031898 203 6 93 -1.000000 0.000000 0.000000
-0.113598 0.899732 -0.563531 203 6 93 0.000002 -1.000000 0.000398
-0.341196 0.899808 -0.259439 203 6 93 0.000419 -1.000000 0.000021
-0.488654 0.912617 -0.651913 203 6 93 0.000000 -0.514994 -0.857194
-0.040716 0.899843 -0.282941 203 6 93 0.000002 -1.000000 0.000398
-0.619384 1.000000 -0.180123 203 6 93 0.000000 1.000000 0.000000
-0.448496 0.899762 -0.325381 203 6 93 0.000419 -1.000000 0.000021
-0.403925 0.899786 -0.051400 203 6 93 0.000419 -1.000000 0.000021
-0.233335 0.899807 -0.373344 203 6 93 0.000002 -1.000000 0.000398
-0.227833 0.899853 -0.258710 203 6 93 0.000002 -1.000000 0.000398
-0.241049 1.000000 -0.004057 203 6 93 0.000000 1.000000 0.000000
-0.090750 0.899865 -0.228605 203 6 93 0.000002 -1.000000 0.000398
-0.281953 0.899834 -0.168736 203 6 93 0.000419 -1.000000 0.000021
-0.429192 1.000000 -0.604228 203 6 93 0.000000 1.000000 0.000000
-0.083441 0.895296 -0.524314 203 6 93 0.000000 1.000000 0.000000
-0.199019 1.000000 -0.612236 203 6 93 0.000000 1.000000 0.000000
-0.539163 0.899722 -0.404700 203 6 93 0.000419 -1.000000 0.000021
-0.656202 0.930653 -0.460398 203 6 93 -1.000000 0.000000 0.000000
-0.360503 1.000000 -0.549258 203 6 93 0.000000 1.000000 0.000000
-0.193290 1.000000 -0.515291 203 6 93 0.000000 1.000000 0.000000
-0.162324 1.000000 -0.226988 203 6 93 0.000000 1.000000 0.000000
-0.607309 1.000000 -0.403034 203 6 93 0.000000 1.000000 0.000000
-0.292854 0.899827 -0.298364 203 6 93 0.000419 -1.000000 0.000021
-0.618595 1.000000 -0.277148 203 6 93 0.000000 1.000000 0.000000
-0.381303 0.899793 -0.167344 203 6 93 0.000419 -1.000000 0.000021
-0.257249 1.000000 -0.472120 203 6 93 0.000000 1.000000 0.000000
-0.656202 0.940570 -0.009439 203 6 93 -1.000000 0.000000 0.000000
-0.598243 0.998018 -0.637429 203 6 93 -0.208813 0.800058 -0.562410
-0.043885 0.899811 -0.364664 203 6 93 0.000002 -1.000000 0.000398
-0.105719 0.899714 -0.608234 203 6 93 0.000000 -1.000000 0.000452
-0.509884 0.920251 -0.655030 203 6 93 0.000000 -0.140826 -0.990034
-0.343749 0.926964 -0.655985 203 6 93 0.000000 -0.140826 -0.990034
-0.318999 1.000000 -0.499345 203 6 93 0.000000 1.000000 0.000000
-0.023533 0.899714 -0.607602 203 6 93 0.000000 -1.000000 0.000452
-0.207289 1.000000 -0.288699 203 6 93 0.000000 1.000000 0.000000
-0.404121 0.899756 -0.501281 203 6 93 0.000002 -1.000000 0.000398
-0.318534 0.899819 -0.162336 203 6 93 0.000419 -1.000000 0.000021
-0.413408 0.899777 -0.283280 203 6 93 0.000419 -1.000000 0.000021
-0.107431 0.973211 -0.655917 203 6 93 0.000000 0.140887 -0.990026
-0.510037 1.000000 -0.122614 203 6 93 0.000000 1.000000 0.000000
-0.656202 0.937300 -0.563432 203 6 93 -1.000000 0.000000 0.000000
-0.319150 0.899732 -0.561705 203 6 93 0.000002 -1.000000 0.000398
-0.462773 0.904108 -0.396255 203 6 93 0.000000 1.000000 0.000000
-0.019844 1.000000 -0.549272 203 6 93 0.000000 1.000000 0.000000
-0.462904 0.899757 -0.247086 203 6 93 0.000419 -1.000000 0.000021
-0.520575 1.000000 -0.611831 203 6 93 0.000000 1.000000 0.000000
-0.651444 0.912326 -0.546887 203 6 93 -0.857191 -0.514998 0.000000
-0.547518 0.899718 -0.409089 203 6 93 0.000419 -1.000000 0.000021
-0.098518 0.899913 -0.078491 203 6 93 0.000419 -1.000000 0.000021
-0.243893 0.899850 -0.182714 203 6 93 0.000419 -1.000000 0.000021
-0.632769 0.998942 -0.468066 203 6 93 -0.141423 0.989949 0.000000
-0.511382 1.000000 -0.284255 203 6 93 0.000000 1.000000 0.000000
-0.582291 1.000000 -0.362341 203 6 93 0.000000 1.000000 0.000000
-0.519900 1.000000 -0.591157 203 6 93 0.000000 1.000000 0.000000
-0.372667 0.899720 -0.592058 203 6 93 0.000002 -1.000000 0.000398
-0.543869 1.000000 -0.626623 203 6 93 0.000000 -1.000000 0.000000
-0.534326 0.899730 -0.100617 203 6 93 0.000419 -1.000000 0.000021
-0.454631 0.895296 -0.338192 203 6 93 0.000000 1.000000 0.000000
-0.447437 1.000000 -0.426015 203 6 93 0.000000 1.000000 0.000000
-0.642810 0.904002 -0.150375 203 6 93 -0.514632 -0.857411 0.000000
-0.464759 1.000000 -0.264964 203 6 93 0.000000 1.000000 0.000000
-0.160796 0.899723 -0.584676 203 6 93 0.000002 -1.000000 0.000398
-0.308734 0.899822 -0.214701 203 6 93 0.000419 -1.000000 0.000021
-0.400655 1.000000 -0.123003 203 6 93 0.000000 1.000000 0.000000
-0.044712 0.899738 -0.547081 203 6 93 0.000002 -1.000000 0.000398
-0.242993 0.899853 -0.041945 203 6 93 0.000419 -1.000000 0.000021
-0.417323 1.000000 -0.131143 203 6 93 0.000000 1.000000 0.000000
-0.578379 1.000000 -0.258739 203 6 93 0.000000 1.000000 0.000000
-0.083733 0.899861 -0.237605 203 6 93 0.000002 -1.000000 0.000398
-0.005321 1.000000 -0.520862 203 6 93 0.000000 1.000000 0.000000
-0.419630 0.899774 -0.312772 203 6 93 0.000419 -1.000000 0.000021
-0.632891 0.953172 -0.633997 203 6 93 -0.707109 0.000000 -0.707104
-0.529962 0.899722 -0.566261 203 6 93 0.000419 -1.000000 0.000021
-0.488734 0.899747 -0.201902 203 6 93 0.000419 -1.000000 0.000021
-0.654019 0.983085 -0.528290 203 6 93 -0.857287 0.514839 0.000000
-0.177937 0.895296 -0.468273 203 6 93 0.000000 1.000000 0.000000
-0.007400 0.895296 -0.491063 203 6 93 0.000000 1.000000 0.000000
-0.544936 0.899714 -0.604427 203 6 93 0.000002 -1.000000 0.000398
-0.406091 1.000000 -0.077562 203 6 93 0.000000 1.000000 0.000000
-0.316599 1.000000 -0.099163 203 6 93 0.000000 1.000000 0.000000
-0.486041 0.899752 -0.033708 203 6 93 0.000419 -1.000000 0.000021
-0.419563 0.899777 -0.143922 203 6 93 0.000419 -1.000000 0.000021
-0.299232 1.000000 -0.545506 203 6 93 0.000000 1.000000 0.000000
-0.598972 0.926303 -0.652542 203 6 93 -0.109256 -0.123236 -0.986345
-0.420372 1.000000 -0.237201 203 6 93 0.000000 1.000000 0.000000
-0.556167 1.000000 -0.128551 203 6 93 0.000000 1.000000 0.000000
-0.146071 0.899893 -0.098894 203 6 93 0.000419 -1.000000 0.000021
-0.656202 0.939816 -0.083173 203 6 93 -1.000000 0.000000 0.000000
-0.622624 1.000000 -0.125659 203 6 93 0.000000 1.000000 0.000000
-0.196057 0.938460 -0.656494 203 6 93 0.000000 0.000000 -1.000000
-0.074294 0.899735 -0.555371 203 6 93 0.000002 -1.000000 0.000398
-0.280710 0.899798 -0.396921 203 6 93 0.000002 -1.000000 0.000398
-0.504543 0.899742 -0.120349 203 6 93 0.000419 -1.000000 0.000021
-0.230585 0.899725 -0.578470 203 6 93 0.000002 -1.000000 0.000398
-0.652229 0.986066 -0.280221 203 6 93 -0.857287 0.514839 0.000000
-0.450779 0.895296 -0.350620 203 6 93 0.000000 1.000000 0.000000
-0.256568 0.899755 -0.502953 203 6 93 0.000002 -1.000000 0.000398
-0.236641 0.998112 -0.638876 203 6 93 0.000000 0.989952 -0.141402
-0.335405 1.000000 -0.148257 203 6 93 0.000000 1.000000 0.000000
-0.500062 0.899738 -0.431138 203 6 93 0.000419 -1.000000 0.000021
-0.194296 0.891975 -0.531794 203 6 93 0.000000 0.000000 -1.000000
-0.452520 0.895296 -0.289874 203 6 93 0.000000 1.000000 0.000000
-0.258807 1.000000 -0.297328 203 6 93 0.000000 1.000000 0.000000
-0.027978 0.899860 -0.241451 203 6 93 0.000002 -1.000000 0.000398
-0.636128 0.901242 -0.322024 203 6 93 -0.141280 -0.989970 0.000000
-0.603880 1.000000 -0.034598 203 6 93 0.000000 1.000000 0.000000
-0.656202 0.950674 -0.133554 203 6 93 -1.000000 0.000000 0.000000
-0.654401 0.929191 -0.582883 203 6 93 -0.983967 -0.141063 -0.109130
-0.307163 1.000000 -0.327628 203 6 93 0.000000 1.000000 0.000000
-0.574650 0.973891 -0.655089 203 6 93 -0.108998 0.140792 -0.984021
-0.541850 0.899727 -0.117103 203 6 93 0.000419 -1.000000 0.000021
-0.324956 0.899813 -0.320927 203 6 93 0.000419 -1.000000 0.000021
-0.136243 1.000000 -0.371681 203 6 93 0.000000 1.000000 0.000000
-0.480148 0.899755 -0.014119 203 6 93 0.000419 -1.000000 0.000021
-0.095117 0.899814 -0.356499 203 6 93 0.000002 -1.000000 0.000398
-0.649159 0.991178 -0.167500 203 6 93 -0.857287 0.514839 0.000000
-0.236852 0.899856 -0.022801 203 6 93 0.000419 -1.000000 0.000021
-0.590455 1.000000 -0.176789 203 6 93 0.000000 1.000000 0.000000
-0.144628 0.899893 -0.096209 203 6 93 0.000419 -1.000000 0.000021
-0.136413 1.000000 -0.368300 203 6 93 0.000000 1.000000 0.000000
-0.592024 1.000000 -0.386494 203 6 93 0.000000 1.000000 0.000000
-0.426630 1.000000 -0.539438 203 6 93 0.000000 1.000000 0.000000
-0.459553 0.899761 -0.124496 203 6 93 0.000419 -1.000000 0.000021
-0.476805 0.899755 -0.074230 203 6 93 0.000419 -1.000000 0.000021
-0.472573 1.000000 -0.299020 203 6 93 0.000000 1.000000 0.000000
-0.260203 1.000000 -0.117217 203 6 93 0.000000 1.000000 0.000000
-0.442606 0.899769 -0.098673 203 6 93 0.000419 -1.000000 0.000021
-0.459953 0.899763 -0.044864 203 6 93 0.000419 -1.000000 0.000021
-0.590205 0.899706 -0.558185 203 6 93 0.000000 -1.000000 0.000000
-0.037177 1.000000 -0.063052 203 6 93 0.000000 1.000000 0.000000
-0.284094 0.893673 -0.461312 203 6 93 0.000000 0.000000 1.000000
-0.226051 1.000000 -0.586292 203 6 93 0.000000 1.000000 0.000000
-0.501727 0.899741 -0.250040 203 6 93 0.000419 -1.000000 0.000021
-0.211020 1.000000 -0.050478 203 6 93 0.000000 1.000000 0.000000
-0.345730 0.899805 -0.323612 203 6 93 0.000419 -1.000000 0.000021
-0.076054 0.899727 -0.575241 203 6 93 0.000002 -1.000000 0.000398
-0.269626 1.000000 -0.327394 203 6 93 0.000000 1.000000 0.000000
-0.092602 0.899915 -0.094818 203 6 93 0.000419 -1.000000 0.000021
-0.315951 1.000000 -0.217356 203 6 93 0.000000 1.000000 0.000000
-0.615418 0.899706 -0.365715 203 6 93 0.000000 -1.000000 0.000000
-0.237003 1.000000 -0.189644 203 6 93 0.000000 1.000000 0.000000
-0.096341 0.899915 -0.034369 203 6 93 0.000419 -1.000000 0.000021
-0.365669 0.991217 -0.649429 203 6 93 0.000000 0.514835 -0.857289
-0.517758 1.000000 -0.115308 203 6 93 0.000000 1.000000 0.000000
-0.158403 0.899743 -0.534595 203 6 93 0.000002 -1.000000 0.000398
-0.306105 1.000000 -0.195896 203 6 93 0.000000 1.000000 0.000000
-0.328856 1.000000 -0.533527 203 6 93 0.000000 1.000000 0.000000
-0.392461 0.992021 -0.648946 203 6 93 0.000000 0.514835 -0.857289
-0.465486 0.903686 -0.396222 203 6 93 0.000000 0.000000 1.000000
-0.114088 0.899873 -0.206968 203 6 93 0.000002 -1.000000 0.000398
-0.263677 0.899789 -0.418445 203 6 93 0.000002 -1.000000 0.000398
-0.525263 0.904108 -0.417809 203 6 93 0.000000 1.000000 0.000000
-0.483058 1.000000 -0.577622 203 6 93 0.000000 1.000000 0.000000
-0.585766 0.899706 -0.308499 203 6 93 0.000000 -1.000000 0.000000
-0.392772 1.000000 -0.569221 203 6 93 0.000000 1.000000 0.000000
-0.655272 0.924015 -0.540382 203 6 93 -0.990014 -0.140970 0.000000
-0.275229 0.899836 -0.218106 203 6 93 0.000419 -1.000000 0.000021
-0.590536 1.000000 -0.045480 203 6 93 0.000000 1.000000 0.000000
-0.603837 0.899706 -0.171838 203 6 93 0.000000 -1.000000 0.000000
-0.586082 0.896582 -0.471433 203 6 93 -1.000000 0.000000 -0.000802
-0.372510 1.000000 -0.262636 203 6 93 0.000000 1.000000 0.000000
-0.310552 0.948511 -0.656494 203 6 93 0.000000 0.000000 -1.000000
-0.256900 0.899746 -0.525504 203 6 93 0.000002 -1.000000 0.000398
-0.505006 0.899740 -0.224648 203 6 93 0.000419 -1.000000 0.000021
-0.618220 0.899706 -0.101578 203 6 93 0.000000 -1.000000 0.000000
-0.021257 0.899817 -0.349412 203 6 93 0.000002 -1.000000 0.000398
-0.619010 0.899706 -0.278599 203 6 93 0.000000 -1.000000 0.000000
-0.340477 0.899810 -0.171332 203 6 93 0.000419 -1.000000 0.000021
-0.399894 0.904108 -0.474785 203 6 93 0.000000 1.000000 0.000000
-0.289450 0.895296 -0.501953 203 6 93 0.000000 1.000000 0.000000
-0.211576 1.000000 -0.619399 203 6 93 0.000000 1.000000 0.000000
-0.592055 1.000000 -0.121086 203 6 93 0.000000 1.000000 0.000000
-0.226748 1.000000 -0.178324 203 6 93 0.000000 1.000000 0.000000
-0.181460 1.000000 -0.412611 203 6 93 0.000000 1.000000 0.000000
-0.283721 1.000000 -0.010159 203 6 93 0.000000 1.000000 0.000000
-0.350417 1.000000 -0.130855 203 6 93 0.000000 1.000000 0.000000
-0.491537 0.904108 -0.578710 203 6 93 0.000000 1.000000 0.000000
-0.125699 0.899773 -0.460023 203 6 93 0.000002 -1.000000 0.000398
-0.573458 1.000000 -0.432936 203 6 93 0.000000 1.000000 0.000000
-0.246761 0.899821 -0.339110 203 6 93 0.000002 -1.000000 0.000398
-0.168908 0.895296 -0.474677 203 6 93 0.000000 1.000000 0.000000
-0.621251 0.899706 -0.470440 203 6 93 0.000000 -1.000000 0.000000
-0.563121 1.000000 -0.466134 203 6 93 0.000000 1.000000 0.000000
-0.652273 0.913706 -0.500488 203 6 93 -0.857191 -0.514998 0.000000
-0.071872 1.000000 -0.297471 203 6 93 0.000000 1.000000 0.000000
-0.304824 1.000000 -0.100973 203 6 93 0.000000 1.000000 0.000000
-0.518292 1.000000 -0.561244 203 6 93 0.000000 1.000000 0.000000
-0.398745 0.904108 -0.417900 203 6 93 0.000000 1.000000 0.000000
-0.489585 0.904108 -0.482116 203 6 93 0.000000 1.000000 0.000000
-0.097225 0.899795 -0.405415 203 6 93 0.000002 -1.000000 0.000398
-0.487853 1.000000 -0.413090 203 6 93 0.000000 1.000000 0.000000
-0.005666 0.899895 -0.153591 203 6 93 0.000002 -1.000000 0.000398
-0.553000 0.904591 -0.644086 203 6 93 0.000000 -0.857414 -0.514628
-0.458386 0.899758 -0.316468 203 6 93 0.000419 -1.000000 0.000021
-0.509544 1.000000 -0.505775 203 6 93 0.000000 1.000000 0.000000
-0.157403 0.899762 -0.487381 203 6 93 0.000002 -1.000000 0.000398
-0.068936 1.000000 -0.522201 203 6 93 0.000000 1.000000 0.000000
-0.341209 0.899811 -0.110353 203 6 93 0.000419 -1.000000 0.000021
-0.005755 0.899868 -0.222001 203 6 93 0.000002 -1.000000 0.000398
-0.483560 0.899750 -0.186011 203 6 93 0.000419 -1.000000 0.000021
-0.097468 0.947404 -0.656494 203 6 93 0.000000 0.000000 -1.000000
-0.234128 1.000000 -0.265078 203 6 93 0.000000 1.000000 0.000000
-0.314957 1.000000 -0.426826 203 6 93 0.000000 1.000000 0.000000
-0.132432 0.942625 -0.656494 203 6 93 0.000000 0.000000 -1.000000
-0.217468 0.925869 -0.655829 203 6 93 0.000000 -0.140826 -0.990034
-0.455305 0.957500 -0.656494 203 6 93 0.000000 0.000000 -1.000000
-0.335213 1.000000 -0.091116 203 6 93 0.000000 1.000000 0.000000
-0.475117 1.000000 -0.147202 203 6 93 0.000000 1.000000 0.000000
-0.462216 1.000000 -0.603532 203 6 93 0.000000 1.000000 0.000000
-0.181054 0.895296 -0.477134 203 6 93 0.000000 1.000000 0.000000
-0.422907 1.000000 -0.184652 203 6 93 0.000000 1.000000 0.000000
-0.302554 1.000000 -0.483524 203 6 93 0.000000 1.000000 0.000000
-0.541380 1.000000 -0.387136 203 6 93 0.000000 1.000000 0.000000
-0.519806 0.899737 -0.068520 203 6 93 0.000419 -1.000000 0.000021
-0.511284 0.899723 -0.583055 203 6 93 0.000002 -1.000000 0.000398
-0.587933 0.899707 -0.158053 203 6 93 0.000419 -1.000000 0.000021
-0.069636 1.000000 -0.025511 203 6 93 0.000000 1.000000 0.000000
-0.110287 1.000000 -0.022397 203 6 93 0.000000 1.000000 0.000000
-0.009124 1.000000 -0.589492 203 6 93 0.000000 1.000000 0.000000
-0.543776 0.899721 -0.372025 203 6 93 0.000419 -1.000000 0.000021
-0.077880 1.000000 -0.351091 203 6 93 0.000000 1.000000 0.000000
-0.656202 0.931974 -0.260184 203 6 93 -1.000000 0.000000 0.000000
-0.351680 1.000000 -0.578499 203 6 93 0.000000 1.000000 0.000000
-0.549076 1.000000 -0.356267 203 6 93 0.000000 1.000000 0.000000
-0.322820 1.000000 -0.219126 203 6 93 0.000000 1.000000 0.000000
-0.370429 0.899800 -0.052894 203 6 93 0.000419 -1.000000 0.000021
-0.575315 0.899710 -0.257596 203 6 93 0.000419 -1.000000 0.000021
-0.628582 0.999541 -0.476484 203 6 93 -0.141423 0.989949 0.000000
-0.280217 1.000000 -0.287268 203 6 93 0.000000 1.000000 0.000000
-0.176451 1.000000 -0.243578 203 6 93 0.000000 1.000000 0.000000
-0.019077 0.899894 -0.154747 203 6 93 0.000002 -1.000000 0.000398
-0.587041 0.998873 -0.633136 203 6 93 0.006815 0.985871 -0.167369
-0.639401 0.997748 -0.484502 203 6 93 -0.514891 0.857256 0.000000
-0.652568 0.914196 -0.007911 203 6 93 -0.857191 -0.514998 0.000000
-0.059456 1.000000 -0.071223 203 6 93 0.000000 1.000000 0.000000
-0.279466 0.899717 -0.599844 203 6 93 0.000002 -1.000000 0.000398
-0.026540 1.000000 -0.247801 203 6 93 0.000000 1.000000 0.000000
-0.440440 0.900830 -0.600742 203 6 93 0.000235 0.000000 -1.000000
-0.189241 1.000000 -0.141562 203 6 93 0.000000 1.000000 0.000000
-0.233386 0.899729 -0.569236 203 6 93 0.000002 -1.000000 0.000398
-0.096479 1.000000 -0.598393 203 6 93 0.000000 1.000000 0.000000
-0.460047 0.901450 -0.600746 203 6 93 0.000235 0.000000 -1.000000
-0.440267 1.000000 -0.283690 203 6 93 0.000000 1.000000 0.000000
-0.188003 0.895296 -0.511683 203 6 93 0.000000 1.000000 0.000000
-0.341206 1.000000 -0.287834 203 6 93 0.000000 1.000000 0.000000
-0.058182 0.895296 -0.466653 203 6 93 0.000000 1.000000 0.000000
-0.037181 1.000000 -0.374167 203 6 93 0.000000 1.000000 0.000000
-0.427769 1.000000 -0.479874 203 6 93 0.000000 1.000000 0.000000
-0.436557 1.000000 -0.228819 203 6 93 0.000000 1.000000 0.000000
-0.656202 0.948570 -0.105190 203 6 93 -1.000000 0.000000 0.000000
-0.407836 1.000000 -0.199771 203 6 93 0.000000 1.000000 0.000000
-0.336113 0.899808 -0.335443 203 6 93 0.000419 -1.000000 0.000021
-0.305325 0.899739 -0.545102 203 6 93 0.000002 -1.000000 0.000398
-0.400509 1.000000 -0.460193 203 6 93 0.000000 1.000000 0.000000
-0.114968 1.000000 -0.009961 203 6 93 0.000000 1.000000 0.000000
-0.198891 0.899761 -0.488686 203 6 93 0.000002 -1.000000 0.000398
-0.256862 1.000000 -0.245156 203 6 93 0.000000 1.000000 0.000000
-0.410509 0.899732 -0.560888 203 6 93 0.000002 -1.000000 0.000398
-0.405533 0.899784 -0.118974 203 6 93 0.000419 -1.000000 0.000021
-0.442300 0.899770 -0.053292 203 6 93 0.000419 -1.000000 0.000021
-0.455309 0.895296 -0.365172 203 6 93 0.000000 1.000000 0.000000
-0.015051 1.000000 -0.076118 203 6 93 0.000000 1.000000 0.000000
-0.650995 0.911579 -0.163317 203 6 93 -0.857191 -0.514998 0.000000
-0.114526 1.000000 -0.008597 203 6 93 0.000000 1.000000 0.000000
-0.457708 0.899761 -0.183119 203 6 93 0.000419 -1.000000 0.000021
-0.063986 1.000000 -0.142623 203 6 93 0.000000 1.000000 0.000000
-0.391277 0.965038 -0.656494 203 6 93 0.000000 0.000000 -1.000000
-0.576599 0.899713 -0.067560 203 6 93 0.000419 -1.000000 0.000021
-0.375541 1.000000 -0.420567 203 6 93 0.000000 1.000000 0.000000
-0.014751 1.000000 -0.272960 203 6 93 0.000000 1.000000 0.000000
-0.389341 1.000000 -0.007779 203 6 93 0.000000 1.000000 0.000000
-0.354323 1.000000 -0.068294 203 6 93 0.000000 1.000000 0.000000
-0.319498 1.000000 -0.186262 203 6 93 0.000000 1.000000 0.000000
-0.425657 0.953975 -0.656494 203 6 93 0.000000 0.000000 -1.000000
-0.388393 0.899785 -0.384730 203 6 93 0.000419 -1.000000 0.000021
-0.429816 0.904108 -0.408487 203 6 93 0.000000 1.000000 0.000000
-0.288072 0.899828 -0.321072 203 6 93 0.000002 -1.000000 0.000398
-0.501771 0.899723 -0.584309 203 6 93 0.000002 -1.000000 0.000398
-0.293734 1.000000 -0.550436 203 6 93 0.000000 1.000000 0.000000
-0.356152 1.000000 -0.531984 203 6 93 0.000000 1.000000 0.000000
-0.537289 1.000000 -0.544344 203 6 93 0.000000 1.000000 0.000000
-0.655279 0.924065 -0.356302 203 6 93 -0.990014 -0.140970 0.000000
-0.423322 0.899769 -0.462287 203 6 93 0.000419 -1.000000 0.000021
-0.034553 1.000000 -0.292744 203 6 93 0.000000 1.000000 0.000000
-0.640397 0.973007 -0.625862 203 6 93 -0.702446 0.114644 -0.702443
-0.018588 0.899884 -0.180432 203 6 93 0.000002 -1.000000 0.000398
-0.067398 1.000000 -0.135183 203 6 93 0.000000 1.000000 0.000000
-0.155008 1.000000 -0.548546 203 6 93 0.000000 1.000000 0.000000
-0.164472 0.966243 -0.656494 203 6 93 0.000000 0.000000 -1.000000
-0.532108 1.000000 -0.121557 203 6 93 0.000000 1.000000 0.000000
-0.204252 0.899748 -0.521447 203 6 93 0.000002 -1.000000 0.000398
-0.325992 0.899819 -0.048529 203 6 93 0.000419 -1.000000 0.000021
-0.550050 1.000000 -0.426611 203 6 93 0.000000 1.000000 0.000000
-0.586052 0.899469 -0.508676 203 6 93 -1.000000 0.000000 -0.000802
-0.295410 0.899730 -0.566275 203 6 93 0.000002 -1.000000 0.000398
-0.654368 0.982035 -0.550119 203 6 93 -0.990005 0.141031 0.000000
-0.338103 0.899749 -0.519578 203 6 93 0.000002 -1.000000 0.000398
-0.507758 0.892927 -0.395308 203 6 93 0.000000 0.000000 -1.000000
-0.114177 1.000000 -0.425086 203 6 93 0.000000 1.000000 0.000000
-0.645774 0.993920 -0.122849 203 6 93 -0.514891 0.857256 0.000000
-0.175393 1.000000 -0.528681 203 6 93 0.000000 1.000000 0.000000
-0.285025 1.000000 -0.252283 203 6 93 0.000000 1.000000 0.000000
-0.350084 0.899802 -0.365314 203 6 93 0.000419 -1.000000 0.000021
-0.273543 0.900179 -0.628973 203 6 93 0.000000 -0.989973 -0.141260
-0.198803 1.000000 -0.022281 203 6 93 0.000000 1.000000 0.000000
-0.415354 0.899780 -0.089997 203 6 93 0.000419 -1.000000 0.000021
-0.345921 1.000000 -0.618315 203 6 93 0.000000 1.000000 0.000000
-0.644158 0.994891 -0.133295 203 6 93 -0.514891 0.857256 0.000000
-0.439547 1.000000 -0.338480 203 6 93 0.000000 1.000000 0.000000
-0.037704 1.000000 -0.260708 203 6 93 0.000000 1.000000 0.000000
-0.020487 1.000000 -0.102568 203 6 93 0.000000 1.000000 0.000000
-0.216948 1.000000 -0.006212 203 6 93 0.000000 1.000000 0.000000
-0.656202 0.962142 -0.533115 203 6 93 -1.000000 0.000000 0.000000
-0.273284 0.918121 -0.654727 203 6 93 0.000000 -0.140826 -0.990034
-0.072524 1.000000 -0.351037 203 6 93 0.000000 1.000000 0.000000
-0.266520 0.899723 -0.584039 203 6 93 0.000002 -1.000000 0.000398
-0.654662 0.979965 -0.210595 203 6 93 -0.990005 0.141031 0.000000
-0.417202 0.899773 -0.384411 203 6 93 0.000419 -1.000000 0.000021
-0.275462 0.899835 -0.267271 203 6 93 0.000419 -1.000000 0.000021
-0.354142 0.899807 -0.059442 203 6 93 0.000419 -1.000000 0.000021
-0.526840 1.000000 -0.433371 203 6 93 0.000000 1.000000 0.000000
-0.562781 1.000000 -0.116601 203 6 93 0.000000 1.000000 0.000000
-0.380471 1.000000 -0.166119 203 6 93 0.000000 1.000000 0.000000
-0.407252 0.999178 -0.631410 203 6 93 0.000000 0.989952 -0.141402
-0.635982 0.998483 -0.518514 203 6 93 -0.141423 0.989949 0.000000
-0.138775 1.000000 -0.137592 203 6 93 0.000000 1.000000 0.000000
-0.446090 0.904108 -0.501394 203 6 93 0.000000 1.000000 0.000000
-0.026043 1.000000 -0.118055 203 6 93 0.000000 1.000000 0.000000
-0.593970 0.899706 -0.400545 203 6 93 0.000000 -1.000000 0.000000
-0.332467 1.000000 -0.250314 203 6 93 0.000000 1.000000 0.000000
-0.258635 0.892778 -0.531794 203 6 93 0.000000 0.000000 -1.000000
-0.475685 1.000000 -0.313409 203 6 93 0.000000 1.000000 0.000000
-0.390151 0.899791 -0.101526 203 6 93 0.000419 -1.000000 0.000021
-0.045798 0.970745 -0.656268 203 6 93 0.000000 0.140887 -0.990026
-0.554543 0.899718 -0.288371 203 6 93 0.000419 -1.000000 0.000021
-0.325588 0.895296 -0.461443 203 6 93 0.000000 1.000000 0.000000
-0.557464 0.904108 -0.483945 203 6 93 0.000000 1.000000 0.000000
-0.048896 1.000000 -0.535225 203 6 93 0.000000 1.000000 0.000000
-0.536210 1.000000 -0.242845 203 6 93 0.000000 1.000000 0.000000
-0.428218 0.899772 -0.215770 203 6 93 0.000419 -1.000000 0.000021
-0.586098 0.899586 -0.451583 203 6 93 -1.000000 0.000000 -0.000802
-0.067586 0.899753 -0.511038 203 6 93 0.000002 -1.000000 0.000398
-0.504146 1.000000 -0.137581 203 6 93 0.000000 1.000000 0.000000
-0.282605 1.000000 -0.367769 203 6 93 0.000000 1.000000 0.000000
-0.391108 0.899726 -0.576923 203 6 93 0.000002 -1.000000 0.000398
-0.426897 0.899777 -0.006694 203 6 93 0.000419 -1.000000 0.000021
-0.511050 0.904108 -0.581620 203 6 93 0.000000 1.000000 0.000000
-0.162688 0.899887 -0.060966 203 6 93 0.000419 -1.000000 0.000021
-0.232124 1.000000 -0.580820 203 6 93 0.000000 1.000000 0.000000
-0.656100 0.969872 -0.425412 203 6 93 -0.990005 0.141031 0.000000
-0.511634 0.899739 -0.119517 203 6 93 0.000419 -1.000000 0.000021
-0.226557 0.899716 -0.601855 203 6 93 0.000002 -1.000000 0.000398
-0.248058 0.899848 -0.189183 203 6 93 0.000419 -1.000000 0.000021
-0.156400 1.000000 -0.403582 203 6 93 0.000000 1.000000 0.000000
-0.180704 0.899876 -0.196941 203 6 93 0.000419 -1.000000 0.000021
-0.503292 0.997952 -0.639355 203 6 93 0.000000 0.857258 -0.514887
-0.524350 1.000000 -0.442793 203 6 93 0.000000 1.000000 0.000000
-0.163254 0.899714 -0.607341 203 6 93 0.000000 -1.000000 0.000452
-0.170918 1.000000 -0.172299 203 6 93 0.000000 1.000000 0.000000
-0.598182 0.976356 -0.652249 203 6 93 -0.101677 0.123154 -0.987165
-0.437863 0.899764 -0.419805 203 6 93 0.000419 -1.000000 0.000021
-0.194787 0.899789 -0.418508 203 6 93 0.000002 -1.000000 0.000398
-0.429941 0.899729 -0.568216 203 6 93 0.000002 -1.000000 0.000398
-0.310058 0.899739 -0.544243 203 6 93 0.000002 -1.000000 0.000398
-0.251277 0.895296 -0.518956 203 6 93 0.000000 1.000000 0.000000
-0.533293 0.899727 -0.276629 203 6 93 0.000419 -1.000000 0.000021
-0.245560 0.895296 -0.514864 203 6 93 0.000000 1.000000 0.000000
-0.474083 0.895296 -0.394428 203 6 93 0.000000 1.000000 0.000000
-0.242269 0.899738 -0.546383 203 6 93 0.000002 -1.000000 0.000398
-0.656202 0.968590 -0.215737 203 6 93 -1.000000 0.000000 0.000000
-0.250516 0.899724 -0.581635 203 6 93 0.000002 -1.000000 0.000398
-0.105617 0.899751 -0.514264 203 6 93 0.000002 -1.000000 0.000398
-0.570391 0.899717 -0.019114 203 6 93 0.000419 -1.000000 0.000021
-0.417579 0.899754 -0.505237 203 6 93 0.000002 -1.000000 0.000398
-0.440326 1.000000 -0.140045 203 6 93 0.000000 1.000000 0.000000
-0.569376 0.899707 -0.536829 203 6 93 0.000419 -1.000000 0.000021
-0.654163 0.919427 -0.572411 203 6 93 -0.983967 -0.141063 -0.109130
-0.420782 0.904108 -0.427751 203 6 93 0.000000 1.000000 0.000000
-0.088257 0.899911 -0.111927 203 6 93 0.000002 -1.000000 0.000398
-0.621812 0.899706 -0.017797 203 6 93 0.000000 -1.000000 0.000000
-0.559970 1.000000 -0.311294 203 6 93 0.000000 1.000000 0.000000
-0.096098 0.899892 -0.161051 203 6 93 0.000002 -1.000000 0.000398
-0.086956 0.899722 -0.588968 203 6 93 0.000002 -1.000000 0.000398
-0.512646 1.000000 -0.512852 203 6 93 0.000000 1.000000 0.000000
-0.113624 1.000000 -0.549530 203 6 93 0.000000 1.000000 0.000000
-0.181871 0.895296 -0.477154 203 6 93 0.000000 1.000000 0.000000
-0.221383 0.899781 -0.438124 203 6 93 0.000002 -1.000000 0.000398
-0.180205 1.000000 -0.480222 203 6 93 0.000000 1.000000 0.000000
-0.467118 1.000000 -0.557920 203 6 93 0.000000 1.000000 0.000000
-0.197859 1.000000 -0.420042 203 6 93 0.000000 1.000000 0.000000
-0.043447 1.000000 -0.169219 203 6 93 0.000000 1.000000 0.000000
-0.398786 0.899726 -0.575125 203 6 93 0.000002 -1.000000 0.000398
-0.470610 1.000000 -0.539003 203 6 93 0.000000 1.000000 0.000000
-0.060236 1.000000 -0.514846 203 6 93 0.000000 1.000000 0.000000
-0.061405 1.000000 -0.386945 203 6 93 0.000000 1.000000 0.000000
-0.182116 0.899798 -0.396312 203 6 93 0.000002 -1.000000 0.000398
-0.076886 1.000000 -0.019218 203 6 93 0.000000 1.000000 0.000000
-0.003536 0.899942 -0.034382 203 6 93 0.000002 -1.000000 0.000398
-0.546301 0.904108 -0.541473 203 6 93 0.000000 1.000000 0.000000
-0.435044 0.904108 -0.576623 203 6 93 0.000000 1.000000 0.000000
-0.109654 1.000000 -0.163712 203 6 93 0.000000 1.000000 0.000000
-0.190385 1.000000 -0.057627 203 6 93 0.000000 1.000000 0.000000
-0.656202 0.945139 -0.297813 203 6 93 -1.000000 0.000000 0.000000
-0.321146 0.899722 -0.585774 203 6 93 0.000002 -1.000000 0.000398
-0.100239 0.899912 -0.088637 203 6 93 0.000419 -1.000000 0.000021
-0.397741 1.000000 -0.118544 203 6 93 0.000000 1.000000 0.000000
-0.226222 1.000000 -0.166041 203 6 93 0.000000 1.000000 0.000000
-0.309164 0.899822 -0.220768 203 6 93 0.000419 -1.000000 0.000021
-0.295367 0.899713 -0.608732 203 6 93 0.000002 -1.000000 0.000398
-0.136506 0.901497 -0.638213 203 6 93 0.000000 -0.989973 -0.141260
-0.263069 0.985223 -0.653029 203 6 93 0.000000 0.514835 -0.857289
-0.367467 0.899795 -0.337810 203 6 93 0.000419 -1.000000 0.000021
-0.071567 0.940369 -0.656494 203 6 93 0.000000 0.000000 -1.000000
-0.547007 1.000000 -0.064142 203 6 93 0.000000 1.000000 0.000000
-0.111329 0.899908 -0.085505 203 6 93 0.000419 -1.000000 0.000021
-0.010811 0.899926 -0.074923 203 6 93 0.000002 -1.000000 0.000398
-0.022412 0.899880 -0.191270 203 6 93 0.000002 -1.000000 0.000398
-0.604391 0.899706 -0.222146 203 6 93 0.000000 -1.000000 0.000000
-0.328823 0.899816 -0.109699 203 6 93 0.000419 -1.000000 0.000021
-0.108368 0.899777 -0.449669 203 6 93 0.000002 -1.000000 0.000398
-0.296136 1.000000 -0.082310 203 6 93 0.000000 1.000000 0.000000
-0.630158 0.900390 -0.073717 203 6 93 -0.141280 -0.989970 0.000000
-0.023211 0.899714 -0.607489 203 6 93 0.000000 -1.000000 0.000452
-0.413052 0.904108 -0.411720 203 6 93 0.000000 1.000000 0.000000
-0.393979 1.000000 -0.520930 203 6 93 0.000000 1.000000 0.000000
-0.653582 0.915884 -0.123588 203 6 93 -0.857191 -0.514998 0.000000
-0.392833 0.904108 -0.510306 203 6 93 0.000000 1.000000 0.000000
-0.121890 1.000000 -0.434124 203 6 93 0.000000 1.000000 0.000000
-0.214531 1.000000 -0.076021 203 6 93 0.000000 1.000000 0.000000
-0.537766 0.899719 -0.562872 203 6 93 0.000419 -1.000000 0.000021
-0.629417 0.900284 -0.167906 203 6 93 -0.141280 -0.989970 0.000000
-0.653653 0.916003 -0.195626 203 6 93 -0.857191 -0.514998 0.000000
-0.519160 0.899735 -0.185397 203 6 93 0.000419 -1.000000 0.000021
-0.262576 0.899779 -0.443592 203 6 93 0.000002 -1.000000 0.000398
-0.423667 0.899776 -0.104564 203 6 93 0.000419 -1.000000 0.000021
-0.642094 0.996131 -0.283111 203 6 93 -0.514891 0.857256 0.000000
-0.051064 0.899918 -0.095145 203 6 93 0.000002 -1.000000 0.000398
-0.481808 0.895296 -0.278478 203 6 93 0.000000 1.000000 0.000000
-0.532361 0.904108 -0.479234 203 6 93 0.000000 1.000000 0.000000
-0.602034 1.000000 -0.384341 203 6 93 0.000000 1.000000 0.000000
-0.472632 0.899758 -0.004369 203 6 93 0.000419 -1.000000 0.000021
-0.311989 0.899820 -0.256431 203 6 93 0.000419 -1.000000 0.000021
-0.342186 1.000000 -0.200114 203 6 93 0.000000 1.000000 0.000000
-0.656202 0.942684 -0.301820 203 6 93 -1.000000 0.000000 0.000000
-0.653149 0.947318 -0.595922 203 6 93 -0.993906 0.000000 -0.110233
-0.098026 0.999804 -0.627030 203 6 93 0.000000 0.989952 -0.141402
-0.293469 1.000000 -0.186266 203 6 93 0.000000 1.000000 0.000000
-0.568585 1.000000 -0.340056 203 6 93 0.000000 1.000000 0.000000
-0.515497 1.000000 -0.298445 203 6 93 0.000000 1.000000 0.000000
-0.190877 0.899739 -0.545827 203 6 93 0.000002 -1.000000 0.000398
-0.180121 0.998868 -0.633585 203 6 93 0.000000 0.989952 -0.141402
-0.483450 0.899750 -0.181709 203 6 93 0.000419 -1.000000 0.000021
-0.656202 0.961572 -0.349686 203 6 93 -1.000000 0.000000 0.000000
-0.436177 0.904108 -0.475499 203 6 93 0.000000 1.000000 0.000000
-0.130452 1.000000 -0.264613 203 6 93 0.000000 1.000000 0.000000
-0.078350 0.895296 -0.512820 203 6 93 0.000000 1.000000 0.000000
-0.485920 1.000000 -0.016369 203 6 93 0.000000 1.000000 0.000000
-0.381588 0.894711 -0.400333 203 6 93 1.000000 0.000000 0.000000
-0.066854 1.000000 -0.029701 203 6 93 0.000000 1.000000 0.000000
-0.453028 0.899763 -0.174746 203 6 93 0.000419 -1.000000 0.000021
-0.113733 0.899908 -0.031693 203 6 93 0.000419 -1.000000 0.000021
-0.499732 0.904381 -0.643736 203 6 93 0.000000 -0.857414 -0.514628
-0.019918 0.899947 -0.009952 203 6 93 0.000419 -1.000000 0.000021
-0.437086 0.904108 -0.580624 203 6 93 0.000000 1.000000 0.000000
-0.540545 0.899729 -0.053803 203 6 93 0.000419 -1.000000 0.000021
-0.060053 0.986410 -0.652316 203 6 93 0.000000 0.514835 -0.857289
-0.656151 0.930188 -0.038637 203 6 93 -0.990014 -0.140970 0.000000
-0.471663 1.000000 -0.390693 203 6 93 0.000000 1.000000 0.000000
-0.117336 0.899752 -0.511428 203 6 93 0.000002 -1.000000 0.000398
-0.106106 0.899905 -0.128194 203 6 93 0.000002 -1.000000 0.000398
-0.502297 0.904108 -0.542396 203 6 93 0.000000 1.000000 0.000000
-0.148539 0.899858 -0.245799 203 6 93 0.000002 -1.000000 0.000398
-0.084493 1.000000 -0.410544 203 6 93 0.000000 1.000000 0.000000
-0.210246 1.000000 -0.177076 203 6 93 0.000000 1.000000 0.000000
-0.569946 0.904108 -0.502612 203 6 93 0.000000 1.000000 0.000000
-0.216438 1.000000 -0.144683 203 6 93 0.000000 1.000000 0.000000
-0.502304 1.000000 -0.543186 203 6 93 0.000000 1.000000 0.000000
-0.062403 1.000000 -0.542435 203 6 93 0.000000 1.000000 0.000000
-0.403507 0.899786 -0.032131 203 6 93 0.000419 -1.000000 0.000021
-0.475659 0.899715 -0.602457 203 6 93 0.000002 -1.000000 0.000398
-0.188753 1.000000 -0.489517 203 6 93 0.000000 1.000000 0.000000
-0.393106 1.000000 -0.558158 203 6 93 0.000000 1.000000 0.000000
-0.295999 0.962076 -0.656494 203 6 93 0.000000 0.000000 -1.000000
-0.287775 0.895296 -0.531073 203 6 93 0.000000 1.000000 0.000000
-0.156866 0.899707 -0.620203 203 6 93 -0.000004 -1.000000 0.000577
-0.425913 1.000000 -0.003590 203 6 93 0.000000 1.000000 0.000000
-0.369912 0.899793 -0.402043 203 6 93 0.000419 -1.000000 0.000021
-0.332652 0.899816 -0.037637 203 6 93 0.000419 -1.000000 0.000021
-0.582109 1.000000 -0.231170 203 6 93 0.000000 1.000000 0.000000
-0.520050 1.000000 -0.493670 203 6 93 0.000000 1.000000 0.000000
-0.359627 1.000000 -0.477197 203 6 93 0.000000 1.000000 0.000000
-0.656202 0.939068 -0.199623 203 6 93 -1.000000 0.000000 0.000000
-0.461822 1.000000 -0.226204 203 6 93 0.000000 1.000000 0.000000
-0.174578 1.000000 -0.577520 203 6 93 0.000000 1.000000 0.000000
-0.377757 1.000000 -0.087169 203 6 93 0.000000 1.000000 0.000000
-0.167568 0.899789 -0.418343 203 6 93 0.000002 -1.000000 0.000398
-0.382571 0.925085 -0.655718 203 6 93 0.000000 -0.140826 -0.990034
-0.039201 0.899833 -0.308554 203 6 93 0.000002 -1.000000 0.000398
-0.363573 1.000000 -0.392395 203 6 93 0.000000 1.000000 0.000000
-0.456526 0.929770 -0.656384 203 6 93 0.000000 -0.140826 -0.990034
-0.352222 1.000000 -0.546262 203 6 93 0.000000 1.000000 0.000000
-0.090572 1.000000 -0.101117 203 6 93 0.000000 1.000000 0.000000
-0.653060 0.915016 -0.212786 203 6 93 -0.857191 -0.514998 0.000000
-0.387754 0.899789 -0.219277 203 6 93 0.000419 -1.000000 0.000021
-0.195117 0.895296 -0.507175 203 6 93 0.000000 1.000000 0.000000
-0.578778 0.899709 -0.244444 203 6 93 0.000419 -1.000000 0.000021
-0.500188 0.904108 -0.435738 203 6 93 0.000000 1.000000 0.000000
-0.340846 0.899783 -0.433335 203 6 93 0.000002 -1.000000 0.000398
-0.450886 0.895296 -0.366719 203 6 93 0.000000 1.000000 0.000000
-0.373800 1.000000 -0.494065 203 6 93 0.000000 1.000000 0.000000
-0.355707 0.953321 -0.656494 203 6 93 0.000000 0.000000 -1.000000
-0.432189 0.998336 -0.637307 203 6 93 0.000000 0.989952 -0.141402
-0.075692 1.000000 -0.539193 203 6 93 0.000000 1.000000 0.000000
-0.351453 1.000000 -0.526370 203 6 93 0.000000 1.000000 0.000000
-0.423729 1.000000 -0.417701 203 6 93 0.000000 1.000000 0.000000
-0.338688 0.899808 -0.300366 203 6 93 0.000419 -1.000000 0.000021
-0.103674 1.000000 -0.023131 203 6 93 0.000000 1.000000 0.000000
-0.361342 1.000000 -0.126692 203 6 93 0.000000 1.000000 0.000000
-0.561893 1.000000 -0.332005 203 6 93 0.000000 1.000000 0.000000
-0.527589 0.907284 -0.648572 203 6 93 0.000000 -0.857414 -0.514628
-0.585048 0.899706 -0.326241 203 6 93 0.000000 -1.000000 0.000000
-0.397103 1.000000 -0.494683 203 6 93 0.000000 1.000000 0.000000
-0.194517 0.899827 -0.323033 203 6 93 0.000002 -1.000000 0.000398
-0.102078 0.899749 -0.519513 203 6 93 0.000002 -1.000000 0.000398
-0.220715 1.000000 -0.339100 203 6 93 0.000000 1.000000 0.000000
-0.361881 1.000000 -0.504466 203 6 93 0.000000 1.000000 0.000000
-0.074883 1.000000 -0.299487 203 6 93 0.000000 1.000000 0.000000
-0.011587 0.899781 -0.440789 203 6 93 0.000002 -1.000000 0.000398
-0.533870 0.899726 -0.297546 203 6 93 0.000419 -1.000000 0.000021
-0.572599 0.899716 -0.008676 203 6 93 0.000419 -1.000000 0.000021
-0.133653 0.899708 -0.619130 203 6 93 -0.000004 -1.000000 0.000577
-0.020351 0.932611 -0.656494 203 6 93 0.000000 0.000000 -1.000000
-0.656202 0.968580 -0.313819 203 6 93 -1.000000 0.000000 0.000000
-0.524057 0.899718 -0.595693 203 6 93 0.000002 -1.000000 0.000398
-0.126238 0.899901 -0.124519 203 6 93 0.000419 -1.000000 0.000021
-0.628829 0.920638 -0.636443 203 6 93 -0.702450 -0.114596 -0.702447
-0.656202 0.932495 -0.198534 203 6 93 -1.000000 0.000000 0.000000
-0.416827 0.968571 -0.656494 203 6 93 0.000000 0.000000 -1.000000
-0.455024 0.899756 -0.443296 203 6 93 0.000419 -1.000000 0.000021
-0.167253 0.895296 -0.502139 203 6 93 0.000000 1.000000 0.000000
-0.059313 0.899776 -0.452616 203 6 93 0.000002 -1.000000 0.000398
-0.322026 1.000000 -0.169011 203 6 93 0.000000 1.000000 0.000000
-0.461875 0.899759 -0.155126 203 6 93 0.000419 -1.000000 0.000021
-0.346521 0.899807 -0.213100 203 6 93 0.000419 -1.000000 0.000021
-0.447500 0.893387 -0.600744 203 6 93 0.000235 0.000000 -1.000000
-0.137208 0.899810 -0.365876 203 6 93 0.000002 -1.000000 0.000398
-0.276753 1.000000 -0.349138 203 6 93 0.000000 1.000000 0.000000
-0.390230 1.000000 -0.596675 203 6 93 0.000000 1.000000 0.000000
-0.134180 0.899762 -0.486559 203 6 93 0.000002 -1.000000 0.000398
-0.281891 1.000000 -0.595489 203 6 93 0.000000 1.000000 0.000000
-0.211274 1.000000 -0.215379 203 6 93 0.000000 1.000000 0.000000
-0.487176 0.932132 -0.656494 203 6 93 0.000000 0.000000 -1.000000
-0.245231 0.959841 -0.656494 203 6 93 0.000000 0.000000 -1.000000
-0.399418 0.899766 -0.476631 203 6 93 0.000002 -1.000000 0.000398
-0.333929 1.000000 -0.104823 203 6 93 0.000000 1.000000 0.000000
-0.384583 0.904108 -0.457888 203 6 93 0.000000 1.000000 0.000000
-0.655882 0.971406 -0.000876 203 6 93 -0.990005 0.141031 0.000000
-0.246267 0.895296 0.490105 14 64 80 0.000000 1.000000 0.000000
-0.270203 1.000000 0.250015 14 64 80 0.000000 1.000000 0.000000
-0.166787 0.895296 0.484742 14 64 80 0.000000 1.000000 0.000000
-0.115830 1.000000 0.054104 14 64 80 0.000000 1.000000 0.000000
-0.284355 0.899848 0.522523 14 64 80 0.000419 -1.000000 0.000021
-0.148491 1.000000 0.233138 14 64 80 0.000000 1.000000 0.000000
-0.650929 0.988229 0.054606 14 64 80 -0.857287 0.514839 0.000000
-0.289899 0.925511 0.655756 14 64 80 0.000060 -0.140847 0.990031
-0.650463 0.989006 0.468191 14 64 80 -0.857287 0.514839 0.000000
-0.576925 0.984578 0.652642 14 64 80 -0.090845 0.462409 0.882001
-0.074668 0.899928 0.174645 14 64 80 0.000419 -1.000000 0.000021
-0.292118 1.000000 0.375667 14 64 80 0.000000 1.000000 0.000000
-0.265688 0.895296 0.456713 14 64 80 0.000000 1.000000 0.000000
-0.466278 0.895296 0.357654 14 64 80 0.000000 1.000000 0.000000
-0.468399 0.895296 0.209031 14 64 80 0.000000 1.000000 0.000000
-0.614733 1.000000 0.330903 14 64 80 0.000000 1.000000 0.000000
-0.318096 0.899824 0.034343 14 64 80 0.000419 -1.000000 0.000021
-0.260675 0.899855 0.369494 14 64 80 0.000419 -1.000000 0.000021
-0.535027 0.899743 0.545972 14 64 80 0.000419 -1.000000 0.000021
-0.653674 0.916037 0.152015 14 64 80 -0.857191 -0.514998 0.000000
-0.424726 0.899787 0.441767 14 64 80 0.000419 -1.000000 0.000021
-0.264870 0.899856 0.517930 14 64 80 0.000419 -1.000000 0.000021
-0.389698 0.904108 0.475347 14 64 80 0.000000 1.000000 0.000000
-0.514987 1.000000 0.333891 14 64 80 0.000000 1.000000 0.000000
-0.262897 0.899848 0.121196 14 64 80 0.000419 -1.000000 0.000021
-0.209385 1.000000 0.530346 14 64 80 0.000000 1.000000 0.000000
-0.436743 0.904108 0.425954 14 64 80 0.000000 1.000000 0.000000
-0.198433 0.899880 0.358045 14 64 80 0.000419 -1.000000 0.000021
-0.544541 0.897707 0.384046 14 64 80 0.000235 0.000000 -1.000000
-0.173193 0.899891 0.375219 14 64 80 0.000419 -1.000000 0.000021
-0.296585 1.000000 0.116664 14 64 80 0.000000 1.000000 0.000000
-0.388102 0.899799 0.266365 14 64 80 0.000419 -1.000000 0.000021
-0.320288 0.899832 0.478944 14 64 80 0.000419 -1.000000 0.000021
-0.221927 0.899866 0.132974 14 64 80 0.000419 -1.000000 0.000021
-0.427006 0.911681 0.651295 14 64 80 0.000216 -0.514906 0.857246
-0.590597 0.899715 0.297880 14 64 80 0.000419 -1.000000 0.000021
-0.155286 0.997605 0.639934 14 64 80 0.000000 0.857257 0.514889
-0.390515 1.000000 0.392008 14 64 80 0.000000 1.000000 0.000000
-0.654068 0.983003 0.311145 14 64 80 -0.857287 0.514839 0.000000
-0.656202 0.959622 0.395050 14 64 80 -1.000000 0.000000 0.000000
-0.500928 0.895296 0.347424 14 64 80 0.000000 1.000000 0.000000
-0.121704 0.997198 0.640611 14 64 80 0.000000 0.857257 0.514889
-0.353838 0.899809 0.054993 14 64 80 0.000419 -1.000000 0.000021
-0.074491 1.000000 0.405437 14 64 80 0.000000 1.000000 0.000000
-0.145327 0.899895 0.005475 14 64 80 0.000419 -1.000000 0.000021
-0.528456 1.000000 0.291307 14 64 80 0.000000 1.000000 0.000000
-0.545702 0.899734 0.298756 14 64 80 0.000419 -1.000000 0.000021
-0.182196 1.000000 0.058003 14 64 80 0.000000 1.000000 0.000000
-0.557358 1.000000 0.001342 14 64 80 0.000000 1.000000 0.000000
-0.654299 0.917183 0.405935 14 64 80 -0.990014 -0.140970 0.000000
-0.247319 1.000000 0.250839 14 64 80 0.000000 1.000000 0.000000
-0.231796 0.899863 0.206273 14 64 80 0.000419 -1.000000 0.000021
-0.300633 0.899835 0.233171 14 64 80 0.000419 -1.000000 0.000021
-0.135624 0.982925 0.654408 14 64 80 0.000000 0.514834 0.857290
-0.552190 1.000000 0.201336 14 64 80 0.000000 1.000000 0.000000
-0.438803 0.899783 0.492083 14 64 80 0.000419 -1.000000 0.000021
-0.649822 0.909625 0.174728 14 64 80 -0.857191 -0.514998 0.000000
-0.564178 0.904108 0.545364 14 64 80 0.000000 1.000000 0.000000
-0.020134 0.899953 0.247661 14 64 80 0.000419 -1.000000 0.000021
-0.319147 0.899831 0.429419 14 64 80 0.000419 -1.000000 0.000021
-0.413932 1.000000 0.116495 14 64 80 0.000000 1.000000 0.000000
-0.381588 0.890771 0.563848 14 64 80 1.000000 0.000000 0.000000
-0.481784 1.000000 0.597216 14 64 80 0.000000 1.000000 0.000000
-0.233558 0.899860 0.086996 14 64 80 0.000419 -1.000000 0.000021
-0.499478 1.000000 0.202207 14 64 80 0.000000 1.000000 0.000000
-0.630429 0.999277 0.263607 14 64 80 -0.141423 0.989949 0.000000
-0.484564 1.000000 0.575896 14 64 80 0.000000 1.000000 0.000000
-0.478810 1.000000 0.378550 14 64 80 0.000000 1.000000 0.000000
-0.078087 1.000000 0.042675 14 64 80 0.000000 1.000000 0.000000
-0.018945 1.000000 0.324989 14 64 80 0.000000 1.000000 0.000000
-0.478989 0.895296 0.322921 14 64 80 0.000000 1.000000 0.000000
-0.483663 0.895296 0.212811 14 64 80 0.000000 1.000000 0.000000
-0.101850 0.899915 0.062909 14 64 80 0.000419 -1.000000 0.000021
-0.233265 1.000000 0.032139 14 64 80 0.000000 1.000000 0.000000
-0.490450 0.899751 0.035657 14 64 80 0.000419 -1.000000 0.000021
-0.096934 0.899917 0.084591 14 64 80 0.000419 -1.000000 0.000021
-0.415085 1.000000 0.427796 14 64 80 0.000000 1.000000 0.000000
-0.448006 1.000000 0.192544 14 64 80 0.000000 1.000000 0.000000
-0.535709 1.000000 0.582769 14 64 80 0.000000 1.000000 0.000000
-0.568295 0.899725 0.324400 14 64 80 0.000419 -1.000000 0.000021
-0.367432 1.000000 0.349361 14 64 80 0.000000 1.000000 0.000000
-0.528814 0.899737 0.105479 14 64 80 0.000419 -1.000000 0.000021
-0.656202 0.965527 0.148382 14 64 80 -1.000000 0.000000 0.000000
-0.381732 1.000000 0.338445 14 64 80 0.000000 1.000000 0.000000
-0.593717 1.000000 0.306365 14 64 80 0.000000 1.000000 0.000000
-0.135114 1.000000 0.557912 14 64 80 0.000000 1.000000 0.000000
-0.307546 0.899837 0.450488 14 64 80 0.000419 -1.000000 0.000021
-0.257081 0.899854 0.275026 14 64 80 0.000419 -1.000000 0.000021
-0.340695 0.899823 0.485322 14 64 80 0.000419 -1.000000 0.000021
-0.144255 0.899908 0.595607 14 64 80 0.000419 -1.000000 0.000017
-0.655600 0.973385 0.258191 14 64 80 -0.990005 0.141031 0.000000
-0.478270 1.000000 0.029333 14 64 80 0.000000 1.000000 0.000000
-0.092356 1.000000 0.019591 14 64 80 0.000000 1.000000 0.000000
-0.198494 1.000000 0.134167 14 64 80 0.000000 1.000000 0.000000
-0.213519 1.000000 0.296668 14 64 80 0.000000 1.000000 0.000000
-0.063695 1.000000 0.292385 14 64 80 0.000000 1.000000 0.000000
-0.485195 1.000000 0.534141 14 64 80 0.000000 1.000000 0.000000
-0.356982 1.000000 0.386768 14 64 80 0.000000 1.000000 0.000000
-0.134369 0.895296 0.515479 14 64 80 0.000000 1.000000 0.000000
-0.037367 1.000000 0.018699 14 64 80 0.000000 1.000000 0.000000
-0.526172 0.899740 0.218546 14 64 80 0.000419 -1.000000 0.000021
-0.071952 0.899929 0.136678 14 64 80 0.000419 -1.000000 0.000021
-0.165197 0.899899 0.571844 14 64 80 0.000419 -1.000000 0.000021
-0.403473 1.000000 0.046341 14 64 80 0.000000 1.000000 0.000000
-0.031481 0.922238 0.655275 14 64 80 0.000060 -0.140847 0.990031
-0.334472 0.937200 0.656494 14 64 80 0.000000 0.000000 1.000000
-0.061759 1.000000 0.166645 14 64 80 0.000000 1.000000 0.000000
-0.600849 0.917851 0.650816 14 64 80 -0.387805 -0.114471 0.914606
-0.152105 1.000000 0.550779 14 64 80 0.000000 1.000000 0.000000
-0.654463 0.918328 0.490150 14 64 80 -0.990014 -0.140970 0.000000
-0.655902 0.971263 0.210213 14 64 80 -0.990005 0.141031 0.000000
-0.153639 0.899902 0.512215 14 64 80 0.000419 -1.000000 0.000021
-0.536282 1.000000 0.500140 14 64 80 0.000000 1.000000 0.000000
-0.023381 0.975542 0.655585 14 64 80 0.000000 0.140889 0.990025
-0.609050 0.899707 0.269179 14 64 80 0.000419 -1.000000 0.000021
-0.555445 0.892495 0.384043 14 64 80 0.000235 0.000000 -1.000000
-0.142722 0.899901 0.243433 14 64 80 0.000419 -1.000000 0.000021
-0.315817 1.000000 0.353364 14 64 80 0.000000 1.000000 0.000000
-0.040448 1.000000 0.044207 14 64 80 0.000000 1.000000 0.000000
-0.392013 1.000000 0.562260 14 64 80 0.000000 1.000000 0.000000
-0.557165 1.000000 0.155104 14 64 80 0.000000 1.000000 0.000000
-0.411896 1.000000 0.156439 14 64 80 0.000000 1.000000 0.000000
-0.573699 0.899721 0.236854 14 64 80 0.000419 -1.000000 0.000021
-0.409567 0.907998 0.649078 14 64 80 0.000216 -0.514906 0.857246
-0.311296 1.000000 0.433225 14 64 80 0.000000 1.000000 0.000000
-0.255238 1.000000 0.388172 14 64 80 0.000000 1.000000 0.000000
-0.000662 0.899960 0.229781 14 64 80 0.000419 -1.000000 0.000021
-0.227934 1.000000 0.524826 14 64 80 0.000000 1.000000 0.000000
-0.393699 1.000000 0.595065 14 64 80 0.000000 1.000000 0.000000
-0.378310 0.899803 0.266320 14 64 80 0.000419 -1.000000 0.000021
-0.518620 0.904108 0.578145 14 64 80 0.000000 1.000000 0.000000
-0.255778 0.899859 0.473216 14 64 80 0.000419 -1.000000 0.000021
-0.656202 0.951998 0.283525 14 64 80 -1.000000 0.000000 0.000000
-0.490685 1.000000 0.561078 14 64 80 0.000000 1.000000 0.000000
-0.252206 0.899863 0.601648 14 64 80 0.000419 -1.000000 0.000017
-0.199696 1.000000 0.422311 14 64 80 0.000000 1.000000 0.000000
-0.455176 1.000000 0.033045 14 64 80 0.000000 1.000000 0.000000
-0.436315 0.904108 0.549894 14 64 80 0.000000 1.000000 0.000000
-0.505826 1.000000 0.394234 14 64 80 0.000000 1.000000 0.000000
-0.523835 1.000000 0.439618 14 64 80 0.000000 1.000000 0.000000
-0.558725 0.899725 0.154658 14 64 80 0.000419 -1.000000 0.000021
-0.103310 0.917305 0.654578 14 64 80 0.000060 -0.140847 0.990031
-0.268560 0.900725 0.631729 14 64 80 0.000414 -0.989929 0.141566
-0.511718 1.000000 0.208583 14 64 80 0.000000 1.000000 0.000000
