ply
format ascii 1.0
element vertex 729
property float x
property float y
property float z
property uchar red
property uchar green
property uchar blue
property float nx
property float ny
property float nz
end_header
-0.351148 0.446648 0.380580 93 81 134 0.000000 -1.000000 0.000000
-0.336983 0.460764 0.116123 93 81 134 0.000000 1.000000 0.000000
-0.223530 0.446648 0.850754 93 81 134 0.000000 -1.000000 0.000000
-0.229966 0.446648 0.764559 93 81 134 0.000000 -1.000000 0.000000
-0.495376 0.400132 0.630733 93 81 134 0.000000 -1.000000 0.000000
-0.396808 0.460764 0.156024 93 81 134 0.000000 1.000000 0.000000
-0.501251 0.458952 0.662198 93 81 134 0.000000 1.000000 0.000000
-0.506904 0.421804 0.658020 93 81 134 0.000000 0.000000 1.000000
-0.071858 0.460764 0.710465 93 81 134 0.000000 1.000000 0.000000
-0.036942 0.460764 0.062843 93 81 134 0.000000 1.000000 0.000000
-0.161966 0.458952 0.967556 93 81 134 0.000000 1.000000 0.000000
-0.174639 0.460764 0.757610 93 81 134 0.000000 1.000000 0.000000
-0.103581 0.446648 0.082295 93 81 134 0.000000 -1.000000 0.000000
-0.329309 0.443151 0.970392 93 81 134 -0.365480 0.000000 0.930819
-0.457606 0.458952 0.141944 93 81 134 0.000000 1.000000 0.000000
-0.112582 0.460764 0.428653 93 81 134 0.000000 1.000000 0.000000
-0.266509 0.446648 0.077119 93 81 134 0.000000 -1.000000 0.000000
-0.524566 0.400132 0.532238 93 81 134 0.000000 -1.000000 0.000000
-0.105844 0.460764 0.132899 93 81 134 0.000000 1.000000 0.000000
-0.189160 0.400132 0.896938 93 81 134 0.000000 -1.000000 0.000000
-0.063969 0.446648 0.646755 93 81 134 0.000000 -1.000000 0.000000
-0.344317 0.446648 0.362345 93 81 134 0.000000 -1.000000 0.000000
-0.365197 0.398816 0.547872 93 81 134 0.999995 0.003202 0.000000
-0.070921 0.460764 0.393417 93 81 134 0.000000 1.000000 0.000000
-0.529398 0.408346 0.570755 93 81 134 -1.000000 0.000000 0.000000
-0.007416 0.460764 0.019917 93 81 134 0.000000 1.000000 0.000000
-0.068453 0.446648 0.210059 93 81 134 0.000000 -1.000000 0.000000
-0.385857 0.399646 0.007991 93 81 134 0.000000 1.000000 0.000000
-0.435282 0.411280 0.615628 93 81 134 1.000000 0.000000 0.000000
-0.173833 0.460764 0.903470 93 81 134 0.000000 1.000000 0.000000
-0.388452 0.399646 0.440889 93 81 134 0.000000 1.000000 0.000000
-0.503817 0.458952 0.103930 93 81 134 0.000000 1.000000 0.000000
-0.211304 0.399520 0.817201 93 81 134 0.000000 1.000000 0.000000
-0.362905 0.446648 0.344854 93 81 134 0.000000 -1.000000 0.000000
-0.264065 0.460764 0.281180 93 81 134 0.000000 1.000000 0.000000
-0.245241 0.446648 0.278619 93 81 134 0.000000 -1.000000 0.000000
-0.141366 0.446648 0.043488 93 81 134 0.000000 -1.000000 0.000000
-0.220446 0.460764 0.124045 93 81 134 0.000000 1.000000 0.000000
-0.037739 0.446648 0.403022 93 81 134 0.000000 -1.000000 0.000000
-0.077988 0.446648 0.858262 93 81 134 0.000000 -1.000000 0.000000
-0.160539 0.460764 0.555476 93 81 134 0.000000 1.000000 0.000000
-0.190781 0.460764 0.773001 93 81 134 0.000000 1.000000 0.000000
-0.376202 0.446648 0.647258 93 81 134 0.000000 -1.000000 0.000000
-0.206764 0.400132 0.937477 93 81 134 0.000000 -1.000000 0.000000
-0.209975 0.460764 0.345780 93 81 134 0.000000 1.000000 0.000000
-0.359895 0.459391 0.807086 93 81 134 -0.535564 0.707340 0.461347
-0.146394 0.460764 0.469523 93 81 134 0.000000 1.000000 0.000000
-0.052228 0.460764 0.741530 93 81 134 0.000000 1.000000 0.000000
-0.192459 0.446648 0.665173 93 81 134 0.000000 -1.000000 0.000000
-0.350809 0.460764 0.637748 93 81 134 0.000000 1.000000 0.000000
-0.401089 0.400132 0.894554 93 81 134 0.000000 -1.000000 0.000000
-0.429696 0.460764 0.537806 93 81 134 0.000000 1.000000 0.000000
-0.418402 0.460764 0.366529 93 81 134 0.000000 1.000000 0.000000
-0.430785 0.446648 0.033881 93 81 134 0.000000 -1.000000 0.000000
-0.461603 0.458952 0.568080 93 81 134 0.000000 1.000000 0.000000
-0.402236 0.423739 0.925332 93 81 134 -0.631656 0.000000 0.775249
-0.119417 0.446648 0.107040 93 81 134 0.000000 -1.000000 0.000000
-0.024760 0.460764 0.255220 93 81 134 0.000000 1.000000 0.000000
-0.335610 0.460764 0.661941 93 81 134 0.000000 1.000000 0.000000
-0.105707 0.446648 0.700744 93 81 134 0.000000 -1.000000 0.000000
-0.149765 0.460764 0.192691 93 81 134 0.000000 1.000000 0.000000
-0.343091 0.446648 0.462588 93 81 134 0.000000 -1.000000 0.000000
-0.365197 0.398769 0.304030 93 81 134 0.999995 0.003202 0.000000
-0.360883 0.446648 0.437957 93 81 134 0.000000 -1.000000 0.000000
-0.161362 0.458952 0.947929 93 81 134 0.000000 1.000000 0.000000
-0.430683 0.460764 0.005173 93 81 134 0.000000 1.000000 0.000000
-0.172428 0.460764 0.312324 93 81 134 0.000000 1.000000 0.000000
-0.379459 0.446648 0.626351 93 81 134 0.000000 -1.000000 0.000000
-0.045367 0.460764 0.898207 93 81 134 0.000000 1.000000 0.000000
-0.196522 0.398459 0.803683 93 81 134 0.000000 0.003202 -0.999995
-0.435282 0.446142 0.360080 93 81 134 1.000000 0.000000 0.000000
-0.068744 0.399520 0.821570 93 81 134 0.000000 1.000000 0.000000
-0.386626 0.399646 0.406498 93 81 134 0.000000 1.000000 0.000000
-0.191827 0.446648 0.557366 93 81 134 0.000000 -1.000000 0.000000
-0.071965 0.446648 0.207649 93 81 134 0.000000 -1.000000 0.000000
-0.167917 0.460764 0.900170 93 81 134 0.000000 1.000000 0.000000
-0.156881 0.460764 0.060113 93 81 134 0.000000 1.000000 0.000000
-0.466500 0.458952 0.723386 93 81 134 0.000000 1.000000 0.000000
-0.175292 0.460764 0.619079 93 81 134 0.000000 1.000000 0.000000
-0.470291 0.458952 0.314032 93 81 134 0.000000 1.000000 0.000000
-0.386897 0.441361 0.937215 93 81 134 -0.549300 0.000000 0.835626
-0.379431 0.399646 0.647478 93 81 134 0.000000 1.000000 0.000000
-0.072200 0.460764 0.367541 93 81 134 0.000000 1.000000 0.000000
-0.435282 0.419336 0.497894 93 81 134 1.000000 0.000000 0.000000
-0.529398 0.412161 0.620327 93 81 134 -1.000000 0.000000 0.000000
-0.162182 0.460764 0.795049 93 81 134 0.000000 1.000000 0.000000
-0.404217 0.446648 0.151219 93 81 134 0.000000 -1.000000 0.000000
-0.105817 0.446648 0.003098 93 81 134 0.000000 -1.000000 0.000000
-0.354326 0.407446 0.792792 93 81 134 0.000000 1.000000 0.000000
-0.348270 0.460764 0.578089 93 81 134 0.000000 1.000000 0.000000
-0.319463 0.460764 0.102319 93 81 134 0.000000 1.000000 0.000000
-0.529398 0.455500 0.367462 93 81 134 -1.000000 0.000000 0.000000
-0.280295 0.446648 0.088704 93 81 134 0.000000 -1.000000 0.000000
-0.526833 0.400132 0.221807 93 81 134 0.000000 -1.000000 0.000000
-0.150353 0.460764 0.622906 93 81 134 0.000000 1.000000 0.000000
-0.016271 0.446648 0.651790 93 81 134 0.000000 -1.000000 0.000000
-0.369135 0.460764 0.572689 93 81 134 0.000000 1.000000 0.000000
-0.173995 0.460764 0.522228 93 81 134 0.000000 1.000000 0.000000
-0.210475 0.460764 0.198458 93 81 134 0.000000 1.000000 0.000000
-0.334738 0.460764 0.618834 93 81 134 0.000000 1.000000 0.000000
-0.332806 0.458952 0.867151 93 81 134 0.000000 1.000000 0.000000
-0.238727 0.460764 0.535133 93 81 134 0.000000 1.000000 0.000000
-0.509784 0.458952 0.200178 93 81 134 0.000000 1.000000 0.000000
-0.529398 0.419871 0.453975 93 81 134 -1.000000 0.000000 0.000000
-0.124173 0.446648 0.160478 93 81 134 0.000000 -1.000000 0.000000
-0.313495 0.446648 0.418106 93 81 134 0.000000 -1.000000 0.000000
-0.440073 0.458952 0.485089 93 81 134 0.000000 1.000000 0.000000
-0.529398 0.415323 0.058389 93 81 134 -1.000000 0.000000 0.000000
-0.271269 0.460764 0.189893 93 81 134 0.000000 1.000000 0.000000
-0.410329 0.460764 0.602907 93 81 134 0.000000 1.000000 0.000000
-0.306292 0.400132 0.922201 93 81 134 0.000000 -1.000000 0.000000
-0.370572 0.399646 0.537681 93 81 134 0.000000 1.000000 0.000000
-0.042063 0.458952 0.954053 93 81 134 0.000000 1.000000 0.000000
-0.519924 0.458952 0.727516 93 81 134 0.000000 1.000000 0.000000
-0.447802 0.458952 0.159599 93 81 134 0.000000 1.000000 0.000000
-0.385076 0.455239 0.773862 93 81 134 -0.858721 0.000000 0.512443
-0.501826 0.458952 0.322962 93 81 134 0.000000 1.000000 0.000000
-0.199999 0.458952 0.931417 93 81 134 0.000000 1.000000 0.000000
-0.282236 0.460764 0.683249 93 81 134 0.000000 1.000000 0.000000
-0.529398 0.404541 0.033032 93 81 134 -1.000000 0.000000 0.000000
-0.417297 0.446648 0.065959 93 81 134 0.000000 -1.000000 0.000000
-0.245774 0.446648 0.136798 93 81 134 0.000000 -1.000000 0.000000
-0.280181 0.446648 0.016925 93 81 134 0.000000 -1.000000 0.000000
-0.304510 0.400132 0.964226 93 81 134 0.000000 -1.000000 0.000000
-0.470113 0.400132 0.501894 93 81 134 0.000000 -1.000000 0.000000
-0.228183 0.413679 0.881655 93 81 134 0.139287 0.000000 -0.990252
-0.151918 0.446648 0.412116 93 81 134 0.000000 -1.000000 0.000000
-0.223983 0.460764 0.705685 93 81 134 0.000000 1.000000 0.000000
-0.509159 0.458952 0.487861 93 81 134 0.000000 1.000000 0.000000
-0.056240 0.460764 0.821812 93 81 134 0.000000 1.000000 0.000000
-0.398560 0.446648 0.156490 93 81 134 0.000000 -1.000000 0.000000
-0.161403 0.446648 0.779961 93 81 134 0.000000 -1.000000 0.000000
-0.084834 0.446648 0.229834 93 81 134 0.000000 -1.000000 0.000000
-0.529398 0.402138 0.023913 93 81 134 -1.000000 0.000000 0.000000
-0.529398 0.417570 0.269773 93 81 134 -1.000000 0.000000 0.000000
-0.067978 0.460764 0.685090 93 81 134 0.000000 1.000000 0.000000
-0.187638 0.452988 0.990350 93 81 134 -1.000000 0.000000 0.000000
-0.516504 0.458952 0.104883 93 81 134 0.000000 1.000000 0.000000
-0.266315 0.446648 0.152775 93 81 134 0.000000 -1.000000 0.000000
-0.414317 0.460764 0.041987 93 81 134 0.000000 1.000000 0.000000
-0.025184 0.446648 0.677352 93 81 134 0.000000 -1.000000 0.000000
-0.084477 0.446648 0.156640 93 81 134 0.000000 -1.000000 0.000000
-0.267931 0.446648 0.266218 93 81 134 0.000000 -1.000000 0.000000
-0.239936 0.446648 0.310009 93 81 134 0.000000 -1.000000 0.000000
-0.081304 0.446648 0.004188 93 81 134 0.000000 -1.000000 0.000000
-0.033161 0.460764 0.610276 93 81 134 0.000000 1.000000 0.000000
-0.441203 0.458952 0.802791 93 81 134 0.000000 1.000000 0.000000
-0.498442 0.458952 0.436296 93 81 134 0.000000 1.000000 0.000000
-0.168887 0.460764 0.814887 93 81 134 0.000000 1.000000 0.000000
-0.375123 0.460764 0.335215 93 81 134 0.000000 1.000000 0.000000
-0.231324 0.460764 0.450657 93 81 134 0.000000 1.000000 0.000000
-0.410723 0.460764 0.218598 93 81 134 0.000000 1.000000 0.000000
-0.436808 0.458952 0.582541 93 81 134 0.000000 1.000000 0.000000
-0.527022 0.400132 0.392115 93 81 134 0.000000 -1.000000 0.000000
-0.087596 0.458952 0.918374 93 81 134 0.000000 1.000000 0.000000
-0.396658 0.460764 0.379818 93 81 134 0.000000 1.000000 0.000000
-0.013484 0.460764 0.369072 93 81 134 0.000000 1.000000 0.000000
-0.398156 0.460764 0.740648 93 81 134 0.000000 1.000000 0.000000
-0.516106 0.404957 0.754073 93 81 134 -0.964156 0.000000 0.265335
-0.387768 0.460764 0.007371 93 81 134 0.000000 1.000000 0.000000
-0.063596 0.460764 0.576947 93 81 134 0.000000 1.000000 0.000000
-0.394395 0.446648 0.068637 93 81 134 0.000000 -1.000000 0.000000
-0.193542 0.460764 0.272209 93 81 134 0.000000 1.000000 0.000000
-0.360320 0.458952 0.870494 93 81 134 0.000000 1.000000 0.000000
-0.382167 0.446648 0.069467 93 81 134 0.000000 -1.000000 0.000000
-0.058905 0.460764 0.151660 93 81 134 0.000000 1.000000 0.000000
-0.130473 0.460764 0.172630 93 81 134 0.000000 1.000000 0.000000
-0.402944 0.407446 0.745690 93 81 134 0.000000 1.000000 0.000000
-0.420938 0.460764 0.457781 93 81 134 0.000000 1.000000 0.000000
-0.386809 0.399646 0.004737 93 81 134 0.000000 1.000000 0.000000
-0.342635 0.460764 0.470494 93 81 134 0.000000 1.000000 0.000000
-0.279904 0.460764 0.141736 93 81 134 0.000000 1.000000 0.000000
-0.334633 0.400132 0.837402 93 81 134 0.000000 -1.000000 0.000000
-0.453296 0.400132 0.241536 93 81 134 0.000000 -1.000000 0.000000
-0.006741 0.446648 0.755178 93 81 134 0.000000 -1.000000 0.000000
-0.474059 0.400132 0.682026 93 81 134 0.000000 -1.000000 0.000000
-0.519690 0.431338 0.741048 93 81 134 -0.964156 0.000000 0.265335
-0.372368 0.399646 0.321611 93 81 134 0.000000 1.000000 0.000000
-0.499418 0.400132 0.705841 93 81 134 0.000000 -1.000000 0.000000
-0.079391 0.460764 0.421543 93 81 134 0.000000 1.000000 0.000000
-0.115218 0.446648 0.505264 93 81 134 0.000000 -1.000000 0.000000
-0.091515 0.460764 0.548743 93 81 134 0.000000 1.000000 0.000000
-0.274328 0.446648 0.138001 93 81 134 0.000000 -1.000000 0.000000
-0.221421 0.446648 0.059716 93 81 134 0.000000 -1.000000 0.000000
-0.481562 0.458952 0.130225 93 81 134 0.000000 1.000000 0.000000
-0.328232 0.460764 0.512504 93 81 134 0.000000 1.000000 0.000000
-0.038351 0.460764 0.803519 93 81 134 0.000000 1.000000 0.000000
-0.463884 0.400132 0.236272 93 81 134 0.000000 -1.000000 0.000000
-0.460807 0.400132 0.348950 93 81 134 0.000000 -1.000000 0.000000
-0.426767 0.460764 0.044769 93 81 134 0.000000 1.000000 0.000000
-0.332882 0.460764 0.474651 93 81 134 0.000000 1.000000 0.000000
-0.486889 0.458952 0.346427 93 81 134 0.000000 1.000000 0.000000
-0.121390 0.460764 0.171817 93 81 134 0.000000 1.000000 0.000000
-0.200260 0.400132 0.911909 93 81 134 0.000000 -1.000000 0.000000
-0.023384 0.460764 0.524557 93 81 134 0.000000 1.000000 0.000000
-0.240795 0.460764 0.178848 93 81 134 0.000000 1.000000 0.000000
-0.083207 0.460764 0.059456 93 81 134 0.000000 1.000000 0.000000
-0.136994 0.446648 0.187667 93 81 134 0.000000 -1.000000 0.000000
-0.175543 0.460764 0.555423 93 81 134 0.000000 1.000000 0.000000
-0.054768 0.400132 0.930216 93 81 134 0.000000 -1.000000 0.000000
-0.097706 0.460764 0.508149 93 81 134 0.000000 1.000000 0.000000
-0.358526 0.460764 0.748399 93 81 134 0.000000 1.000000 0.000000
-0.076590 0.446648 0.691931 93 81 134 0.000000 -1.000000 0.000000
-0.446821 0.400132 0.477409 93 81 134 0.000000 -1.000000 0.000000
-0.013715 0.458952 0.991127 93 81 134 0.000000 1.000000 0.000000
-0.389858 0.446648 0.379703 93 81 134 0.000000 -1.000000 0.000000
-0.327045 0.446648 0.050222 93 81 134 0.000000 -1.000000 0.000000
-0.382417 0.460764 0.415249 93 81 134 0.000000 1.000000 0.000000
-0.371759 0.446648 0.553803 93 81 134 0.000000 -1.000000 0.000000
-0.435282 0.405235 0.632501 93 81 134 1.000000 0.000000 0.000000
-0.479576 0.436435 0.657998 93 81 134 0.000000 0.000000 -1.000000
-0.327234 0.460764 0.463178 93 81 134 0.000000 1.000000 0.000000
-0.342015 0.460764 0.217724 93 81 134 0.000000 1.000000 0.000000
-0.366260 0.446648 0.340317 93 81 134 0.000000 -1.000000 0.000000
-0.105725 0.460764 0.391772 93 81 134 0.000000 1.000000 0.000000
-0.264092 0.446648 0.346951 93 81 134 0.000000 -1.000000 0.000000
-0.518396 0.458952 0.431189 93 81 134 0.000000 1.000000 0.000000
-0.529398 0.415731 0.607611 93 81 134 -1.000000 0.000000 0.000000
-0.174184 0.458952 0.935887 93 81 134 0.000000 1.000000 0.000000
-0.207290 0.446648 0.290402 93 81 134 0.000000 -1.000000 0.000000
-0.168157 0.460764 0.164497 93 81 134 0.000000 1.000000 0.000000
-0.308626 0.446648 0.407085 93 81 134 0.000000 -1.000000 0.000000
-0.253914 0.460764 0.587521 93 81 134 0.000000 1.000000 0.000000
-0.075304 0.460764 0.889936 93 81 134 0.000000 1.000000 0.000000
-0.106430 0.460764 0.479008 93 81 134 0.000000 1.000000 0.000000
-0.192776 0.458952 0.907013 93 81 134 0.000000 1.000000 0.000000
-0.524719 0.458952 0.388402 93 81 134 0.000000 1.000000 0.000000
-0.396768 0.458952 0.883108 93 81 134 0.000000 1.000000 0.000000
-0.059844 0.446648 0.410182 93 81 134 0.000000 -1.000000 0.000000
-0.145538 0.446648 0.567106 93 81 134 0.000000 -1.000000 0.000000
-0.097989 0.446648 0.832148 93 81 134 0.000000 -1.000000 0.000000
-0.192134 0.460764 0.423514 93 81 134 0.000000 1.000000 0.000000
-0.087752 0.460764 0.409715 93 81 134 0.000000 1.000000 0.000000
-0.368708 0.458952 0.814823 93 81 134 0.000000 1.000000 0.000000
-0.369568 0.446648 0.156399 93 81 134 0.000000 -1.000000 0.000000
-0.098125 0.460764 0.699754 93 81 134 0.000000 1.000000 0.000000
-0.380899 0.452252 0.774444 93 81 134 0.868178 0.000000 -0.496253
-0.304157 0.460764 0.259930 93 81 134 0.000000 1.000000 0.000000
-0.404885 0.446648 0.049498 93 81 134 0.000000 -1.000000 0.000000
-0.460084 0.458952 0.806024 93 81 134 0.000000 1.000000 0.000000
-0.397990 0.446648 0.420020 93 81 134 0.000000 -1.000000 0.000000
-0.212904 0.460764 0.054254 93 81 134 0.000000 1.000000 0.000000
-0.496446 0.430837 0.657998 93 81 134 0.000000 0.000000 -1.000000
-0.334771 0.400763 0.726240 93 81 134 0.000000 0.000000 -1.000000
-0.505799 0.400132 0.587144 93 81 134 0.000000 -1.000000 0.000000
-0.464183 0.458952 0.328453 93 81 134 0.000000 1.000000 0.000000
-0.042208 0.446648 0.372696 93 81 134 0.000000 -1.000000 0.000000
-0.454096 0.458952 0.248222 93 81 134 0.000000 1.000000 0.000000
-0.170758 0.460764 0.111285 93 81 134 0.000000 1.000000 0.000000
-0.162383 0.446648 0.023493 93 81 134 0.000000 -1.000000 0.000000
-0.312791 0.400132 0.864159 93 81 134 0.000000 -1.000000 0.000000
-0.065583 0.446648 0.724313 93 81 134 0.000000 -1.000000 0.000000
-0.163879 0.460764 0.787110 93 81 134 0.000000 1.000000 0.000000
-0.322251 0.460764 0.144100 93 81 134 0.000000 1.000000 0.000000
-0.098388 0.446648 0.767161 93 81 134 0.000000 -1.000000 0.000000
-0.220633 0.460764 0.214751 93 81 134 0.000000 1.000000 0.000000
-0.279112 0.446648 0.511065 93 81 134 0.000000 -1.000000 0.000000
-0.236178 0.446648 0.315966 93 81 134 0.000000 -1.000000 0.000000
-0.462400 0.458952 0.750895 93 81 134 0.000000 1.000000 0.000000
-0.372466 0.446648 0.291048 93 81 134 0.000000 -1.000000 0.000000
-0.204500 0.460764 0.129707 93 81 134 0.000000 1.000000 0.000000
-0.053488 0.460764 0.688557 93 81 134 0.000000 1.000000 0.000000
-0.366404 0.447089 0.797750 93 81 134 -0.554999 -0.707420 0.437645
-0.435367 0.458952 0.811213 93 81 134 0.000000 1.000000 0.000000
-0.435282 0.402694 0.359873 93 81 134 1.000000 0.000000 0.000000
-0.238009 0.446648 0.638587 93 81 134 0.000000 -1.000000 0.000000
-0.107408 0.460764 0.562456 93 81 134 0.000000 1.000000 0.000000
-0.296346 0.446648 0.091977 93 81 134 0.000000 -1.000000 0.000000
-0.525864 0.450170 0.707944 93 81 134 -0.986940 0.000000 0.161089
-0.435282 0.439793 0.338000 93 81 134 1.000000 0.000000 0.000000
-0.243360 0.454931 0.877949 93 81 134 0.252319 0.000000 -0.967644
-0.396130 0.460764 0.559887 93 81 134 0.000000 1.000000 0.000000
-0.108983 0.446648 0.420707 93 81 134 0.000000 -1.000000 0.000000
-0.008190 0.460764 0.642242 93 81 134 0.000000 1.000000 0.000000
-0.329712 0.460764 0.793087 93 81 134 0.000000 1.000000 0.000000
-0.390262 0.458952 0.916059 93 81 134 0.000000 1.000000 0.000000
-0.529398 0.402962 0.306681 93 81 134 -1.000000 0.000000 0.000000
-0.416036 0.460764 0.639696 93 81 134 0.000000 1.000000 0.000000
-0.365316 0.399646 0.520759 93 81 134 0.000000 1.000000 0.000000
-0.497501 0.458952 0.104807 93 81 134 0.000000 1.000000 0.000000
-0.293923 0.460764 0.140402 93 81 134 0.000000 1.000000 0.000000
-0.324236 0.460764 0.511048 93 81 134 0.000000 1.000000 0.000000
-0.192101 0.460764 0.310663 93 81 134 0.000000 1.000000 0.000000
-0.212695 0.446648 0.649218 93 81 134 0.000000 -1.000000 0.000000
-0.129292 0.400132 0.965491 93 81 134 0.000000 -1.000000 0.000000
-0.435282 0.452905 0.327525 93 81 134 1.000000 0.000000 0.000000
-0.326968 0.446648 0.260897 93 81 134 0.000000 -1.000000 0.000000
-0.073877 0.446648 0.462875 93 81 134 0.000000 -1.000000 0.000000
-0.293087 0.460764 0.679791 93 81 134 0.000000 1.000000 0.000000
-0.076887 0.460764 0.524832 93 81 134 0.000000 1.000000 0.000000
-0.161872 0.446648 0.836618 93 81 134 0.000000 -1.000000 0.000000
-0.431310 0.458952 0.860514 93 81 134 0.000000 1.000000 0.000000
-0.299039 0.460764 0.203644 93 81 134 0.000000 1.000000 0.000000
-0.237294 0.446648 0.802393 93 81 134 0.000000 -1.000000 0.000000
-0.462717 0.400132 0.256773 93 81 134 0.000000 -1.000000 0.000000
-0.149743 0.446648 0.491725 93 81 134 0.000000 -1.000000 0.000000
-0.207347 0.436015 0.884398 93 81 134 0.014714 0.000000 -0.999892
-0.050041 0.460764 0.330198 93 81 134 0.000000 1.000000 0.000000
-0.456868 0.400132 0.788417 93 81 134 0.000000 -1.000000 0.000000
-0.238210 0.460764 0.673403 93 81 134 0.000000 1.000000 0.000000
-0.041268 0.420440 0.905886 93 81 134 0.000000 0.000000 -1.000000
-0.032593 0.460764 0.153599 93 81 134 0.000000 1.000000 0.000000
-0.520097 0.427332 0.739569 93 81 134 -0.964156 0.000000 0.265335
-0.245982 0.400132 0.946370 93 81 134 0.000000 -1.000000 0.000000
-0.313196 0.460764 0.610295 93 81 134 0.000000 1.000000 0.000000
-0.025713 0.460764 0.625703 93 81 134 0.000000 1.000000 0.000000
-0.424728 0.460764 0.286993 93 81 134 0.000000 1.000000 0.000000
-0.134590 0.446648 0.308090 93 81 134 0.000000 -1.000000 0.000000
-0.435282 0.409286 0.498470 93 81 134 1.000000 0.000000 0.000000
-0.156604 0.460764 0.272793 93 81 134 0.000000 1.000000 0.000000
-0.113806 0.446648 0.052923 93 81 134 0.000000 -1.000000 0.000000
-0.381949 0.399646 0.495390 93 81 134 0.000000 1.000000 0.000000
-0.221087 0.446648 0.132199 93 81 134 0.000000 -1.000000 0.000000
-0.474831 0.458952 0.314139 93 81 134 0.000000 1.000000 0.000000
-0.107682 0.446648 0.002193 93 81 134 0.000000 -1.000000 0.000000
-0.529398 0.410594 0.571378 93 81 134 -1.000000 0.000000 0.000000
-0.279494 0.446648 0.502602 93 81 134 0.000000 -1.000000 0.000000
-0.240395 0.460764 0.649034 93 81 134 0.000000 1.000000 0.000000
-0.208387 0.424922 0.999045 93 81 134 -0.053891 0.000000 0.998547
-0.288900 0.460764 0.026573 93 81 134 0.000000 1.000000 0.000000
-0.106575 0.446648 0.340497 93 81 134 0.000000 -1.000000 0.000000
-0.408661 0.446648 0.321122 93 81 134 0.000000 -1.000000 0.000000
-0.409539 0.448975 0.706281 93 81 134 0.984437 0.000000 -0.175739
-0.141822 0.400132 0.924823 93 81 134 0.000000 -1.000000 0.000000
-0.468527 0.426618 0.658020 93 81 134 0.000000 0.000000 1.000000
-0.034595 0.460764 0.306104 93 81 134 0.000000 1.000000 0.000000
-0.433021 0.400132 0.693722 93 81 134 0.000000 -1.000000 0.000000
-0.322675 0.446648 0.188607 93 81 134 0.000000 -1.000000 0.000000
-0.196623 0.446648 0.520125 93 81 134 0.000000 -1.000000 0.000000
-0.320402 0.460764 0.743261 93 81 134 0.000000 1.000000 0.000000
-0.486307 0.400132 0.263415 93 81 134 0.000000 -1.000000 0.000000
-0.216454 0.460764 0.334130 93 81 134 0.000000 1.000000 0.000000
-0.529244 0.400132 0.076143 93 81 134 0.000000 -1.000000 0.000000
-0.220014 0.446648 0.677581 93 81 134 0.000000 -1.000000 0.000000
-0.009684 0.446648 0.000040 93 81 134 0.000000 -1.000000 0.000000
-0.012469 0.460764 0.708199 93 81 134 0.000000 1.000000 0.000000
-0.367209 0.460764 0.070199 93 81 134 0.000000 1.000000 0.000000
-0.313425 0.400132 0.860518 93 81 134 0.000000 -1.000000 0.000000
-0.175989 0.458952 0.976739 93 81 134 0.000000 1.000000 0.000000
-0.336551 0.444263 0.966814 93 81 134 -0.460372 0.000000 0.887726
-0.440325 0.433203 0.657998 93 81 134 0.000000 0.000000 -1.000000
-0.078599 0.446648 0.474445 93 81 134 0.000000 -1.000000 0.000000
-0.002917 0.446648 0.612083 93 81 134 0.000000 -1.000000 0.000000
-0.335567 0.446648 0.262623 93 81 134 0.000000 -1.000000 0.000000
-0.304966 0.446648 0.617322 93 81 134 0.000000 -1.000000 0.000000
-0.447679 0.458952 0.523065 93 81 134 0.000000 1.000000 0.000000
-0.312993 0.446648 0.582445 93 81 134 0.000000 -1.000000 0.000000
-0.306982 0.407446 0.807087 93 81 134 0.000000 1.000000 0.000000
-0.435282 0.417594 0.571440 93 81 134 1.000000 0.000000 0.000000
-0.395224 0.446648 0.174646 93 81 134 0.000000 -1.000000 0.000000
-0.222347 0.446648 0.237003 93 81 134 0.000000 -1.000000 0.000000
-0.171943 0.460083 0.906567 93 81 134 0.000000 0.707107 0.707107
-0.524600 0.400132 0.511814 93 81 134 0.000000 -1.000000 0.000000
-0.436330 0.447696 0.039750 93 81 134 -0.707107 -0.707107 0.000000
-0.355498 0.409437 0.807520 93 81 134 0.750091 0.000000 -0.661334
-0.011071 0.460764 0.363661 93 81 134 0.000000 1.000000 0.000000
-0.278249 0.458952 0.883881 93 81 134 0.000000 1.000000 0.000000
-0.481187 0.458952 0.043887 93 81 134 0.000000 1.000000 0.000000
-0.183402 0.460764 0.740508 93 81 134 0.000000 1.000000 0.000000
-0.374726 0.399646 0.437661 93 81 134 0.000000 1.000000 0.000000
-0.525873 0.400132 0.354430 93 81 134 0.000000 -1.000000 0.000000
-0.474379 0.400132 0.668278 93 81 134 0.000000 -1.000000 0.000000
-0.000033 0.446648 0.251573 93 81 134 0.000000 -1.000000 0.000000
-0.141934 0.460764 0.045848 93 81 134 0.000000 1.000000 0.000000
-0.214085 0.446648 0.518821 93 81 134 0.000000 -1.000000 0.000000
-0.111677 0.427424 0.905886 93 81 134 0.000000 0.000000 -1.000000
-0.325692 0.400132 0.937678 93 81 134 0.000000 -1.000000 0.000000
-0.302861 0.446648 0.029775 93 81 134 0.000000 -1.000000 0.000000
-0.524728 0.447167 0.714905 93 81 134 -0.986940 0.000000 0.161089
-0.529398 0.402111 0.324708 93 81 134 -1.000000 0.000000 0.000000
-0.448477 0.443874 0.658020 93 81 134 0.000000 0.000000 1.000000
-0.100725 0.460764 0.478141 93 81 134 0.000000 1.000000 0.000000
-0.370808 0.399646 0.366840 93 81 134 0.000000 1.000000 0.000000
-0.419990 0.400132 0.660462 93 81 134 0.000000 -1.000000 0.000000
-0.435325 0.458952 0.143382 93 81 134 0.000000 1.000000 0.000000
-0.529398 0.400416 0.231143 93 81 134 -1.000000 0.000000 0.000000
-0.384806 0.460764 0.350737 93 81 134 0.000000 1.000000 0.000000
-0.285236 0.460764 0.818837 93 81 134 0.000000 1.000000 0.000000
-0.187636 0.434895 0.941014 93 81 134 1.000000 0.000000 0.000000
-0.005919 0.446648 0.510620 93 81 134 0.000000 -1.000000 0.000000
-0.134639 0.460764 0.791646 93 81 134 0.000000 1.000000 0.000000
-0.030877 0.460764 0.681938 93 81 134 0.000000 1.000000 0.000000
-0.304402 0.446648 0.378045 93 81 134 0.000000 -1.000000 0.000000
-0.529398 0.444579 0.224707 93 81 134 -1.000000 0.000000 0.000000
-0.143095 0.446648 0.380794 93 81 134 0.000000 -1.000000 0.000000
-0.509787 0.458952 0.761808 93 81 134 0.000000 1.000000 0.000000
-0.489012 0.400132 0.303924 93 81 134 0.000000 -1.000000 0.000000
-0.187638 0.400915 0.990383 93 81 134 -1.000000 0.000000 0.000000
-0.193501 0.446648 0.767070 93 81 134 0.000000 -1.000000 0.000000
-0.089123 0.460764 0.689136 93 81 134 0.000000 1.000000 0.000000
-0.518626 0.458952 0.486892 93 81 134 0.000000 1.000000 0.000000
-0.182145 0.446648 0.355744 93 81 134 0.000000 -1.000000 0.000000
-0.529398 0.433210 0.141747 93 81 134 -1.000000 0.000000 0.000000
-0.187910 0.446648 0.318696 93 81 134 0.000000 -1.000000 0.000000
-0.482894 0.454049 0.832740 93 81 134 -0.835661 0.000000 0.549246
-0.227911 0.460764 0.492406 93 81 134 0.000000 1.000000 0.000000
-0.327396 0.460764 0.476416 93 81 134 0.000000 1.000000 0.000000
-0.051949 0.446648 0.858596 93 81 134 0.000000 -1.000000 0.000000
-0.187638 0.420626 0.965709 93 81 134 -1.000000 0.000000 0.000000
-0.454004 0.400132 0.770146 93 81 134 0.000000 -1.000000 0.000000
-0.156249 0.400132 0.938571 93 81 134 0.000000 -1.000000 0.000000
-0.122907 0.460764 0.016499 93 81 134 0.000000 1.000000 0.000000
-0.288017 0.460764 0.242374 93 81 134 0.000000 1.000000 0.000000
-0.447010 0.458952 0.090736 93 81 134 0.000000 1.000000 0.000000
-0.428768 0.400132 0.782082 93 81 134 0.000000 -1.000000 0.000000
-0.529398 0.453869 0.199476 93 81 134 -1.000000 0.000000 0.000000
-0.292909 0.446648 0.169699 93 81 134 0.000000 -1.000000 0.000000
-0.341641 0.446648 0.567815 93 81 134 0.000000 -1.000000 0.000000
-0.443794 0.458952 0.408506 93 81 134 0.000000 1.000000 0.000000
-0.044900 0.400132 0.960735 93 81 134 0.000000 -1.000000 0.000000
-0.157319 0.446648 0.627543 93 81 134 0.000000 -1.000000 0.000000
-0.190429 0.446648 0.647872 93 81 134 0.000000 -1.000000 0.000000
-0.413092 0.458952 0.783219 93 81 134 0.000000 1.000000 0.000000
-0.517767 0.458952 0.446019 93 81 134 0.000000 1.000000 0.000000
-0.021908 0.460764 0.337854 93 81 134 0.000000 1.000000 0.000000
-0.078324 0.400132 0.925597 93 81 134 0.000000 -1.000000 0.000000
-0.368357 0.460764 0.014514 93 81 134 0.000000 1.000000 0.000000
-0.404921 0.460764 0.547545 93 81 134 0.000000 1.000000 0.000000
-0.089858 0.446648 0.176623 93 81 134 0.000000 -1.000000 0.000000
-0.070228 0.446648 0.688274 93 81 134 0.000000 -1.000000 0.000000
-0.170750 0.446648 0.441291 93 81 134 0.000000 -1.000000 0.000000
-0.323002 0.446648 0.654693 93 81 134 0.000000 -1.000000 0.000000
-0.316824 0.460764 0.195866 93 81 134 0.000000 1.000000 0.000000
-0.518694 0.412167 0.657998 93 81 134 0.000000 0.000000 -1.000000
-0.310219 0.446648 0.837658 93 81 134 0.000000 -1.000000 0.000000
-0.242017 0.460764 0.483522 93 81 134 0.000000 1.000000 0.000000
-0.252550 0.460764 0.699421 93 81 134 0.000000 1.000000 0.000000
-0.081437 0.460764 0.609305 93 81 134 0.000000 1.000000 0.000000
-0.134833 0.446648 0.628834 93 81 134 0.000000 -1.000000 0.000000
-0.492858 0.435721 0.658020 93 81 134 0.000000 0.000000 1.000000
-0.332283 0.460764 0.326496 93 81 134 0.000000 1.000000 0.000000
-0.151798 0.446648 0.207942 93 81 134 0.000000 -1.000000 0.000000
-0.231679 0.446648 0.010605 93 81 134 0.000000 -1.000000 0.000000
-0.291220 0.460764 0.092501 93 81 134 0.000000 1.000000 0.000000
-0.476469 0.400132 0.038097 93 81 134 0.000000 -1.000000 0.000000
-0.528667 0.408506 0.675156 93 81 134 -0.998550 0.000000 0.053836
-0.114441 0.460764 0.028295 93 81 134 0.000000 1.000000 0.000000
-0.446236 0.400132 0.604388 93 81 134 0.000000 -1.000000 0.000000
-0.238383 0.446648 0.324967 93 81 134 0.000000 -1.000000 0.000000
-0.355843 0.458952 0.820203 93 81 134 0.000000 1.000000 0.000000
-0.399872 0.460764 0.120972 93 81 134 0.000000 1.000000 0.000000
-0.293607 0.400203 0.983902 93 81 134 -0.265387 0.000000 0.964142
-0.467069 0.400132 0.705154 93 81 134 0.000000 -1.000000 0.000000
-0.278230 0.460764 0.435638 93 81 134 0.000000 1.000000 0.000000
-0.529398 0.402801 0.355632 93 81 134 -1.000000 0.000000 0.000000
-0.120173 0.460764 0.224791 93 81 134 0.000000 1.000000 0.000000
-0.346701 0.446648 0.764985 93 81 134 0.000000 -1.000000 0.000000
-0.090634 0.446648 0.638738 93 81 134 0.000000 -1.000000 0.000000
-0.329700 0.460764 0.408183 93 81 134 0.000000 1.000000 0.000000
-0.087111 0.460764 0.542001 93 81 134 0.000000 1.000000 0.000000
-0.162073 0.399520 0.813962 93 81 134 0.000000 1.000000 0.000000
-0.331528 0.446648 0.462010 93 81 134 0.000000 -1.000000 0.000000
-0.247717 0.460764 0.063237 93 81 134 0.000000 1.000000 0.000000
-0.490979 0.400132 0.479006 93 81 134 0.000000 -1.000000 0.000000
-0.210215 0.460764 0.634405 93 81 134 0.000000 1.000000 0.000000
-0.400626 0.460764 0.356858 93 81 134 0.000000 1.000000 0.000000
-0.529398 0.448592 0.552514 93 81 134 -1.000000 0.000000 0.000000
-0.422101 0.446648 0.275993 93 81 134 0.000000 -1.000000 0.000000
-0.312266 0.400132 0.917576 93 81 134 0.000000 -1.000000 0.000000
-0.041373 0.446648 0.247015 93 81 134 0.000000 -1.000000 0.000000
-0.145871 0.460764 0.575996 93 81 134 0.000000 1.000000 0.000000
-0.158485 0.460764 0.103331 93 81 134 0.000000 1.000000 0.000000
-0.187636 0.441035 0.987376 93 81 134 1.000000 0.000000 0.000000
-0.040299 0.460764 0.750547 93 81 134 0.000000 1.000000 0.000000
-0.162105 0.452802 1.000000 93 81 134 0.000000 0.000000 1.000000
-0.490322 0.458952 0.030600 93 81 134 0.000000 1.000000 0.000000
-0.203085 0.446648 0.789807 93 81 134 0.000000 -1.000000 0.000000
-0.435282 0.434902 0.159187 93 81 134 1.000000 0.000000 0.000000
-0.228141 0.460764 0.620472 93 81 134 0.000000 1.000000 0.000000
-0.221456 0.460764 0.100701 93 81 134 0.000000 1.000000 0.000000
-0.529398 0.419005 0.414502 93 81 134 -1.000000 0.000000 0.000000
-0.195442 0.460764 0.099477 93 81 134 0.000000 1.000000 0.000000
-0.038648 0.446648 0.865574 93 81 134 0.000000 -1.000000 0.000000
-0.435282 0.426256 0.186725 93 81 134 1.000000 0.000000 0.000000
-0.529398 0.439121 0.090005 93 81 134 -1.000000 0.000000 0.000000
-0.055140 0.460764 0.709988 93 81 134 0.000000 1.000000 0.000000
-0.529398 0.403770 0.030487 93 81 134 -1.000000 0.000000 0.000000
-0.363641 0.460764 0.362953 93 81 134 0.000000 1.000000 0.000000
-0.138232 0.460764 0.385472 93 81 134 0.000000 1.000000 0.000000
-0.186817 0.460764 0.068566 93 81 134 0.000000 1.000000 0.000000
-0.143621 0.446648 0.005830 93 81 134 0.000000 -1.000000 0.000000
-0.216634 0.460764 0.475646 93 81 134 0.000000 1.000000 0.000000
-0.529398 0.411212 0.012068 93 81 134 -1.000000 0.000000 0.000000
-0.432299 0.446648 0.095014 93 81 134 0.000000 -1.000000 0.000000
-0.490669 0.400132 0.552879 93 81 134 0.000000 -1.000000 0.000000
-0.028656 0.446648 0.438214 93 81 134 0.000000 -1.000000 0.000000
-0.300847 0.446648 0.159272 93 81 134 0.000000 -1.000000 0.000000
-0.398194 0.458952 0.815607 93 81 134 0.000000 1.000000 0.000000
-0.137533 0.446648 0.188334 93 81 134 0.000000 -1.000000 0.000000
-0.074765 0.446648 0.202973 93 81 134 0.000000 -1.000000 0.000000
-0.211664 0.446648 0.093632 93 81 134 0.000000 -1.000000 0.000000
-0.482237 0.400132 0.356176 93 81 134 0.000000 -1.000000 0.000000
-0.033620 0.446648 0.572742 93 81 134 0.000000 -1.000000 0.000000
-0.489421 0.458952 0.648870 93 81 134 0.000000 1.000000 0.000000
-0.276361 0.446648 0.178595 93 81 134 0.000000 -1.000000 0.000000
-0.041972 0.460764 0.075492 93 81 134 0.000000 1.000000 0.000000
-0.137962 0.460764 0.066701 93 81 134 0.000000 1.000000 0.000000
-0.223093 0.446648 0.733980 93 81 134 0.000000 -1.000000 0.000000
-0.000203 0.446648 0.386896 93 81 134 0.000000 -1.000000 0.000000
-0.163184 0.460764 0.374197 93 81 134 0.000000 1.000000 0.000000
-0.435282 0.426361 0.433763 93 81 134 1.000000 0.000000 0.000000
-0.293422 0.400132 0.892849 93 81 134 0.000000 -1.000000 0.000000
-0.194614 0.446648 0.463234 93 81 134 0.000000 -1.000000 0.000000
-0.311368 0.446648 0.188342 93 81 134 0.000000 -1.000000 0.000000
-0.166868 0.460764 0.776267 93 81 134 0.000000 1.000000 0.000000
-0.529398 0.421665 0.185454 93 81 134 -1.000000 0.000000 0.000000
-0.073615 0.446648 0.010170 93 81 134 0.000000 -1.000000 0.000000
-0.015930 0.446648 0.436756 93 81 134 0.000000 -1.000000 0.000000
-0.426038 0.458952 0.730605 93 81 134 0.000000 1.000000 0.000000
-0.184960 0.460764 0.564134 93 81 134 0.000000 1.000000 0.000000
-0.034784 0.446648 0.839719 93 81 134 0.000000 -1.000000 0.000000
-0.366358 0.460764 0.430888 93 81 134 0.000000 1.000000 0.000000
-0.266339 0.446648 0.340199 93 81 134 0.000000 -1.000000 0.000000
-0.277427 0.460764 0.786098 93 81 134 0.000000 1.000000 0.000000
-0.416030 0.400132 0.696089 93 81 134 0.000000 -1.000000 0.000000
-0.291786 0.460764 0.090430 93 81 134 0.000000 1.000000 0.000000
-0.088144 0.460764 0.702195 93 81 134 0.000000 1.000000 0.000000
-0.133647 0.460764 0.467163 93 81 134 0.000000 1.000000 0.000000
-0.386135 0.399646 0.599285 93 81 134 0.000000 1.000000 0.000000
-0.038720 0.460764 0.826007 93 81 134 0.000000 1.000000 0.000000
-0.249016 0.446648 0.062746 93 81 134 0.000000 -1.000000 0.000000
-0.291744 0.446648 0.099412 93 81 134 0.000000 -1.000000 0.000000
-0.517359 0.400132 0.714772 93 81 134 0.000000 -1.000000 0.000000
-0.187636 0.428755 0.991619 93 81 134 1.000000 0.000000 0.000000
-0.073033 0.460764 0.302552 93 81 134 0.000000 1.000000 0.000000
-0.073455 0.460764 0.132272 93 81 134 0.000000 1.000000 0.000000
-0.277203 0.399520 0.811944 93 81 134 0.000000 1.000000 0.000000
-0.529398 0.458946 0.086223 93 81 134 -1.000000 0.000000 0.000000
-0.213584 0.460764 0.063142 93 81 134 0.000000 1.000000 0.000000
-0.157611 0.460764 0.858433 93 81 134 0.000000 1.000000 0.000000
-0.285316 0.460764 0.484062 93 81 134 0.000000 1.000000 0.000000
-0.307132 0.407446 0.743696 93 81 134 0.000000 1.000000 0.000000
-0.388510 0.458952 0.835150 93 81 134 0.000000 1.000000 0.000000
-0.332567 0.458952 0.867802 93 81 134 0.000000 1.000000 0.000000
-0.078869 0.446648 0.589297 93 81 134 0.000000 -1.000000 0.000000
-0.483534 0.458952 0.254694 93 81 134 0.000000 1.000000 0.000000
-0.241242 0.446648 0.483200 93 81 134 0.000000 -1.000000 0.000000
-0.192572 0.446648 0.850853 93 81 134 0.000000 -1.000000 0.000000
-0.517374 0.400132 0.608077 93 81 134 0.000000 -1.000000 0.000000
-0.156414 0.446648 0.753871 93 81 134 0.000000 -1.000000 0.000000
-0.457146 0.400132 0.826051 93 81 134 0.000000 -1.000000 0.000000
-0.326608 0.446648 0.269998 93 81 134 0.000000 -1.000000 0.000000
-0.293870 0.446648 0.079644 93 81 134 0.000000 -1.000000 0.000000
-0.295409 0.460764 0.349754 93 81 134 0.000000 1.000000 0.000000
-0.043752 0.460764 0.833048 93 81 134 0.000000 1.000000 0.000000
-0.340871 0.446648 0.245794 93 81 134 0.000000 -1.000000 0.000000
-0.050806 0.460764 0.422674 93 81 134 0.000000 1.000000 0.000000
-0.429859 0.458952 0.659158 93 81 134 0.000000 1.000000 0.000000
-0.413722 0.403981 0.680650 93 81 134 0.998618 0.000000 -0.052551
-0.454772 0.458952 0.234553 93 81 134 0.000000 1.000000 0.000000
-0.242075 0.433976 0.995677 93 81 134 -0.161080 0.000000 0.986941
-0.173790 0.446648 0.404307 93 81 134 0.000000 -1.000000 0.000000
-0.092529 0.446648 0.461505 93 81 134 0.000000 -1.000000 0.000000
-0.018483 0.458952 0.994970 93 81 134 0.000000 1.000000 0.000000
-0.529398 0.428553 0.279873 93 81 134 -1.000000 0.000000 0.000000
-0.366220 0.446648 0.236596 93 81 134 0.000000 -1.000000 0.000000
-0.435282 0.448118 0.225619 93 81 134 1.000000 0.000000 0.000000
-0.383105 0.458952 0.879031 93 81 134 0.000000 1.000000 0.000000
-0.135623 0.446648 0.330698 93 81 134 0.000000 -1.000000 0.000000
-0.463005 0.400132 0.359351 93 81 134 0.000000 -1.000000 0.000000
-0.378652 0.446648 0.126950 93 81 134 0.000000 -1.000000 0.000000
-0.373370 0.399646 0.019052 93 81 134 0.000000 1.000000 0.000000
-0.407897 0.460764 0.401603 93 81 134 0.000000 1.000000 0.000000
-0.455285 0.458952 0.063384 93 81 134 0.000000 1.000000 0.000000
-0.321319 0.460764 0.339353 93 81 134 0.000000 1.000000 0.000000
-0.527837 0.445337 0.690561 93 81 134 -0.998550 0.000000 0.053836
-0.091926 0.446648 0.227680 93 81 134 0.000000 -1.000000 0.000000
-0.086593 0.460764 0.185652 93 81 134 0.000000 1.000000 0.000000
-0.188196 0.460764 0.743766 93 81 134 0.000000 1.000000 0.000000
-0.288162 0.407446 0.841448 93 81 134 0.000000 1.000000 0.000000
-0.120713 0.446648 0.637846 93 81 134 0.000000 -1.000000 0.000000
-0.120163 0.460764 0.879781 93 81 134 0.000000 1.000000 0.000000
-0.050276 0.460764 0.406827 93 81 134 0.000000 1.000000 0.000000
-0.042465 0.400132 0.923799 93 81 134 0.000000 -1.000000 0.000000
-0.529398 0.441656 0.499299 93 81 134 -1.000000 0.000000 0.000000
-0.066345 0.458952 0.978512 93 81 134 0.000000 1.000000 0.000000
-0.072235 0.460764 0.772175 93 81 134 0.000000 1.000000 0.000000
-0.385463 0.446648 0.135476 93 81 134 0.000000 -1.000000 0.000000
-0.133389 0.460764 0.864716 93 81 134 0.000000 1.000000 0.000000
-0.435282 0.455810 0.636392 93 81 134 1.000000 0.000000 0.000000
-0.296672 0.460764 0.514460 93 81 134 0.000000 1.000000 0.000000
-0.435282 0.430863 0.201468 93 81 134 1.000000 0.000000 0.000000
-0.242835 0.446648 0.144091 93 81 134 0.000000 -1.000000 0.000000
-0.431515 0.446648 0.640667 93 81 134 0.000000 -1.000000 0.000000
-0.085277 0.460764 0.116715 93 81 134 0.000000 1.000000 0.000000
-0.062429 0.446648 0.844689 93 81 134 0.000000 -1.000000 0.000000
-0.219725 0.446648 0.244231 93 81 134 0.000000 -1.000000 0.000000
-0.372300 0.460764 0.208726 93 81 134 0.000000 1.000000 0.000000
-0.294301 0.446648 0.590695 93 81 134 0.000000 -1.000000 0.000000
-0.434581 0.460764 0.100766 93 81 134 0.000000 1.000000 0.000000
-0.279185 0.446648 0.154475 93 81 134 0.000000 -1.000000 0.000000
-0.403258 0.446648 0.164932 93 81 134 0.000000 -1.000000 0.000000
-0.488311 0.458952 0.184935 93 81 134 0.000000 1.000000 0.000000
-0.529398 0.423235 0.640318 93 81 134 -1.000000 0.000000 0.000000
-0.447551 0.400132 0.620444 93 81 134 0.000000 -1.000000 0.000000
-0.421609 0.446648 0.217971 93 81 134 0.000000 -1.000000 0.000000
-0.527639 0.457243 0.694225 93 81 134 -0.998550 0.000000 0.053836
-0.435282 0.455690 0.499568 93 81 134 1.000000 0.000000 0.000000
-0.336051 0.460764 0.342183 93 81 134 0.000000 1.000000 0.000000
-0.289768 0.446648 0.777685 93 81 134 0.000000 -1.000000 0.000000
-0.519470 0.400132 0.590926 93 81 134 0.000000 -1.000000 0.000000
-0.455789 0.437396 0.658020 93 81 134 0.000000 0.000000 1.000000
-0.362079 0.458952 0.804549 93 81 134 0.000000 1.000000 0.000000
-0.288219 0.460764 0.232260 93 81 134 0.000000 1.000000 0.000000
-0.437117 0.400132 0.216679 93 81 134 0.000000 -1.000000 0.000000
-0.437634 0.453615 0.197308 93 81 134 -1.000000 0.000000 0.000000
-0.301303 0.437201 0.981388 93 81 134 -0.365480 0.000000 0.930819
-0.053427 0.446648 0.023265 93 81 134 0.000000 -1.000000 0.000000
-0.261282 0.446648 0.578944 93 81 134 0.000000 -1.000000 0.000000
-0.168819 0.460764 0.390542 93 81 134 0.000000 1.000000 0.000000
-0.136079 0.460764 0.811307 93 81 134 0.000000 1.000000 0.000000
-0.304687 0.403235 0.843884 93 81 134 0.000000 0.000000 1.000000
-0.385494 0.446648 0.428287 93 81 134 0.000000 -1.000000 0.000000
-0.477308 0.400132 0.004992 93 81 134 0.000000 -1.000000 0.000000
-0.208396 0.446648 0.475227 93 81 134 0.000000 -1.000000 0.000000
-0.437634 0.457398 0.205661 93 81 134 -1.000000 0.000000 0.000000
-0.015458 0.446648 0.208745 93 81 134 0.000000 -1.000000 0.000000
-0.523998 0.438525 0.719376 93 81 134 -0.986940 0.000000 0.161089
-0.324795 0.460764 0.475578 93 81 134 0.000000 1.000000 0.000000
-0.230635 0.460764 0.289651 93 81 134 0.000000 1.000000 0.000000
-0.330157 0.446648 0.684000 93 81 134 0.000000 -1.000000 0.000000
-0.303652 0.460764 0.406706 93 81 134 0.000000 1.000000 0.000000
-0.339969 0.460764 0.164960 93 81 134 0.000000 1.000000 0.000000
-0.066027 0.446648 0.002830 93 81 134 0.000000 -1.000000 0.000000
-0.108949 0.400132 0.950724 93 81 134 0.000000 -1.000000 0.000000
-0.477397 0.400132 0.547772 93 81 134 0.000000 -1.000000 0.000000
-0.461332 0.458952 0.346053 93 81 134 0.000000 1.000000 0.000000
-0.403670 0.460764 0.681048 93 81 134 0.000000 1.000000 0.000000
-0.393776 0.460764 0.592507 93 81 134 0.000000 1.000000 0.000000
-0.380953 0.399646 0.160523 93 81 134 0.000000 1.000000 0.000000
-0.057175 0.460764 0.317296 93 81 134 0.000000 1.000000 0.000000
-0.288142 0.446648 0.601642 93 81 134 0.000000 -1.000000 0.000000
-0.381329 0.399646 0.592226 93 81 134 0.000000 1.000000 0.000000
-0.522083 0.447655 0.731107 93 81 134 -0.986940 0.000000 0.161089
-0.351458 0.450684 0.959083 93 81 134 -0.460372 0.000000 0.887726
-0.529381 0.438440 0.661909 93 81 134 -0.998550 0.000000 0.053836
-0.078239 0.446648 0.854121 93 81 134 0.000000 -1.000000 0.000000
-0.336927 0.460764 0.612571 93 81 134 0.000000 1.000000 0.000000
-0.170824 0.446648 0.108238 93 81 134 0.000000 -1.000000 0.000000
-0.435282 0.401567 0.459850 93 81 134 1.000000 0.000000 0.000000
-0.427881 0.446648 0.332168 93 81 134 0.000000 -1.000000 0.000000
-0.103164 0.460764 0.364308 93 81 134 0.000000 1.000000 0.000000
-0.277279 0.460764 0.305896 93 81 134 0.000000 1.000000 0.000000
-0.201586 0.460764 0.507677 93 81 134 0.000000 1.000000 0.000000
-0.395422 0.458015 0.747186 93 81 134 0.916924 0.000000 -0.399062
-0.529398 0.419427 0.480335 93 81 134 -1.000000 0.000000 0.000000
-0.035302 0.460764 0.427962 93 81 134 0.000000 1.000000 0.000000
-0.227516 0.446648 0.844566 93 81 134 0.000000 -1.000000 0.000000
-0.207943 0.446648 0.137893 93 81 134 0.000000 -1.000000 0.000000
-0.515333 0.409042 0.756879 93 81 134 -0.964156 0.000000 0.265335
-0.413653 0.458952 0.754446 93 81 134 0.000000 1.000000 0.000000
-0.364130 0.446648 0.590780 93 81 134 0.000000 -1.000000 0.000000
-0.365193 0.397317 0.549241 93 81 134 0.999995 0.003202 0.000000
-0.323646 0.458952 0.883872 93 81 134 0.000000 1.000000 0.000000
-0.183035 0.446648 0.749612 93 81 134 0.000000 -1.000000 0.000000
-0.435282 0.411438 0.583493 93 81 134 1.000000 0.000000 0.000000
-0.358990 0.460764 0.698621 93 81 134 0.000000 1.000000 0.000000
-0.356171 0.446648 0.714255 93 81 134 0.000000 -1.000000 0.000000
-0.298743 0.446648 0.414112 93 81 134 0.000000 -1.000000 0.000000
-0.437121 0.448487 0.496622 93 81 134 -0.707107 -0.707107 0.000000
-0.529398 0.418899 0.083050 93 81 134 -1.000000 0.000000 0.000000
-0.435282 0.404837 0.522198 93 81 134 1.000000 0.000000 0.000000
-0.111995 0.446648 0.126536 93 81 134 0.000000 -1.000000 0.000000
-0.333646 0.460764 0.010224 93 81 134 0.000000 1.000000 0.000000
-0.526202 0.458952 0.497515 93 81 134 0.000000 1.000000 0.000000
-0.350265 0.460764 0.117076 93 81 134 0.000000 1.000000 0.000000
-0.262768 0.458952 0.906581 93 81 134 0.000000 1.000000 0.000000
-0.094393 0.446648 0.466191 93 81 134 0.000000 -1.000000 0.000000
-0.004472 0.460764 0.489271 93 81 134 0.000000 1.000000 0.000000
-0.311705 0.460764 0.096326 93 81 134 0.000000 1.000000 0.000000
-0.450947 0.458952 0.826771 93 81 134 0.000000 1.000000 0.000000
-0.423981 0.446648 0.000688 93 81 134 0.000000 -1.000000 0.000000
-0.369311 0.410004 0.790928 93 81 134 0.812175 0.000000 -0.583414
-0.500464 0.440169 0.798228 93 81 134 -0.930815 0.000000 0.365491
-0.153419 0.460764 0.274345 93 81 134 0.000000 1.000000 0.000000
-0.509250 0.458952 0.588430 93 81 134 0.000000 1.000000 0.000000
-0.158468 0.446648 0.282317 93 81 134 0.000000 -1.000000 0.000000
-0.507618 0.400132 0.640612 93 81 134 0.000000 -1.000000 0.000000
-0.497165 0.458952 0.777113 93 81 134 0.000000 1.000000 0.000000
-0.378102 0.400132 0.935317 93 81 134 0.000000 -1.000000 0.000000
-0.244824 0.446648 0.105323 93 81 134 0.000000 -1.000000 0.000000
-0.397297 0.460764 0.243143 93 81 134 0.000000 1.000000 0.000000
-0.529398 0.431002 0.173376 93 81 134 -1.000000 0.000000 0.000000
-0.112395 0.460764 0.310909 93 81 134 0.000000 1.000000 0.000000
-0.181221 0.460764 0.540549 93 81 134 0.000000 1.000000 0.000000
-0.372707 0.446648 0.253798 93 81 134 0.000000 -1.000000 0.000000
-0.435282 0.455718 0.582646 93 81 134 1.000000 0.000000 0.000000
-0.187638 0.445856 0.964284 93 81 134 -1.000000 0.000000 0.000000
-0.435282 0.429152 0.081106 93 81 134 1.000000 0.000000 0.000000
-0.042885 0.446648 0.393185 93 81 134 0.000000 -1.000000 0.000000
-0.321317 0.460764 0.221029 93 81 134 0.000000 1.000000 0.000000
-0.352713 0.446648 0.213200 93 81 134 0.000000 -1.000000 0.000000
-0.166715 0.446648 0.471561 93 81 134 0.000000 -1.000000 0.000000
-0.186594 0.446648 0.553673 93 81 134 0.000000 -1.000000 0.000000
-0.082940 0.460764 0.647257 93 81 134 0.000000 1.000000 0.000000
-0.028820 0.446648 0.627328 93 81 134 0.000000 -1.000000 0.000000
-0.214277 0.460764 0.262986 93 81 134 0.000000 1.000000 0.000000
-0.282814 0.460764 0.314193 93 81 134 0.000000 1.000000 0.000000
-0.344569 0.446648 0.597883 93 81 134 0.000000 -1.000000 0.000000
-0.274324 0.446648 0.249695 93 81 134 0.000000 -1.000000 0.000000
-0.144900 0.460764 0.051955 93 81 134 0.000000 1.000000 0.000000
-0.209876 0.460764 0.365124 93 81 134 0.000000 1.000000 0.000000
-0.365200 0.399636 0.575297 93 81 134 0.999995 0.003202 0.000000
-0.456201 0.458952 0.535694 93 81 134 0.000000 1.000000 0.000000
-0.009261 0.458952 0.910132 93 81 134 0.000000 1.000000 0.000000
-0.479809 0.400132 0.730540 93 81 134 0.000000 -1.000000 0.000000
-0.045714 0.460764 0.860006 93 81 134 0.000000 1.000000 0.000000
-0.291713 0.460764 0.392019 93 81 134 0.000000 1.000000 0.000000
-0.448744 0.458952 0.473068 93 81 134 0.000000 1.000000 0.000000
-0.503980 0.400132 0.245918 93 81 134 0.000000 -1.000000 0.000000
-0.526292 0.458952 0.646118 93 81 134 0.000000 1.000000 0.000000
-0.388700 0.446648 0.233900 93 81 134 0.000000 -1.000000 0.000000
-0.138904 0.460764 0.627048 93 81 134 0.000000 1.000000 0.000000
-0.520258 0.458952 0.103524 93 81 134 0.000000 1.000000 0.000000
-0.453062 0.458952 0.053541 93 81 134 0.000000 1.000000 0.000000
-0.446090 0.400132 0.555677 93 81 134 0.000000 -1.000000 0.000000
-0.312570 0.458194 0.849573 93 81 134 -0.546840 0.000000 0.837237
-0.152176 0.460764 0.546967 93 81 134 0.000000 1.000000 0.000000
-0.261749 0.460764 0.126904 93 81 134 0.000000 1.000000 0.000000
-0.197417 0.460764 0.597738 93 81 134 0.000000 1.000000 0.000000
-0.362899 0.460764 0.030439 93 81 134 0.000000 1.000000 0.000000
-0.435282 0.421166 0.013026 93 81 134 1.000000 0.000000 0.000000
-0.342192 0.460764 0.491083 93 81 134 0.000000 1.000000 0.000000
-0.435282 0.401653 0.423678 93 81 134 1.000000 0.000000 0.000000
-0.024553 0.446648 0.299320 93 81 134 0.000000 -1.000000 0.000000
-0.144926 0.446648 0.632317 93 81 134 0.000000 -1.000000 0.000000
-0.153360 0.446648 0.865710 93 81 134 0.000000 -1.000000 0.000000
-0.266866 0.460764 0.550989 93 81 134 0.000000 1.000000 0.000000
-0.072654 0.460764 0.326136 93 81 134 0.000000 1.000000 0.000000
