ply
format ascii 1.0
element vertex 710
property float x
property float y
property float z
property uchar red
property uchar green
property uchar blue
property float nx
property float ny
property float nz
end_header
-0.195591 -0.782608 -0.543596 245 92 106 0.000000 0.999770 -0.021456
-0.239926 -0.782982 -0.561027 245 92 106 0.000000 0.999770 -0.021456
-0.194407 -0.822592 -0.536845 245 92 106 0.000000 0.003922 0.999992
-0.181292 -0.825246 -0.539879 245 92 106 0.000000 -0.999800 -0.019984
-0.264593 -0.825279 -0.538242 245 92 106 0.000000 -0.999800 -0.019984
-0.214059 -0.825087 -0.547854 245 92 106 0.000000 -0.999800 -0.019984
-0.126968 -0.824627 -0.570883 245 92 106 0.000000 -0.999800 -0.019984
-0.277235 -0.790961 -0.536969 245 92 106 0.000000 0.003922 0.999992
-0.287716 -0.788677 -0.536978 245 92 106 0.000000 0.003922 0.999992
-0.259474 -0.792782 -0.536962 245 92 106 0.000000 0.003922 0.999992
-0.225501 -0.816972 -0.536867 245 92 106 0.000000 0.003922 0.999992
-0.318826 -0.818413 -0.536861 245 92 106 0.000000 0.003922 0.999992
-0.126405 -0.794622 -0.577178 245 92 106 0.000000 0.066449 -0.997790
-0.256957 -0.782829 -0.553932 245 92 106 0.000000 0.999770 -0.021456
-0.135888 -0.782504 -0.538791 245 92 106 0.000000 0.999770 -0.021456
-0.303615 -0.808147 -0.578079 245 92 106 0.000000 0.066449 -0.997790
-0.169385 -0.824986 -0.552875 245 92 106 0.000000 -0.999800 -0.019984
-0.134107 -0.824833 -0.560576 245 92 106 0.000000 -0.999800 -0.019984
-0.398165 -0.825212 -0.541594 245 92 106 0.000000 -0.999800 -0.019984
-0.180237 -0.824883 -0.558054 245 92 106 0.000000 -0.999800 -0.019984
-0.282897 -0.783174 -0.569976 245 92 106 0.000000 0.999770 -0.021456
-0.185240 -0.782541 -0.540516 245 92 106 0.000000 0.999770 -0.021456
-0.200177 -0.804933 -0.536914 245 92 106 0.000000 0.003922 0.999992
-0.200281 -0.803472 -0.577767 245 92 106 0.000000 0.066449 -0.997790
-0.114843 -0.808109 -0.578076 245 92 106 0.000000 0.066449 -0.997790
-0.331725 -0.782539 -0.540405 245 92 106 0.000000 0.999770 -0.021456
-0.228762 -0.816449 -0.578632 245 92 106 0.000000 0.066449 -0.997790
-0.154585 -0.792426 -0.536963 245 92 106 0.000000 0.003922 0.999992
-0.267834 -0.811843 -0.578325 245 92 106 0.000000 0.066449 -0.997790
-0.161041 -0.784012 -0.576472 245 92 106 0.000000 0.066449 -0.997790
-0.173557 -0.796592 -0.577309 245 92 106 0.000000 0.066449 -0.997790
-0.113140 -0.782830 -0.553977 245 92 106 0.000000 0.999770 -0.021456
-0.258444 -0.825255 -0.539429 245 92 106 0.000000 -0.999800 -0.019984
0.165481 -0.782709 -0.548345 173 232 126 0.000000 0.999770 -0.021456
0.158412 -0.799601 -0.577510 173 232 126 0.000000 0.066449 -0.997790
-0.001306 -0.782828 -0.553886 173 232 126 0.000000 0.999770 -0.021456
0.008297 -0.825195 -0.542425 173 232 126 0.000000 -0.999800 -0.019984
-0.001301 -0.790595 -0.536970 173 232 126 0.000000 0.003922 0.999992
-0.053705 -0.819608 -0.578842 173 232 126 0.000000 0.066449 -0.997790
0.059679 -0.782943 -0.559226 173 232 126 0.000000 0.999770 -0.021456
0.018053 -0.783287 -0.575277 173 232 126 0.000000 0.999770 -0.021456
0.148454 -0.806239 -0.536909 173 232 126 0.000000 0.003922 0.999992
-0.013363 -0.825235 -0.540450 173 232 126 0.000000 -0.999800 -0.019984
0.017489 -0.824676 -0.568388 173 232 126 0.000000 -0.999800 -0.019984
0.102717 -0.803679 -0.577781 173 232 126 0.000000 0.066449 -0.997790
0.172635 -0.782567 -0.541725 173 232 126 0.000000 0.999770 -0.021456
-0.022378 -0.810608 -0.536892 173 232 126 0.000000 0.003922 0.999992
-0.009783 -0.824747 -0.564840 173 232 126 0.000000 -0.999800 -0.019984
-0.074545 -0.782874 -0.556028 173 232 126 0.000000 0.999770 -0.021456
-0.025895 -0.801301 -0.577623 173 232 126 0.000000 0.066449 -0.997790
-0.094902 -0.796987 -0.577336 173 232 126 0.000000 0.066449 -0.997790
-0.006810 -0.806963 -0.578000 173 232 126 0.000000 0.066449 -0.997790
0.114346 -0.806437 -0.577965 173 232 126 0.000000 0.066449 -0.997790
0.085767 -0.824680 -0.568206 173 232 126 0.000000 -0.999800 -0.019984
0.038810 -0.805027 -0.577871 173 232 126 0.000000 0.066449 -0.997790
0.084422 -0.782964 -0.560209 173 232 126 0.000000 0.999770 -0.021456
0.068300 -0.825166 -0.543872 173 232 126 0.000000 -0.999800 -0.019984
-0.108404 -0.824997 -0.552327 173 232 126 0.000000 -0.999800 -0.019984
0.162079 -0.792615 -0.536962 173 232 126 0.000000 0.003922 0.999992
-0.049949 -0.783106 -0.566825 173 232 126 0.000000 0.999770 -0.021456
-0.008262 -0.784192 -0.536995 173 232 126 0.000000 0.003922 0.999992
0.107338 -0.782531 -0.540041 173 232 126 0.000000 0.999770 -0.021456
0.123437 -0.782565 -0.541628 173 232 126 0.000000 0.999770 -0.021456
-0.080043 -0.783164 -0.569548 173 232 126 0.000000 0.999770 -0.021456
0.123126 -0.815338 -0.536873 173 232 126 0.000000 0.003922 0.999992
-0.038148 -0.802472 -0.536924 173 232 126 0.000000 0.003922 0.999992
0.044665 -0.812387 -0.578361 173 232 126 0.000000 0.066449 -0.997790
0.052504 -0.783259 -0.573958 173 232 126 0.000000 0.999770 -0.021456
-0.003357 -0.783020 -0.562821 173 232 126 0.000000 0.999770 -0.021456
0.036082 -0.816549 -0.536868 173 232 126 0.000000 0.003922 0.999992
-0.021185 -0.820150 -0.578878 173 232 126 0.000000 0.066449 -0.997790
-0.080484 -0.802926 -0.577731 173 232 126 0.000000 0.066449 -0.997790
-0.060586 -0.820485 -0.536853 173 232 126 0.000000 0.003922 0.999992
0.172122 -0.799918 -0.577531 173 232 126 0.000000 0.066449 -0.997790
-0.103401 -0.813071 -0.536882 173 232 126 0.000000 0.003922 0.999992
0.114069 -0.795973 -0.577268 173 232 126 0.000000 0.066449 -0.997790
-0.023112 -0.816888 -0.536867 173 232 126 0.000000 0.003922 0.999992
0.137302 -0.814018 -0.578470 173 232 126 0.000000 0.066449 -0.997790
0.147612 -0.782827 -0.553810 173 232 126 0.000000 0.999770 -0.021456
-0.068434 -0.783192 -0.570826 173 232 126 0.000000 0.999770 -0.021456
0.136290 -0.821701 -0.578981 173 232 126 0.000000 0.066449 -0.997790
0.122979 -0.783195 -0.570960 173 232 126 0.000000 0.999770 -0.021456
-0.067013 -0.783227 -0.572461 173 232 126 0.000000 0.999770 -0.021456
0.074287 -0.824659 -0.569252 173 232 126 0.000000 -0.999800 -0.019984
-0.084673 -0.821516 -0.578969 173 232 126 0.000000 0.066449 -0.997790
-0.017501 -0.813667 -0.536880 173 232 126 0.000000 0.003922 0.999992
0.158155 -0.825037 -0.550331 173 232 126 0.000000 -0.999800 -0.019984
0.097518 -0.782819 -0.553472 173 232 126 0.000000 0.999770 -0.021456
-0.046037 -0.824465 -0.578985 173 232 126 0.000000 -0.999800 -0.019984
-0.071815 -0.793884 -0.577129 173 232 126 0.000000 0.066449 -0.997790
0.004752 -0.792144 -0.577013 173 232 126 0.000000 0.066449 -0.997790
-0.044757 -0.824821 -0.561152 173 232 126 0.000000 -0.999800 -0.019984
0.153418 -0.812362 -0.536885 173 232 126 0.000000 0.003922 0.999992
0.064678 -0.782990 -0.561402 173 232 126 0.000000 0.999770 -0.021456
0.030487 -0.784388 -0.536994 173 232 126 0.000000 0.003922 0.999992
-0.027548 -0.824469 -0.578752 173 232 126 0.000000 -0.999800 -0.019984
0.025270 -0.810740 -0.536891 173 232 126 0.000000 0.003922 0.999992
0.152615 -0.824896 -0.557396 173 232 126 0.000000 -0.999800 -0.019984
-0.004190 -0.804396 -0.536916 173 232 126 0.000000 0.003922 0.999992
-0.103560 -0.815894 -0.578595 173 232 126 0.000000 0.066449 -0.997790
-0.035427 -0.825151 -0.544649 173 232 126 0.000000 -0.999800 -0.019984
0.008461 -0.803896 -0.536918 173 232 126 0.000000 0.003922 0.999992
-0.004444 -0.824546 -0.574888 173 232 126 0.000000 -0.999800 -0.019984
0.028133 -0.815093 -0.536874 173 232 126 0.000000 0.003922 0.999992
-0.104686 -0.785527 -0.576573 173 232 126 0.000000 0.066449 -0.997790
0.045440 -0.812785 -0.536883 173 232 126 0.000000 0.003922 0.999992
-0.060591 -0.804232 -0.577818 173 232 126 0.000000 0.066449 -0.997790
0.128084 -0.782492 -0.538236 173 232 126 0.000000 0.999770 -0.021456
-0.085596 -0.782969 -0.560427 173 232 126 0.000000 0.999770 -0.021456
0.029629 -0.824779 -0.563260 173 232 126 0.000000 -0.999800 -0.019984
0.102208 -0.794169 -0.536956 173 232 126 0.000000 0.003922 0.999992
0.021728 -0.797170 -0.536944 173 232 126 0.000000 0.003922 0.999992
0.091372 -0.784608 -0.536994 173 232 126 0.000000 0.003922 0.999992
-0.091497 -0.782603 -0.543374 173 232 126 0.000000 0.999770 -0.021456
-0.039571 -0.793459 -0.536959 173 232 126 0.000000 0.003922 0.999992
-0.037884 -0.802410 -0.577697 173 232 126 0.000000 0.066449 -0.997790
0.138631 -0.824905 -0.556969 173 232 126 0.000000 -0.999800 -0.019984
0.089060 -0.824742 -0.565122 173 232 126 0.000000 -0.999800 -0.019984
-0.095696 -0.807788 -0.536903 173 232 126 0.000000 0.003922 0.999992
-0.041702 -0.824581 -0.573184 173 232 126 0.000000 -0.999800 -0.019984
0.158170 -0.783234 -0.572768 173 232 126 0.000000 0.999770 -0.021456
0.028512 -0.817713 -0.578716 173 232 126 0.000000 0.066449 -0.997790
0.124513 -0.784965 -0.536992 173 232 126 0.000000 0.003922 0.999992
0.099074 -0.782790 -0.552102 173 232 126 0.000000 0.999770 -0.021456
0.388072 -0.824798 -0.562308 54 173 232 0.000000 -0.999800 -0.019984
0.300632 -0.822939 -0.579064 54 173 232 0.000000 0.066449 -0.997790
0.329255 -0.807013 -0.536906 54 173 232 0.000000 0.003922 0.999992
0.185065 -0.807869 -0.536902 54 173 232 0.000000 0.003922 0.999992
0.400659 -0.824884 -0.557985 54 173 232 0.000000 -0.999800 -0.019984
0.372241 -0.797185 -0.577349 54 173 232 0.000000 0.066449 -0.997790
0.224282 -0.825283 -0.538056 54 173 232 0.000000 -0.999800 -0.019984
0.229478 -0.818665 -0.578779 54 173 232 0.000000 0.066449 -0.997790
0.230898 -0.814087 -0.578474 54 173 232 0.000000 0.066449 -0.997790
0.323313 -0.824712 -0.566610 54 173 232 0.000000 -0.999800 -0.019984
0.357209 -0.783294 -0.575602 54 173 232 0.000000 0.999770 -0.021456
0.381710 -0.820820 -0.578923 54 173 232 0.000000 0.066449 -0.997790
0.218124 -0.806472 -0.577967 54 173 232 0.000000 0.066449 -0.997790
0.280388 -0.824924 -0.555978 54 173 232 0.000000 -0.999800 -0.019984
0.215378 -0.788006 -0.576738 54 173 232 0.000000 0.066449 -0.997790
0.211613 -0.786966 -0.536984 54 173 232 0.000000 0.003922 0.999992
0.330259 -0.824473 -0.578562 54 173 232 0.000000 -0.999800 -0.019984
0.259842 -0.816198 -0.578615 54 173 232 0.000000 0.066449 -0.997790
0.268708 -0.825173 -0.543562 54 173 232 0.000000 -0.999800 -0.019984
0.318222 -0.821201 -0.578948 54 173 232 0.000000 0.066449 -0.997790
0.193391 -0.799216 -0.536936 54 173 232 0.000000 0.003922 0.999992
0.402922 -0.825094 -0.547482 54 173 232 0.000000 -0.999800 -0.019984
0.389247 -0.782685 -0.547207 54 173 232 0.000000 0.999770 -0.021456
0.266477 -0.824550 -0.574731 54 173 232 0.000000 -0.999800 -0.019984
0.281730 -0.782489 -0.538078 54 173 232 0.000000 0.999770 -0.021456
0.377929 -0.824542 -0.575105 54 173 232 0.000000 -0.999800 -0.019984
0.320188 -0.809567 -0.578173 54 173 232 0.000000 0.066449 -0.997790
0.188886 -0.795733 -0.536950 54 173 232 0.000000 0.003922 0.999992
0.232946 -0.824118 -0.579142 54 173 232 0.000000 0.066449 -0.997790
0.226272 -0.799331 -0.577492 54 173 232 0.000000 0.066449 -0.997790
0.369908 -0.823493 -0.536841 54 173 232 0.000000 0.003922 0.999992
0.203626 -0.824790 -0.562692 54 173 232 0.000000 -0.999800 -0.019984
0.408039 -0.796904 -0.577330 54 173 232 0.000000 0.066449 -0.997790
0.259274 -0.795249 -0.577220 54 173 232 0.000000 0.066449 -0.997790
0.289226 -0.825225 -0.540961 54 173 232 0.000000 -0.999800 -0.019984
0.253712 -0.806641 -0.577978 54 173 232 0.000000 0.066449 -0.997790
0.185158 -0.825283 -0.538038 54 173 232 0.000000 -0.999800 -0.019984
0.350922 -0.824713 -0.566576 54 173 232 0.000000 -0.999800 -0.019984
0.303477 -0.783247 -0.573399 54 173 232 0.000000 0.999770 -0.021456
0.380146 -0.814551 -0.536876 54 173 232 0.000000 0.003922 0.999992
0.229907 -0.818194 -0.536862 54 173 232 0.000000 0.003922 0.999992
0.360466 -0.783173 -0.569956 54 173 232 0.000000 0.999770 -0.021456
0.407605 -0.783231 -0.572660 54 173 232 0.000000 0.999770 -0.021456
0.307664 -0.784519 -0.536994 54 173 232 0.000000 0.003922 0.999992
0.390354 -0.803077 -0.577741 54 173 232 0.000000 0.066449 -0.997790
0.212046 -0.800703 -0.536931 54 173 232 0.000000 0.003922 0.999992
0.229036 -0.782510 -0.539075 54 173 232 0.000000 0.999770 -0.021456
0.390337 -0.783055 -0.564466 54 173 232 0.000000 0.999770 -0.021456
0.385251 -0.807993 -0.578069 54 173 232 0.000000 0.066449 -0.997790
0.375829 -0.823245 -0.579084 54 173 232 0.000000 0.066449 -0.997790
0.252804 -0.820051 -0.536855 54 173 232 0.000000 0.003922 0.999992
0.271373 -0.792116 -0.577011 54 173 232 0.000000 0.066449 -0.997790
0.185576 -0.782747 -0.550113 54 173 232 0.000000 0.999770 -0.021456
0.276210 -0.825073 -0.548541 54 173 232 0.000000 -0.999800 -0.019984
0.284010 -0.782706 -0.548167 54 173 232 0.000000 0.999770 -0.021456
0.219485 -0.793350 -0.536959 54 173 232 0.000000 0.003922 0.999992
0.381505 -0.814466 -0.578499 54 173 232 0.000000 0.066449 -0.997790
0.377014 -0.782655 -0.545809 54 173 232 0.000000 0.999770 -0.021456
0.279128 -0.814975 -0.578533 54 173 232 0.000000 0.066449 -0.997790
0.272842 -0.824539 -0.575277 54 173 232 0.000000 -0.999800 -0.019984
0.322817 -0.786723 -0.536985 54 173 232 0.000000 0.003922 0.999992
0.372597 -0.822285 -0.536846 54 173 232 0.000000 0.003922 0.999992
0.406886 -0.791734 -0.536966 54 173 232 0.000000 0.003922 0.999992
0.399535 -0.815691 -0.536872 54 173 232 0.000000 0.003922 0.999992
0.368257 -0.792610 -0.536962 54 173 232 0.000000 0.003922 0.999992
0.361829 -0.796764 -0.577321 54 173 232 0.000000 0.066449 -0.997790
0.283565 -0.824713 -0.566564 54 173 232 0.000000 -0.999800 -0.019984
0.342970 -0.810428 -0.578231 54 173 232 0.000000 0.066449 -0.997790
0.326170 -0.802064 -0.536925 54 173 232 0.000000 0.003922 0.999992
0.230486 -0.785422 -0.576566 54 173 232 0.000000 0.066449 -0.997790
0.224916 -0.795038 -0.536953 54 173 232 0.000000 0.003922 0.999992
0.316472 -0.782485 -0.537002 54 173 232 0.000000 0.003922 0.999992
0.269801 -0.797417 -0.536943 54 173 232 0.000000 0.003922 0.999992
0.300547 -0.783233 -0.572726 54 173 232 0.000000 0.999770 -0.021456
0.250932 -0.812194 -0.578348 54 173 232 0.000000 0.066449 -0.997790
0.177647 -0.824904 -0.556999 54 173 232 0.000000 -0.999800 -0.019984
0.411760 -0.782741 -0.549826 54 173 232 0.000000 0.999770 -0.021456
0.373082 -0.825120 -0.546175 54 173 232 0.000000 -0.999800 -0.019984
0.244126 -0.782859 -0.555310 54 173 232 0.000000 0.999770 -0.021456
0.304906 -0.782948 -0.537000 54 173 232 0.000000 0.003922 0.999992
0.309914 -0.799618 -0.536935 54 173 232 0.000000 0.003922 0.999992
0.206058 -0.824634 -0.570502 54 173 232 0.000000 -0.999800 -0.019984
-0.485586 0.893365 0.652101 130 4 250 0.140691 -0.981919 0.126656
-0.473374 0.909174 0.195801 130 4 250 0.561593 -0.827252 -0.016335
-0.533669 0.929884 0.248539 130 4 250 -0.984107 0.139072 0.110418
-0.486347 0.900555 0.229711 130 4 250 0.145714 -0.976235 -0.160414
-0.492151 0.936281 0.357217 130 4 250 0.145573 0.979409 0.139877
-0.503270 0.935096 0.624920 130 4 250 -0.133057 0.966391 -0.219966
-0.505001 0.941276 0.649146 130 4 250 -0.132966 0.955511 -0.263284
-0.492280 0.886796 0.605053 130 4 250 0.141805 -0.984612 0.102127
-0.530615 0.960668 0.206340 130 4 250 -0.930431 0.332607 0.153855
-0.477382 0.893335 0.612096 130 4 250 0.524341 -0.847558 0.081922
-0.470859 0.920203 0.638906 130 4 250 0.984955 0.139110 -0.102530
-0.472540 0.919499 0.367637 130 4 250 0.991824 0.116865 0.051264
-0.512225 0.887698 0.456416 130 4 250 -0.490186 -0.871581 -0.007966
-0.463313 0.932342 0.211442 130 4 250 0.987579 -0.147655 0.053719
-0.476089 0.913619 0.522532 130 4 250 0.872149 0.488736 0.022196
-0.505236 0.903340 0.205669 130 4 250 -0.208606 -0.975159 -0.074492
-0.484335 0.891158 0.350011 130 4 250 0.529647 -0.846846 -0.048224
-0.481739 0.904099 0.206424 130 4 250 0.521544 -0.849399 -0.080702
-0.518677 0.886966 0.485944 130 4 250 -0.610484 -0.008791 -0.791980
-0.481594 0.916645 0.521572 130 4 250 0.153092 0.987808 -0.028236
-0.486184 0.888157 0.394892 130 4 250 0.141515 -0.988903 -0.045213
-0.524101 0.902826 0.548174 130 4 250 -0.986663 -0.162555 -0.008464
-0.507707 0.926833 0.655501 130 4 250 0.000035 -0.081353 0.996685
-0.483043 0.916100 0.495015 130 4 250 0.153314 0.987780 -0.028030
-0.489242 0.930478 0.400733 130 4 250 0.144469 0.985142 0.092861
-0.525754 0.929264 0.650145 130 4 250 -0.817424 0.544003 -0.189419
-0.478265 0.910699 0.496475 130 4 250 0.860862 -0.072439 -0.503655
-0.520040 0.893717 0.425947 130 4 250 -0.829844 -0.557995 -0.000251
-0.464378 0.926101 0.237501 130 4 250 0.991895 -0.126938 -0.005649
-0.471456 0.927647 0.322427 130 4 250 0.878524 0.462550 0.119345
-0.465696 0.924579 0.259831 130 4 250 0.988285 -0.140883 0.058699
-0.517716 0.896236 0.648594 130 4 250 -0.494842 -0.863429 0.098092
-0.491718 0.944706 0.306662 130 4 250 0.145749 0.972159 0.183477
-0.482170 0.888194 0.482695 130 4 250 0.525645 -0.849716 -0.040998
-0.520291 0.922812 0.526609 130 4 250 0.153294 0.987785 -0.027963
-0.474326 0.901561 0.462439 130 4 250 0.990622 -0.136315 0.009296
-0.512122 0.924885 0.454849 130 4 250 -0.491169 0.870213 0.038496
-0.477726 0.925928 0.609257 130 4 250 0.516984 0.833685 -0.194157
-0.477564 0.916049 0.522578 130 4 250 0.153092 0.987808 -0.028236
-0.512201 0.904701 0.178613 130 4 250 -0.299605 -0.948651 0.101480
-0.476733 0.915585 0.510953 130 4 250 0.153602 0.987698 -0.029315
-0.512310 0.923583 0.481897 130 4 250 -0.491169 0.870213 0.038496
-0.494692 0.946712 0.298396 130 4 250 0.145749 0.972159 0.183477
-0.523145 0.909395 0.542228 130 4 250 -0.611040 0.074563 0.788080
-0.523046 0.931789 0.645715 130 4 250 -0.817424 0.544003 -0.189419
-0.469814 0.941719 0.263347 130 4 250 0.878139 0.451859 0.157146
-0.515579 0.892864 0.356629 130 4 250 -0.495546 -0.867105 -0.050624
-0.474412 0.899708 0.355062 130 4 250 0.871441 -0.490395 -0.010215
-0.482108 0.926313 0.655458 130 4 250 0.000035 -0.081353 0.996685
-0.498491 0.900755 0.179076 130 4 250 0.110295 -0.990928 0.076796
-0.524694 0.927148 0.639384 130 4 250 -0.813013 0.551122 -0.187816
-0.481352 0.892841 0.353220 130 4 250 0.529647 -0.846846 -0.048224
-0.494689 0.885257 0.459434 130 4 250 0.137603 -0.990420 -0.011599
-0.526738 0.914178 0.356723 130 4 250 -0.986604 0.152409 0.058179
-0.462901 0.952533 0.193277 130 4 250 0.930448 0.311250 0.193363
-0.521666 0.895891 0.544654 130 4 250 -0.611040 0.074563 0.788080
-0.470481 0.919842 0.642107 130 4 250 0.986030 0.133563 -0.099530
-0.475914 0.917139 0.445762 130 4 250 0.873166 0.486667 0.027146
-0.525864 0.908640 0.373649 130 4 250 -0.984582 -0.173255 0.024115
-0.477081 0.892018 0.510253 130 4 250 0.871224 -0.490315 -0.023682
-0.485955 0.923494 0.509815 130 4 250 0.526745 0.849183 0.037775
-0.473471 0.902618 0.287875 130 4 250 0.872930 -0.487785 -0.007642
-0.509214 0.895149 0.287865 130 4 250 -0.139597 -0.987082 -0.078618
-0.481901 0.920327 0.537276 130 4 250 0.513397 0.857056 -0.043332
-0.519689 0.917479 0.491406 130 4 250 -0.832132 0.554001 0.025269
-0.529290 0.980249 0.191283 130 4 250 -0.923676 0.370189 0.098910
-0.511297 0.887202 0.453677 130 4 250 -0.490186 -0.871581 -0.007966
-0.523948 0.904823 0.496443 130 4 250 -0.985947 0.166883 0.007691
-0.523409 0.918611 0.400895 130 4 250 -0.837740 0.542151 0.065291
-0.526263 0.930458 0.311673 130 4 250 -0.841389 0.524470 0.130367
-0.514665 0.943007 0.303328 130 4 250 -0.504660 0.846287 0.170636
-0.462653 0.932030 0.198752 130 4 250 0.985520 -0.152696 0.073717
-0.487503 0.895085 0.287676 130 4 250 0.143306 -0.986548 -0.078649
-0.502081 0.936764 0.355711 130 4 250 -0.140128 0.980187 0.139988
-0.473475 0.917510 0.395561 130 4 250 0.992041 0.121271 0.033887
-0.488234 0.923645 0.547297 130 4 250 0.139629 0.989071 -0.047344
-0.520227 0.917727 0.470305 130 4 250 -0.832812 0.552770 0.029495
-0.533970 0.926896 0.210334 130 4 250 -0.993334 -0.115195 0.004209
-0.501257 0.919062 0.499574 130 4 250 0.153602 0.987698 -0.029315
-0.473098 0.925430 0.633482 130 4 250 0.853650 0.490287 -0.175782
-0.530824 0.921077 0.284194 130 4 250 -0.984291 -0.172534 0.037466
-0.516594 0.891548 0.396348 130 4 250 -0.493452 -0.869068 -0.035008
-0.519616 0.915939 0.530565 130 4 250 -0.822438 0.568099 -0.029328
-0.467283 0.953245 0.211337 130 4 250 0.910017 0.347762 0.225679
-0.470421 0.922203 0.645873 130 4 250 0.986030 0.133563 -0.099530
-0.518375 0.891778 0.415736 130 4 250 -0.493452 -0.869068 -0.035008
-0.522447 0.896887 0.481293 130 4 250 -0.832705 -0.553089 -0.026354
-0.487009 0.915548 0.486060 130 4 250 0.610990 -0.074471 -0.788128
-0.489741 0.924247 0.655290 130 4 250 0.000035 -0.081353 0.996685
-0.473412 0.915332 0.401526 130 4 250 0.992041 0.121271 0.033887
-0.470270 0.934582 0.286838 130 4 250 0.878772 0.462067 0.119389
-0.523852 0.906493 0.475802 130 4 250 -0.986490 0.162824 0.018056
-0.513128 0.888508 0.423560 130 4 250 -0.490186 -0.871581 -0.007966
-0.537229 0.953009 0.180660 130 4 250 -0.986176 0.056160 0.155895
-0.474372 0.907067 0.516696 130 4 250 0.991584 0.129323 0.005989
-0.534598 0.893054 0.519842 130 4 250 -0.983450 0.062480 0.170063
-0.475306 0.953679 0.241517 130 4 250 0.541711 0.823409 0.168959
-0.518667 0.923072 0.544407 130 4 250 -0.611040 0.074563 0.788080
-0.476982 0.894340 0.398506 130 4 250 0.870329 -0.492404 -0.008108
-0.527494 0.924759 0.648731 130 4 250 -0.978692 0.170557 -0.114336
-0.471297 0.911433 0.621959 130 4 250 0.992374 -0.119551 -0.030029
-0.492495 0.924556 0.509306 130 4 250 0.139245 0.989299 0.043565
-0.523364 0.897861 0.557616 130 4 250 -0.986663 -0.162555 -0.008464
-0.467327 0.948610 0.223521 130 4 250 0.879306 0.456131 0.136988
-0.514090 0.896355 0.483395 130 4 250 -0.222018 -0.039377 -0.974247
-0.521976 0.896179 0.481265 130 4 250 -0.832705 -0.553089 -0.026354
-0.519767 0.893308 0.434086 130 4 250 -0.829844 -0.557995 -0.000251
-0.472748 0.985327 0.167364 130 4 250 0.881984 0.471164 0.010432
-0.485882 0.887386 0.412692 130 4 250 0.141515 -0.988903 -0.045213
-0.505701 0.884084 0.504042 130 4 250 -0.137571 -0.989315 -0.048268
-0.491916 0.884665 0.487465 130 4 250 0.139439 -0.989056 -0.048212
-0.512481 0.893569 0.314971 130 4 250 -0.501051 -0.863465 -0.058106
-0.471549 0.913816 0.622208 130 4 250 0.988301 0.135023 -0.070925
-0.508447 0.936690 0.349781 130 4 250 -0.141767 0.980018 0.139522
-0.507913 0.886820 0.417731 130 4 250 -0.137768 -0.989431 -0.045238
-0.462667 0.933100 0.201650 130 4 250 0.987579 -0.147655 0.053719
-0.477536 0.915892 0.517250 130 4 250 0.153092 0.987808 -0.028236
-0.515402 0.919921 0.524641 130 4 250 -0.493111 0.869107 0.038662
-0.521833 0.894800 0.582091 130 4 250 -0.835359 -0.549305 0.020969
-0.528037 0.916005 0.179169 130 4 250 -0.651695 -0.755913 0.062363
-0.523813 0.910099 0.571503 130 4 250 -0.982294 0.181169 -0.047703
-0.522412 0.895635 0.580911 130 4 250 -0.835359 -0.549305 0.020969
-0.499727 0.905097 0.481542 130 4 250 0.225539 -0.063730 -0.972147
-0.520629 0.915127 0.512058 130 4 250 -0.833237 0.552359 0.024826
-0.477091 0.892224 0.587841 130 4 250 0.875149 -0.483652 0.013980
-0.494910 0.924224 0.524536 130 4 250 0.141074 0.989020 0.044017
-0.507586 0.903719 0.207065 130 4 250 -0.209192 -0.973511 -0.092273
-0.476272 0.914283 0.538883 130 4 250 0.862523 0.505168 -0.029311
-0.483559 0.946055 0.293035 130 4 250 0.145994 0.972109 0.183549
-0.483972 0.885456 0.549017 130 4 250 0.528884 -0.848694 -0.000175
-0.507354 0.883744 0.516614 130 4 250 -0.134937 -0.990853 0.001373
-0.528370 0.951582 0.227451 130 4 250 -0.839812 0.504890 0.199507
-0.515476 0.924033 0.587224 130 4 250 -0.472159 0.872717 -0.124222
-0.531963 0.917959 0.525928 130 4 250 -0.983450 0.062480 0.170063
-0.520274 0.909916 0.191733 130 4 250 -0.615434 -0.787310 -0.037192
-0.519627 0.933858 0.641433 130 4 250 -0.473933 0.846247 -0.243419
-0.525742 0.920127 0.626383 130 4 250 -0.981514 0.172216 -0.083503
-0.465636 0.971537 0.170474 130 4 250 0.949362 0.314011 0.010469
-0.500408 0.919802 0.529335 130 4 250 0.153967 0.987639 -0.029390
-0.476817 0.921091 0.419606 130 4 250 0.876147 0.478374 0.059373
-0.527335 0.926547 0.318871 130 4 250 -0.985867 0.147156 0.080077
-0.506301 0.886091 0.447832 130 4 250 -0.135645 -0.990687 -0.011834
-0.535156 0.936916 0.204610 130 4 250 -0.993334 -0.115195 0.004209
-0.475077 0.904919 0.527097 130 4 250 0.983313 -0.042456 0.176900
-0.475208 0.907378 0.185511 130 4 250 0.604761 -0.796257 0.015453
-0.480655 0.896284 0.303844 130 4 250 0.531235 -0.845364 -0.056124
-0.484199 0.886187 0.498091 130 4 250 0.527686 -0.848431 -0.041376
-0.503976 0.909510 0.550756 130 4 250 -0.227074 0.063638 0.971796
-0.473947 0.909833 0.444684 130 4 250 0.991951 0.125592 0.016145
-0.512401 0.891674 0.635226 130 4 250 -0.494397 -0.863699 0.097956
-0.496916 0.936665 0.359488 130 4 250 0.145573 0.979409 0.139877
-0.496253 0.928259 0.587063 130 4 250 0.133847 0.980983 -0.140558
-0.482965 0.923303 0.472330 130 4 250 0.526705 0.849220 0.037520
-0.465815 0.932493 0.254560 130 4 250 0.989537 0.105120 0.098825
-0.505906 0.885795 0.468040 130 4 250 -0.135645 -0.990687 -0.011834
-0.500506 0.898421 0.234453 130 4 250 -0.142271 -0.977149 -0.157919
-0.529685 0.915558 0.532234 130 4 250 -0.860828 0.073249 0.503596
-0.521536 0.894524 0.502095 130 4 250 -0.832705 -0.553089 -0.026354
-0.508710 0.898681 0.244999 130 4 250 -0.141235 -0.986418 -0.083857
-0.471795 0.907995 0.356835 130 4 250 0.990257 -0.136950 0.025231
-0.484613 0.887765 0.600933 130 4 250 0.530496 -0.843973 0.079263
-0.482452 0.888891 0.540689 130 4 250 0.860416 -0.018432 0.509259
-0.521849 0.910995 0.183625 130 4 250 -0.654281 -0.754726 0.048004
-0.462958 0.951519 0.195244 130 4 250 0.913330 0.357381 0.195209
-0.500022 0.889681 0.343723 130 4 250 -0.139052 -0.988128 -0.065332
-0.485627 0.924043 0.566622 130 4 250 0.513397 0.857056 -0.043332
-0.460862 0.956707 0.172469 130 4 250 0.990719 0.135464 0.011206
-0.488559 0.889545 0.625769 130 4 250 0.140897 -0.981902 0.126555
-0.493070 0.902009 0.213754 130 4 250 0.144885 -0.980532 -0.132537
-0.522724 0.896916 0.502643 130 4 250 -0.985960 -0.166794 -0.007947
-0.471182 0.908540 0.335571 130 4 250 0.990589 -0.134561 0.025027
-0.523866 0.912648 0.425233 130 4 250 -0.986909 0.156618 0.038495
-0.515000 0.976801 0.205607 130 4 250 -0.081561 0.593848 0.800432
-0.502011 0.883669 0.566197 130 4 250 -0.134136 -0.989362 0.056300
-0.468060 0.912281 0.257663 130 4 250 0.873572 -0.486678 0.004090
-0.496349 0.882701 0.526234 130 4 250 0.140572 -0.990069 0.001372
-0.531925 0.913740 0.527696 130 4 250 -0.983450 0.062480 0.170063
-0.522059 0.911309 0.191808 130 4 250 -0.615434 -0.787310 -0.037192
-0.489524 0.901826 0.218981 130 4 250 0.144885 -0.980532 -0.132537
-0.471503 0.907515 0.342736 130 4 250 0.990589 -0.134561 0.025027
-0.494861 0.924955 0.507814 130 4 250 0.139245 0.989299 0.043565
-0.480794 0.889272 0.591564 130 4 250 0.529787 -0.847004 0.043702
-0.485226 0.922663 0.544081 130 4 250 0.513397 0.857056 -0.043332
-0.475993 0.895985 0.624284 130 4 250 0.876105 -0.481649 0.021319
-0.513426 0.929910 0.385434 130 4 250 -0.499799 0.861878 0.085832
-0.472402 0.917175 0.370258 130 4 250 0.991858 0.116568 0.051288
-0.485387 0.915957 0.487279 130 4 250 0.610990 -0.074471 -0.788128
-0.466340 0.922858 0.266536 130 4 250 0.988285 -0.140883 0.058699
-0.495503 0.941163 0.328439 130 4 250 0.145994 0.972109 0.183549
-0.521895 0.933553 0.327309 130 4 250 -0.840525 0.525727 0.130878
-0.495247 0.893060 0.298985 130 4 250 0.143061 -0.986590 -0.078579
-0.530833 0.933770 0.268866 130 4 250 -0.983896 0.140154 0.110929
-0.496507 0.928072 0.440566 130 4 250 0.142774 0.988864 0.041998
-0.508998 0.919777 0.482643 130 4 250 0.152999 0.987806 -0.028814
-0.475786 0.893936 0.567558 130 4 250 0.869868 -0.492987 0.017138
-0.474119 0.908278 0.467532 130 4 250 0.991853 0.126375 0.016042
-0.524748 0.901713 0.602941 130 4 250 -0.987376 -0.155992 -0.027467
-0.512595 0.958444 0.239141 130 4 250 -0.141988 0.970504 0.194839
-0.475344 0.901556 0.527773 130 4 250 0.983313 -0.042456 0.176900
-0.492873 0.900443 0.653346 130 4 250 0.000042 -0.081566 0.996668
-0.501878 0.893747 0.292443 130 4 250 -0.139597 -0.987082 -0.078618
-0.477753 0.890562 0.571803 130 4 250 0.875149 -0.483652 0.013980
-0.515167 0.888589 0.586188 130 4 250 -0.495416 -0.867317 0.048215
-0.481327 0.916327 0.511925 130 4 250 0.153092 0.987808 -0.028236
-0.532470 0.916341 0.241985 130 4 250 -0.982358 -0.177467 0.058984
-0.468841 0.912276 0.148906 92 24 204 0.713261 -0.700758 0.014000
-0.539367 0.955370 -0.058901 92 24 204 -0.996821 0.079661 -0.001411
-0.506476 0.999944 -0.025674 92 24 204 -0.034035 0.999415 -0.003371
-0.462945 0.923246 0.131865 92 24 204 0.924756 -0.380362 0.012315
-0.525029 0.996727 -0.132607 92 24 204 -0.869213 0.494273 -0.012730
-0.538049 0.938554 0.168278 92 24 204 -0.981428 -0.191456 0.011999
-0.470761 0.908707 -0.040164 92 24 204 0.998879 -0.047346 0.000000
-0.525967 0.995405 0.090533 92 24 204 -0.869402 0.494005 0.009983
-0.475600 0.988800 -0.151512 92 24 204 0.732571 0.676444 -0.075919
-0.471535 0.892392 -0.060202 92 24 204 0.998879 -0.047346 0.000000
-0.498647 0.926617 -0.070746 92 24 204 0.000000 1.000000 0.000000
-0.463657 0.969924 -0.034232 92 24 204 0.949496 0.313775 -0.001793
-0.528990 0.990063 0.091672 92 24 204 -0.869402 0.494005 0.009983
-0.489624 0.898352 0.051645 92 24 204 0.256041 -0.966598 0.011432
-0.494027 0.999257 0.083182 92 24 204 0.019684 0.999752 0.010386
-0.503485 0.998036 -0.151267 92 24 204 -0.033409 0.994484 -0.099430
-0.528032 0.912430 -0.138552 92 24 204 -0.639339 -0.768806 0.013558
-0.471538 0.892322 -0.102102 92 24 204 0.998879 -0.047346 0.000000
-0.515711 0.999504 0.022980 92 24 204 -0.034035 0.999411 0.004376
-0.523284 0.909977 0.160028 92 24 204 -0.637419 -0.770394 0.013796
-0.539126 0.950711 -0.131085 92 24 204 -0.996785 0.079416 -0.010614
-0.499832 0.926617 0.125856 92 24 204 0.000000 1.000000 0.000000
-0.480900 0.926617 0.072440 92 24 204 0.000000 1.000000 0.000000
-0.531821 0.985742 -0.054935 92 24 204 -0.952265 0.305266 -0.001872
-0.492243 0.998852 0.116556 92 24 204 0.019683 0.999722 0.012993
-0.479629 0.995588 -0.014857 92 24 204 0.732633 0.680619 -0.002597
-0.538329 0.932428 -0.087667 92 24 204 -0.981956 -0.188828 -0.010295
-0.470604 0.912028 0.117506 92 24 204 0.998879 -0.047346 0.000000
-0.494278 0.897143 -0.125600 92 24 204 0.256692 -0.966431 -0.010998
-0.469969 0.909343 0.041421 92 24 204 0.713645 -0.700481 0.006102
-0.528616 0.990871 -0.114881 92 24 204 -0.869609 0.493573 -0.012883
-0.534310 0.924755 0.148103 92 24 204 -0.868898 -0.494823 0.012919
-0.537695 0.963780 0.028752 92 24 204 -0.981815 0.189795 0.004245
-0.520845 0.905639 -0.029020 92 24 204 -0.638644 -0.769502 -0.000107
-0.512782 0.998153 0.161300 92 24 204 -0.035294 0.999292 0.013063
-0.508448 0.911373 -0.101330 92 24 204 -0.998879 0.047346 0.000000
-0.464005 0.917906 0.011757 92 24 204 0.924756 -0.380524 0.005190
-0.497086 0.998266 0.168810 92 24 204 0.020097 0.999713 0.013068
-0.518009 0.904845 0.118269 92 24 204 -0.638574 -0.769428 0.014267
-0.538510 0.951471 0.142491 92 24 204 -0.996942 0.077300 0.011481
-0.478037 0.900888 -0.074755 92 24 204 0.256709 -0.966489 0.000449
-0.482426 0.997576 0.093173 92 24 204 0.732296 0.680924 0.009237
-0.533184 0.977536 0.147891 92 24 204 -0.952308 0.304915 0.011660
-0.517292 0.999253 0.052807 92 24 204 -0.144484 0.989448 0.010835
-0.535077 0.975714 -0.005686 92 24 204 -0.952257 0.305268 0.004305
-0.519509 0.998375 -0.120805 92 24 204 -0.141946 0.989762 -0.014932
-0.540072 0.943056 0.053021 92 24 204 -0.996820 0.079195 0.008851
-0.508627 0.907582 -0.057841 92 24 204 -0.998879 0.047346 0.000000
-0.505154 0.926617 0.130236 92 24 204 0.000000 1.000000 0.000000
-0.538356 0.961014 -0.055129 92 24 204 -0.981693 0.190465 -0.001631
-0.534841 0.922735 -0.065092 92 24 204 -0.869883 -0.493258 -0.000490
-0.538420 0.932431 0.003096 92 24 204 -0.982012 -0.188745 0.005232
-0.470442 0.915445 -0.094250 92 24 204 0.998879 -0.047346 0.000000
-0.488418 0.899912 0.144623 92 24 204 0.255310 -0.966734 0.015536
-0.495657 0.999226 -0.109617 92 24 204 0.020660 0.999682 -0.014473
-0.488035 0.998635 -0.122158 92 24 204 0.148820 0.988757 -0.014568
-0.467963 0.978683 -0.090891 92 24 204 0.882443 0.470289 -0.011049
-0.472876 0.985736 0.159666 92 24 204 0.881984 0.471164 0.010432
-0.458169 0.945073 -0.105986 92 24 204 0.990515 0.137033 -0.010112
-0.535790 0.973474 -0.036763 92 24 204 -0.952331 0.305062 -0.001928
-0.528434 0.989315 0.163720 92 24 204 -0.870551 0.491933 0.011972
-0.538623 0.934287 0.032437 92 24 204 -0.981872 -0.189477 0.005046
-0.532366 0.983006 -0.099952 92 24 204 -0.952272 0.305039 -0.011374
-0.526861 0.994159 0.074377 92 24 204 -0.869402 0.494005 0.009983
-0.479818 0.900437 -0.027806 92 24 204 0.256709 -0.966489 0.000449
-0.493532 0.999391 0.069335 92 24 204 0.019684 0.999752 0.010386
-0.539958 0.948557 -0.025859 92 24 204 -0.996821 0.079661 -0.001411
-0.462278 0.922921 -0.117516 92 24 204 0.924525 -0.380987 -0.010086
-0.470058 0.923545 -0.131845 92 24 204 0.998879 -0.047346 0.000000
-0.512143 0.900105 -0.035340 92 24 204 -0.237693 -0.971340 0.000455
-0.530947 0.983713 0.171211 92 24 204 -0.952982 0.302823 0.011152
-0.493927 0.999788 -0.045446 92 24 204 0.019296 0.999807 -0.003666
-0.532976 0.920198 0.049735 92 24 204 -0.869669 -0.493539 0.009777
-0.477323 0.926617 0.099136 92 24 204 0.000000 1.000000 0.000000
-0.538534 0.955364 0.114130 92 24 204 -0.996942 0.077300 0.011481
-0.483075 0.900537 0.089794 92 24 204 0.256041 -0.966598 0.011432
-0.538241 0.932607 0.043705 92 24 204 -0.981872 -0.189477 0.005046
-0.460232 0.929373 -0.149393 92 24 204 0.991875 -0.126452 -0.013921
-0.470380 0.916745 0.073729 92 24 204 0.998879 -0.047346 0.000000
-0.479173 0.994922 -0.060401 92 24 204 0.732607 0.680647 -0.002606
-0.459921 0.956329 0.085717 92 24 204 0.990468 0.137497 0.008264
-0.492578 0.898356 0.116077 92 24 204 0.256486 -0.966429 0.015141
-0.497225 0.926617 -0.164990 92 24 204 0.000000 1.000000 0.000000
-0.508248 0.915591 0.051759 92 24 204 -0.998879 0.047346 0.000000
-0.458079 0.947196 -0.011131 92 24 204 0.990562 0.136994 0.004329
-0.471292 0.897531 -0.167086 92 24 204 0.998879 -0.047346 0.000000
-0.502988 0.926617 -0.008605 92 24 204 0.000000 1.000000 0.000000
-0.524717 0.908855 -0.044829 92 24 204 -0.638644 -0.769502 -0.000107
-0.470420 0.915894 0.021697 92 24 204 0.998879 -0.047346 0.000000
-0.470173 0.921113 0.148812 92 24 204 0.998879 -0.047346 0.000000
-0.475981 0.988741 -0.155669 92 24 204 0.733111 0.675089 -0.082484
-0.505540 0.999953 -0.032387 92 24 204 -0.034035 0.999415 -0.003371
-0.538140 0.936902 -0.163016 92 24 204 -0.978913 -0.196087 -0.057263
-0.488607 0.926617 0.062959 92 24 204 0.000000 1.000000 0.000000
-0.460835 0.958535 0.124687 92 24 204 0.949925 0.312288 0.010894
-0.503452 0.901376 0.159358 92 24 204 0.236270 0.937058 0.257097
-0.529207 0.913106 0.014822 92 24 204 -0.869979 -0.493052 0.006003
-0.496156 0.897791 0.131615 92 24 204 -0.234840 -0.971914 0.015282
-0.536146 0.930843 -0.167069 92 24 204 -0.962419 -0.236137 -0.134122
-0.504387 0.999984 0.001413 92 24 204 -0.034270 0.999403 0.004322
-0.491594 0.999695 -0.058512 92 24 204 0.019296 0.999807 -0.003666
-0.528444 0.991785 0.053841 92 24 204 -0.869509 0.493817 0.009937
-0.482204 0.996470 0.147375 92 24 204 0.732531 0.680637 0.011454
-0.468048 0.911340 0.045880 92 24 204 0.713645 -0.700481 0.006102
-0.499998 0.998428 0.160938 92 24 204 0.019683 0.999722 0.012993
-0.537172 0.932452 0.143032 92 24 204 -0.981854 -0.189223 0.012553
-0.516195 0.902572 -0.134758 92 24 204 -0.638978 -0.769154 -0.010454
-0.473862 0.926617 0.138330 92 24 204 0.000000 1.000000 0.000000
-0.468040 0.979382 -0.032014 92 24 204 0.882335 0.470617 -0.002158
-0.473996 0.907071 0.150426 92 24 204 0.712265 -0.701763 0.014401
-0.507966 0.921527 -0.010385 92 24 204 -0.998879 0.047346 0.000000
-0.470238 0.919739 -0.013636 92 24 204 0.998879 -0.047346 0.000000
-0.523421 0.997026 0.161731 92 24 204 -0.144480 0.989417 0.013381
-0.518988 0.998229 0.120649 92 24 204 -0.144480 0.989417 0.013381
-0.535980 0.933446 -0.171233 92 24 204 -0.959342 -0.210918 -0.187552
-0.487079 0.926617 0.042579 92 24 204 0.000000 1.000000 0.000000
-0.481377 0.997437 -0.023465 92 24 204 0.732607 0.680647 -0.002606
-0.540001 0.940434 -0.068516 92 24 204 -0.982009 -0.188834 -0.000927
-0.530671 0.987036 -0.123045 92 24 204 -0.869609 0.493573 -0.012883
-0.528486 0.991015 0.088408 92 24 204 -0.869402 0.494005 0.009983
-0.475249 0.926617 0.028940 92 24 204 0.000000 1.000000 0.000000
-0.486200 0.997793 0.149568 92 24 204 0.146890 0.989065 0.013202
-0.538267 0.937939 0.140674 92 24 204 -0.981428 -0.191456 0.011999
-0.462082 0.963245 -0.126202 92 24 204 0.949609 0.313269 -0.010311
-0.525161 0.909220 -0.029907 92 24 204 -0.638644 -0.769502 -0.000107
-0.500522 0.998412 0.162928 92 24 204 0.019683 0.999722 0.012993
-0.525406 0.909693 -0.095425 92 24 204 -0.639248 -0.768931 -0.010352
-0.538993 0.952537 0.089789 92 24 204 -0.996824 0.079139 0.008839
-0.471433 0.984404 -0.124885 92 24 204 0.882656 0.469893 -0.010930
-0.538773 0.954255 0.099185 92 24 204 -0.996824 0.079139 0.008839
-0.507867 0.923622 0.011468 92 24 204 -0.998879 0.047346 0.000000
-0.530235 0.918056 -0.165845 92 24 204 -0.828784 -0.533942 -0.167399
-0.536367 0.967708 0.101320 92 24 204 -0.981787 0.189780 0.008804
-0.475087 0.990023 -0.099899 92 24 204 0.732554 0.680595 -0.012443
-0.462676 0.965649 0.070475 92 24 204 0.949348 0.314123 0.008111
-0.467936 0.913405 0.159375 92 24 204 0.713261 -0.700758 0.014000
-0.536885 0.926535 0.005641 92 24 204 -0.869694 -0.493557 0.005839
-0.537147 0.941141 -0.171435 92 24 204 -0.984094 0.024452 -0.175960
-0.537184 0.928623 -0.126757 92 24 204 -0.981905 -0.189090 -0.010359
-0.480645 0.926617 0.046770 92 24 204 0.000000 1.000000 0.000000
-0.527814 0.992773 -0.095934 92 24 204 -0.869213 0.494273 -0.012730
-0.468285 0.978580 -0.121072 92 24 204 0.882656 0.469893 -0.010930
-0.463631 0.965848 0.158821 92 24 204 0.949925 0.312288 0.010894
-0.504408 1.000000 -0.029831 92 24 204 -0.034035 0.999415 -0.003371
-0.461008 0.925544 0.037903 92 24 204 0.924756 -0.380524 0.005190
-0.536621 0.969942 -0.057328 92 24 204 -0.981704 0.190408 -0.001646
-0.539636 0.939242 0.021411 92 24 204 -0.981872 -0.189477 0.005046
-0.459320 0.954534 -0.090560 92 24 204 0.990549 0.136790 -0.010058
-0.470148 0.921634 -0.116976 92 24 204 0.998879 -0.047346 0.000000
-0.538329 0.931544 -0.029777 92 24 204 -0.982024 -0.188752 -0.000906
-0.515317 0.998407 0.135284 92 24 204 -0.034724 0.999310 0.013165
-0.488316 0.996863 -0.157461 92 24 204 0.145972 0.982493 -0.115758
-0.535622 0.972942 0.057658 92 24 204 -0.952370 0.304811 0.009056
-0.531227 0.919686 0.161242 92 24 204 -0.868898 -0.494823 0.012919
-0.464193 0.917138 -0.049377 92 24 204 0.924644 -0.380832 -0.000528
-0.508215 0.916278 -0.120477 92 24 204 -0.998879 0.047346 0.000000
-0.462785 0.920579 -0.071740 92 24 204 0.924524 -0.381123 -0.000442
-0.521578 0.998266 0.085843 92 24 204 -0.144484 0.989448 0.010835
-0.533326 0.981086 -0.049539 92 24 204 -0.952265 0.305266 -0.001872
-0.527311 0.993991 0.039744 92 24 204 -0.869546 0.493833 0.004342
-0.510400 0.999022 0.099999 92 24 204 -0.034725 0.999343 0.010389
-0.538872 0.934547 -0.065284 92 24 204 -0.982009 -0.188834 -0.000927
-0.479082 0.912234 0.150467 92 24 204 0.000000 0.000000 1.000000
-0.460004 0.930419 0.099536 92 24 204 0.992220 -0.124190 0.008685
-0.484262 0.926617 -0.009458 92 24 204 0.000000 1.000000 0.000000
-0.459490 0.952568 -0.134013 92 24 204 0.990549 0.136790 -0.010058
-0.530521 0.915074 -0.019840 92 24 204 -0.869993 -0.493064 -0.000427
-0.537636 0.939036 -0.169045 92 24 204 -0.959342 -0.210918 -0.187552
-0.471746 0.887932 0.150377 92 24 204 0.998879 -0.047346 0.000000
-0.534272 0.977549 0.042809 92 24 204 -0.952402 0.304817 0.004181
-0.537957 0.959751 0.095458 92 24 204 -0.981787 0.189780 0.008804
-0.498260 0.926617 -0.039974 92 24 204 0.000000 1.000000 0.000000
-0.528283 0.991475 0.083314 92 24 204 -0.869402 0.494005 0.009983
-0.494374 0.999631 -0.079852 92 24 204 0.020660 0.999682 -0.014473
-0.531858 0.917890 -0.095204 92 24 204 -0.869836 -0.493236 -0.010145
-0.505904 0.999058 -0.125312 92 24 204 -0.035404 0.999264 -0.014750
-0.536197 0.926688 0.091160 92 24 204 -0.869521 -0.493800 0.009694
-0.499988 0.926617 0.078091 92 24 204 0.000000 1.000000 0.000000
-0.536336 0.971651 -0.029429 92 24 204 -0.981704 0.190408 -0.001646
-0.465643 0.917571 0.157436 92 24 204 0.923911 -0.382390 0.012906
-0.495400 0.926617 0.013887 92 24 204 0.000000 1.000000 0.000000
-0.477226 0.992308 0.069192 92 24 204 0.732296 0.680924 0.009237
-0.472266 0.908129 0.115837 92 24 204 0.713261 -0.700758 0.014000
-0.478584 0.902270 0.128899 92 24 204 0.256486 -0.966429 0.015141
-0.539292 0.938068 -0.099219 92 24 204 -0.981956 -0.188828 -0.010295
-0.514303 0.901544 0.085501 92 24 204 -0.234853 -0.971966 0.011206
-0.507616 0.902498 0.159095 92 24 204 0.235943 0.937808 0.254650
-0.536956 0.965861 -0.114381 92 24 204 -0.981638 0.190450 -0.010777
-0.520519 0.906140 -0.132914 92 24 204 -0.638978 -0.769154 -0.010454
-0.490342 0.926617 0.116854 92 24 204 0.000000 1.000000 0.000000
-0.459604 0.938760 0.157269 92 24 204 0.991954 -0.126049 0.011821
-0.536274 0.925716 0.027342 92 24 204 -0.869694 -0.493557 0.005839
-0.493414 0.926157 0.150467 92 24 204 0.000000 0.000000 1.000000
-0.489858 0.926617 -0.119273 92 24 204 0.000000 1.000000 0.000000
-0.523499 0.998567 0.013917 92 24 204 -0.143891 0.989583 0.004641
-0.532762 0.982244 0.044229 92 24 204 -0.952402 0.304817 0.004181
-0.507916 0.922592 -0.115929 92 24 204 -0.998879 0.047346 0.000000
-0.470599 0.912123 -0.018717 92 24 204 0.998879 -0.047346 0.000000
-0.458799 0.948699 0.078095 92 24 204 0.990456 0.137586 0.008244
-0.494451 0.896524 -0.012684 92 24 204 0.259137 -0.965815 0.007026
-0.504527 0.926617 -0.114568 92 24 204 0.000000 1.000000 0.000000
-0.458491 0.936553 -0.022414 92 24 204 0.992187 -0.124758 -0.000911
-0.536563 0.969345 0.041951 92 24 204 -0.981815 0.189795 0.004245
-0.539486 0.950056 -0.102164 92 24 204 -0.996769 0.079628 -0.010569
-0.470899 0.905785 0.102482 92 24 204 0.998879 -0.047346 0.000000
-0.471556 0.891947 -0.136977 92 24 204 0.998879 -0.047346 0.000000
-0.506229 0.999299 -0.108203 92 24 204 -0.035404 0.999264 -0.014750
-0.514484 0.999282 -0.089618 92 24 204 -0.034508 0.999298 -0.014560
-0.470766 0.908601 -0.111121 92 24 204 0.998879 -0.047346 0.000000
-0.500779 0.999580 -0.092453 92 24 204 0.019652 0.999699 -0.014682
-0.535803 0.968846 -0.149149 92 24 204 -0.981533 0.187768 -0.036559
-0.536337 0.968178 0.094496 92 24 204 -0.981787 0.189780 0.008804
-0.461889 0.964644 -0.022140 92 24 204 0.949530 0.313671 -0.001763
-0.471389 0.895469 0.092349 92 24 204 0.998879 -0.047346 0.000000
-0.470550 0.913165 0.079458 92 24 204 0.998879 -0.047346 0.000000
-0.538156 0.955887 0.143484 92 24 204 -0.996942 0.077300 0.011481
-0.532617 0.981478 -0.119970 92 24 204 -0.952312 0.304911 -0.011406
-0.510483 0.899702 -0.029560 92 24 204 -0.237693 -0.971340 0.000455
-0.473612 0.987769 -0.136300 92 24 204 0.732554 0.680595 -0.012443
-0.475078 0.926617 -0.000621 92 24 204 0.000000 1.000000 0.000000
-0.502713 0.998490 0.160239 92 24 204 0.019683 0.999722 0.012993
-0.497390 0.926617 0.132847 92 24 204 0.000000 1.000000 0.000000
-0.519583 0.998715 0.071384 92 24 204 -0.144484 0.989448 0.010835
-0.462496 0.922182 -0.109559 92 24 204 0.924525 -0.380987 -0.010086
-0.462120 0.961832 0.142256 92 24 204 0.949925 0.312288 0.010894
-0.471717 0.888556 0.084072 92 24 204 0.998879 -0.047346 0.000000
-0.538894 0.958102 -0.071242 92 24 204 -0.981693 0.190465 -0.001631
-0.521956 0.997629 0.132963 92 24 204 -0.144480 0.989417 0.013381
-0.489374 0.899405 0.128770 92 24 204 0.255310 -0.966734 0.015536
-0.466937 0.912216 -0.094216 92 24 204 0.712623 -0.701469 -0.010440
-0.484240 0.901217 0.157138 92 24 204 0.255310 -0.966734 0.015536
-0.511735 0.899992 -0.068206 92 24 204 -0.235410 -0.971896 -0.000302
-0.538184 0.933869 -0.127707 92 24 204 -0.981905 -0.189090 -0.010359
-0.470587 0.912374 0.098677 92 24 204 0.998879 -0.047346 0.000000
-0.471761 0.907693 -0.159274 92 24 204 0.707979 -0.705089 -0.040185
-0.466331 0.914698 0.121564 92 24 204 0.923911 -0.382390 0.012906
-0.464851 0.972769 0.049155 92 24 204 0.949348 0.314123 0.008111
-0.533634 0.978598 -0.112099 92 24 204 -0.952312 0.304911 -0.011406
-0.537989 0.962914 -0.054522 92 24 204 -0.981693 0.190465 -0.001631
-0.473437 0.988892 -0.023245 92 24 204 0.732633 0.680619 -0.002597
-0.508461 0.911079 0.089750 92 24 204 -0.998879 0.047346 0.000000
-0.536621 0.962851 0.161318 92 24 204 -0.982129 0.187880 0.011159
-0.470662 0.983997 0.028914 92 24 204 0.882327 0.470618 0.004156
-0.530171 0.988240 -0.110641 92 24 204 -0.869609 0.493573 -0.012883
-0.531658 0.983625 0.113207 92 24 204 -0.952308 0.304915 0.011660
-0.462435 0.921411 -0.056122 92 24 204 0.924524 -0.381123 -0.000442
-0.512164 0.901654 0.131772 92 24 204 -0.233718 -0.972191 0.014884
-0.487377 0.901917 0.150467 92 24 204 0.000000 0.000000 1.000000
-0.481534 0.901964 0.159155 92 24 204 0.255310 -0.966734 0.015536
-0.460510 0.926042 -0.023499 92 24 204 0.924644 -0.380832 -0.000528
-0.505178 0.899705 0.114709 92 24 204 -0.234840 -0.971914 0.015282
-0.515442 0.905058 0.160253 92 24 204 -0.632860 -0.768750 -0.092259
-0.522423 0.906951 -0.048624 92 24 204 -0.639284 -0.768970 0.000139
-0.538360 0.960055 0.041584 92 24 204 -0.981815 0.189795 0.004245
-0.505075 0.999361 -0.106807 92 24 204 -0.035404 0.999264 -0.014750
-0.476145 0.926617 -0.057935 92 24 204 0.000000 1.000000 0.000000
-0.463607 0.921635 0.131760 92 24 204 0.924756 -0.380362 0.012315
-0.493176 0.897057 -0.092330 92 24 204 0.256692 -0.966431 -0.010998
-0.502563 0.926617 -0.079128 92 24 204 0.000000 1.000000 0.000000
-0.478453 0.901624 0.078204 92 24 204 0.256041 -0.966598 0.011432
-0.512487 0.996981 -0.158229 92 24 204 -0.033656 0.993092 -0.112405
-0.521145 0.905888 -0.055366 92 24 204 -0.639284 -0.768970 0.000139
-0.529721 0.916907 -0.336137 218 54 19 -0.986889 0.150169 -0.059154
-0.482606 0.920677 -0.449446 218 54 19 0.534153 0.842948 -0.064173
-0.475261 0.870298 -0.509557 218 54 19 0.860141 -0.065909 0.505779
-0.472809 0.885868 -0.517158 218 54 19 0.874642 -0.483954 -0.028110
-0.519652 0.885762 -0.361219 218 54 19 -0.499448 -0.861426 0.092183
-0.502799 0.863172 -0.566522 218 54 19 -0.223993 0.050859 -0.973263
-0.524466 0.910434 -0.464914 218 54 19 -0.835332 0.549146 -0.025684
-0.483713 0.884644 -0.596171 218 54 19 0.530193 -0.835624 -0.143625
-0.466787 0.910804 -0.536771 218 54 19 0.983615 -0.044769 -0.174636
-0.519787 0.888138 -0.340015 218 54 19 -0.501885 -0.856018 0.123871
-0.476753 0.885757 -0.576910 218 54 19 0.533031 -0.839506 -0.105389
-0.467386 0.928843 -0.288715 218 54 19 0.992047 0.112709 -0.056038
-0.500770 0.876136 -0.551153 218 54 19 -0.139516 -0.982667 -0.122071
-0.481349 0.940138 -0.641132 218 54 19 0.535175 0.820337 0.201580
-0.528355 0.926038 -0.653068 218 54 19 -0.985831 0.157977 0.056398
-0.524191 0.920762 -0.377604 218 54 19 -0.840124 0.534115 -0.094402
-0.495450 0.984635 -0.182975 218 54 19 0.065093 0.682329 -0.728141
-0.471255 0.948260 -0.249679 218 54 19 0.879891 0.461591 -0.112811
-0.463650 0.940850 -0.193834 218 54 19 0.985179 0.091985 -0.144778
-0.482429 0.919484 -0.464238 218 54 19 0.531065 0.846620 -0.034701
-0.525121 0.909458 -0.464510 218 54 19 -0.835332 0.549146 -0.025684
-0.470553 0.912357 -0.596471 218 54 19 0.991405 0.125497 0.036981
-0.507787 0.875999 -0.542144 218 54 19 -0.137698 -0.982843 -0.122715
-0.467929 0.884412 -0.536434 218 54 19 0.983615 -0.044769 -0.174636
-0.525953 0.907671 -0.520602 218 54 19 -0.837201 0.545823 0.034227
-0.514912 0.939530 -0.317217 218 54 19 -0.505928 0.843251 -0.181562
-0.526257 0.887657 -0.466951 218 54 19 -0.834494 -0.550805 0.015285
-0.484412 0.890406 -0.629633 218 54 19 0.144177 -0.970862 -0.191416
-0.523306 0.911262 -0.484936 218 54 19 -0.838422 0.544363 -0.026783
-0.529952 0.909228 -0.353197 218 54 19 -0.986958 0.154579 -0.044938
-0.494468 0.879146 -0.370124 218 54 19 0.143006 -0.983537 0.110473
-0.501784 0.886088 -0.614800 218 54 19 -0.141398 -0.975270 -0.169867
-0.475942 0.935203 -0.635344 218 54 19 0.532779 0.822002 0.201145
-0.486012 0.905322 -0.655501 218 54 19 -0.000053 0.080928 -0.996720
-0.487645 0.942201 -0.652507 218 54 19 0.000120 0.081069 -0.996708
-0.492428 0.928205 -0.574140 218 54 19 0.143917 0.977670 0.153131
-0.482006 0.889036 -0.311840 218 54 19 0.535908 -0.835635 0.120483
