ply
format ascii 1.0
element vertex 714
property float x
property float y
property float z
property uchar red
property uchar green
property uchar blue
property float nx
property float ny
property float nz
end_header
-0.412993 0.831675 -0.275612 169 117 156 0.000000 -1.000000 0.000000
-0.276825 0.906374 -0.514839 169 117 156 0.685576 0.000000 -0.728001
-0.403726 0.831675 -0.190810 169 117 156 0.000000 -1.000000 0.000000
-0.368350 1.000000 -0.275384 169 117 156 0.000000 1.000000 0.000000
-0.321182 0.831675 -0.286032 169 117 156 0.000000 -1.000000 0.000000
-0.453515 0.937265 -0.344523 169 117 156 -0.886683 0.000000 -0.462378
-0.194765 0.831675 -0.309138 169 117 156 0.000000 -1.000000 0.000000
-0.308323 1.000000 -0.261349 169 117 156 0.000000 1.000000 0.000000
-0.264485 0.926569 -0.503219 169 117 156 0.685576 0.000000 -0.728001
-0.362437 1.000000 -0.348377 169 117 156 0.000000 1.000000 0.000000
-0.266799 0.998199 -0.505398 169 117 156 0.685576 0.000000 -0.728001
-0.127730 0.969296 -0.339707 169 117 156 0.728001 0.000000 0.685576
-0.418294 0.831675 -0.216010 169 117 156 0.000000 -1.000000 0.000000
-0.398630 1.000000 -0.403978 169 117 156 0.000000 1.000000 0.000000
-0.281444 1.000000 -0.486202 169 117 156 0.000000 1.000000 0.000000
-0.426042 1.000000 -0.279129 169 117 156 0.000000 1.000000 0.000000
-0.509842 0.923422 -0.209611 169 117 156 -0.941626 0.000000 -0.336661
-0.247309 0.831675 -0.384581 169 117 156 0.000000 -1.000000 0.000000
-0.225477 0.831675 -0.446901 169 117 156 0.000000 -1.000000 0.000000
-0.302682 0.831675 -0.462293 169 117 156 0.000000 -1.000000 0.000000
-0.372937 0.962356 -0.468284 169 117 156 -0.728009 0.000000 -0.685568
-0.412185 0.970511 -0.413403 169 117 156 -0.815009 0.000000 -0.579448
-0.273299 0.831675 -0.191787 169 117 156 0.000000 -1.000000 0.000000
-0.361725 1.000000 -0.475972 169 117 156 0.000000 1.000000 0.000000
-0.307900 1.000000 -0.421328 169 117 156 0.000000 1.000000 0.000000
-0.289238 0.916821 -0.526529 169 117 156 0.685576 0.000000 -0.728001
-0.143042 0.845844 -0.388852 169 117 156 0.685576 0.000000 -0.728001
-0.391351 0.831675 -0.426814 169 117 156 0.000000 -1.000000 0.000000
-0.331608 1.000000 -0.241354 169 117 156 0.000000 1.000000 0.000000
-0.134254 0.843019 -0.332778 169 117 156 0.728001 0.000000 0.685576
-0.282691 0.831675 -0.426698 169 117 156 0.000000 -1.000000 0.000000
-0.420895 0.928097 -0.401153 169 117 156 -0.815009 0.000000 -0.579448
-0.484663 0.965402 -0.280035 169 117 156 -0.941626 0.000000 -0.336661
-0.404600 0.845766 -0.424072 169 117 156 -0.815009 0.000000 -0.579448
-0.158300 0.831675 -0.366050 169 117 156 0.000000 -1.000000 0.000000
-0.203922 0.908048 -0.246132 169 117 156 0.815013 0.000000 0.579442
-0.195662 0.908377 -0.438406 169 117 156 0.685576 0.000000 -0.728001
-0.134521 0.853566 -0.332495 169 117 156 0.728001 0.000000 0.685576
-0.501932 0.994807 -0.231734 169 117 156 -0.941626 0.000000 -0.336661
-0.366668 1.000000 -0.333544 169 117 156 0.000000 1.000000 0.000000
-0.111311 0.868684 -0.357141 169 117 156 0.728001 0.000000 0.685576
-0.169164 0.959742 -0.295021 169 117 156 0.815013 0.000000 0.579442
-0.220027 0.878693 -0.215559 169 117 156 0.886665 0.000000 0.462412
-0.292460 1.000000 -0.360086 169 117 156 0.000000 1.000000 0.000000
-0.305169 0.863941 -0.540248 169 117 156 -0.728009 0.000000 -0.685568
-0.204868 1.000000 -0.252064 169 117 156 0.000000 1.000000 0.000000
-0.374262 1.000000 -0.382158 169 117 156 0.000000 1.000000 0.000000
-0.235377 0.914616 -0.475807 169 117 156 0.685576 0.000000 -0.728001
-0.501716 0.912383 -0.232338 169 117 156 -0.941626 0.000000 -0.336661
-0.403209 1.000000 -0.403191 169 117 156 0.000000 1.000000 0.000000
-0.268303 0.831675 -0.231154 169 117 156 0.000000 -1.000000 0.000000
-0.397288 1.000000 -0.431297 169 117 156 0.000000 1.000000 0.000000
-0.289712 0.873065 -0.526976 169 117 156 0.685576 0.000000 -0.728001
-0.340482 1.000000 -0.341612 169 117 156 0.000000 1.000000 0.000000
-0.494433 0.962877 -0.252709 169 117 156 -0.941626 0.000000 -0.336661
-0.371721 0.831675 -0.327480 169 117 156 0.000000 -1.000000 0.000000
-0.404383 0.831675 -0.422037 169 117 156 0.000000 -1.000000 0.000000
-0.393500 0.871930 -0.439684 169 117 156 -0.815009 0.000000 -0.579448
-0.274971 0.902233 -0.513093 169 117 156 0.685576 0.000000 -0.728001
-0.448735 0.924791 -0.353689 169 117 156 -0.886683 0.000000 -0.462378
-0.259055 0.831675 -0.325545 169 117 156 0.000000 -1.000000 0.000000
-0.174894 0.961078 -0.286961 169 117 156 0.815013 0.000000 0.579442
-0.297522 0.871891 -0.534330 169 117 156 0.685576 0.000000 -0.728001
-0.468084 1.000000 -0.279349 169 117 156 0.000000 1.000000 0.000000
-0.339971 0.920825 -0.503291 169 117 156 -0.728009 0.000000 -0.685568
-0.325286 0.965197 -0.518885 169 117 156 -0.728009 0.000000 -0.685568
-0.472880 0.909374 -0.307388 169 117 156 -0.886683 0.000000 -0.462378
-0.236285 0.993091 -0.182667 169 117 156 0.941634 0.000000 0.336638
-0.164679 0.845263 -0.300471 169 117 156 0.728001 0.000000 0.685576
-0.456566 0.831675 -0.217328 169 117 156 0.000000 -1.000000 0.000000
-0.427916 0.831675 -0.372511 169 117 156 0.000000 -1.000000 0.000000
-0.452478 0.831675 -0.261961 169 117 156 0.000000 -1.000000 0.000000
-0.226152 0.831675 -0.460027 169 117 156 0.000000 -1.000000 0.000000
-0.216436 0.831675 -0.260054 169 117 156 0.000000 -1.000000 0.000000
-0.505103 0.935660 -0.222865 169 117 156 -0.941626 0.000000 -0.336661
-0.487185 1.000000 -0.226964 169 117 156 0.000000 1.000000 0.000000
-0.494523 0.922954 -0.252457 169 117 156 -0.941626 0.000000 -0.336661
-0.506957 0.954786 -0.217679 169 117 156 -0.941626 0.000000 -0.336661
-0.260028 0.885428 -0.499021 169 117 156 0.685576 0.000000 -0.728001
-0.196742 0.831675 -0.375415 169 117 156 0.000000 -1.000000 0.000000
-0.367360 1.000000 -0.365984 169 117 156 0.000000 1.000000 0.000000
-0.355139 0.845264 -0.487183 169 117 156 -0.728009 0.000000 -0.685568
-0.422536 0.961328 -0.398845 169 117 156 -0.815009 0.000000 -0.579448
-0.301489 0.831675 -0.469185 169 117 156 0.000000 -1.000000 0.000000
-0.233585 1.000000 -0.437023 169 117 156 0.000000 1.000000 0.000000
-0.460289 0.831675 -0.314942 169 117 156 0.000000 -1.000000 0.000000
-0.175659 0.933129 -0.285884 169 117 156 0.815013 0.000000 0.579442
-0.312809 1.000000 -0.510991 169 117 156 0.000000 1.000000 0.000000
-0.420199 0.897687 -0.402131 169 117 156 -0.815009 0.000000 -0.579448
-0.350258 0.831675 -0.395925 169 117 156 0.000000 -1.000000 0.000000
-0.317017 1.000000 -0.482716 169 117 156 0.000000 1.000000 0.000000
-0.361039 0.837542 -0.480919 169 117 156 -0.728009 0.000000 -0.685568
-0.378833 0.831675 -0.219102 169 117 156 0.000000 -1.000000 0.000000
-0.208196 1.000000 -0.269083 169 117 156 0.000000 1.000000 0.000000
-0.315562 1.000000 -0.528688 169 117 156 0.000000 1.000000 0.000000
-0.193395 0.914986 -0.436271 169 117 156 0.685576 0.000000 -0.728001
-0.384268 0.880818 -0.452670 169 117 156 -0.815009 0.000000 -0.579448
-0.344257 0.831675 -0.224532 169 117 156 0.000000 -1.000000 0.000000
-0.336232 0.840563 -0.507261 169 117 156 -0.728009 0.000000 -0.685568
-0.239869 0.831675 -0.207263 169 117 156 0.000000 -1.000000 0.000000
-0.150211 0.868344 -0.395604 169 117 156 0.685576 0.000000 -0.728001
-0.369212 0.831675 -0.281334 169 117 156 0.000000 -1.000000 0.000000
-0.461753 0.848568 -0.328725 169 117 156 -0.886683 0.000000 -0.462378
-0.349861 0.831675 -0.241768 169 117 156 0.000000 -1.000000 0.000000
-0.171058 0.867840 -0.415236 169 117 156 0.685576 0.000000 -0.728001
-0.131838 0.831675 -0.360571 169 117 156 0.000000 -1.000000 0.000000
-0.173845 0.982576 -0.417861 169 117 156 0.685576 0.000000 -0.728001
-0.410323 0.831675 -0.337581 169 117 156 0.000000 -1.000000 0.000000
-0.259447 0.831675 -0.182441 169 117 156 0.000000 -1.000000 0.000000
-0.443706 0.831675 -0.317891 169 117 156 0.000000 -1.000000 0.000000
-0.396722 1.000000 -0.214646 169 117 156 0.000000 1.000000 0.000000
-0.439080 0.929179 -0.372204 169 117 156 -0.886683 0.000000 -0.462378
-0.203573 0.831675 -0.415838 169 117 156 0.000000 -1.000000 0.000000
-0.205589 0.831675 -0.275930 169 117 156 0.000000 -1.000000 0.000000
-0.340781 0.831675 -0.430867 169 117 156 0.000000 -1.000000 0.000000
-0.415894 0.956242 -0.408187 169 117 156 -0.815009 0.000000 -0.579448
-0.499598 0.907641 -0.238262 169 117 156 -0.941626 0.000000 -0.336661
-0.297175 1.000000 -0.377173 169 117 156 0.000000 1.000000 0.000000
-0.153487 0.852640 -0.398689 169 117 156 0.685576 0.000000 -0.728001
-0.372038 1.000000 -0.323990 169 117 156 0.000000 1.000000 0.000000
-0.185895 0.831675 -0.288322 169 117 156 0.000000 -1.000000 0.000000
-0.264693 1.000000 -0.258099 169 117 156 0.000000 1.000000 0.000000
-0.384835 1.000000 -0.286642 169 117 156 0.000000 1.000000 0.000000
-0.500581 0.940212 -0.235512 169 117 156 -0.941626 0.000000 -0.336661
-0.179385 0.887040 -0.423078 169 117 156 0.685576 0.000000 -0.728001
-0.220912 1.000000 -0.358822 169 117 156 0.000000 1.000000 0.000000
-0.283859 0.831675 -0.208613 169 117 156 0.000000 -1.000000 0.000000
-0.300599 0.831675 -0.440468 169 117 156 0.000000 -1.000000 0.000000
-0.381160 1.000000 -0.453778 169 117 156 0.000000 1.000000 0.000000
-0.229859 0.964691 -0.470610 169 117 156 0.685576 0.000000 -0.728001
-0.261014 0.986561 -0.499950 169 117 156 0.685576 0.000000 -0.728001
-0.246217 1.000000 -0.391782 169 117 156 0.000000 1.000000 0.000000
-0.281981 0.994104 -0.519695 169 117 156 0.685576 0.000000 -0.728001
-0.472389 0.875144 -0.308329 169 117 156 -0.886683 0.000000 -0.462378
-0.433718 0.867412 -0.382486 169 117 156 -0.886683 0.000000 -0.462378
-0.304568 0.868726 -0.540885 169 117 156 -0.728009 0.000000 -0.685568
-0.187585 0.831675 -0.365201 169 117 156 0.000000 -1.000000 0.000000
-0.307504 0.934432 -0.537767 169 117 156 -0.728009 0.000000 -0.685568
-0.504687 0.831675 -0.223803 169 117 156 0.000000 -1.000000 0.000000
-0.513470 0.868333 -0.199138 169 117 156 -0.978853 0.000000 -0.204565
-0.224977 0.870764 -0.206066 169 117 156 0.886665 0.000000 0.462412
-0.240607 0.961637 -0.480732 169 117 156 0.685576 0.000000 -0.728001
-0.496847 0.941154 -0.245958 169 117 156 -0.941626 0.000000 -0.336661
-0.264222 0.918183 -0.502971 169 117 156 0.685576 0.000000 -0.728001
-0.495538 0.873376 -0.249619 169 117 156 -0.941626 0.000000 -0.336661
-0.281005 0.831675 -0.233900 169 117 156 0.000000 -1.000000 0.000000
-0.481049 0.996802 -0.290142 169 117 156 -0.941626 0.000000 -0.336661
-0.193161 1.000000 -0.407164 169 117 156 0.000000 1.000000 0.000000
-0.174208 0.831675 -0.356450 169 117 156 0.000000 -1.000000 0.000000
-0.342824 0.831675 -0.235582 169 117 156 0.000000 -1.000000 0.000000
-0.379117 0.831675 -0.233593 169 117 156 0.000000 -1.000000 0.000000
-0.209975 0.973525 -0.234833 169 117 156 0.886665 0.000000 0.462412
-0.313003 1.000000 -0.293184 169 117 156 0.000000 1.000000 0.000000
-0.363036 0.911380 -0.478798 169 117 156 -0.728009 0.000000 -0.685568
-0.266868 1.000000 -0.204245 169 117 156 0.000000 1.000000 0.000000
-0.281145 0.831675 -0.210246 169 117 156 0.000000 -1.000000 0.000000
-0.386471 1.000000 -0.444530 169 117 156 0.000000 1.000000 0.000000
-0.230246 1.000000 -0.394792 169 117 156 0.000000 1.000000 0.000000
-0.235616 1.000000 -0.217546 169 117 156 0.000000 1.000000 0.000000
-0.369973 1.000000 -0.290197 169 117 156 0.000000 1.000000 0.000000
-0.248943 0.985533 -0.488582 169 117 156 0.685576 0.000000 -0.728001
-0.328289 0.831675 -0.465184 169 117 156 0.000000 -1.000000 0.000000
-0.234033 0.852586 -0.188702 169 117 156 0.886665 0.000000 0.462412
-0.383991 0.913017 -0.453059 169 117 156 -0.815009 0.000000 -0.579448
-0.417077 0.831675 -0.356986 169 117 156 0.000000 -1.000000 0.000000
-0.220999 0.831675 -0.233834 169 117 156 0.000000 -1.000000 0.000000
-0.144468 1.000000 -0.345215 169 117 156 0.000000 1.000000 0.000000
-0.332395 0.970334 -0.511336 169 117 156 -0.728009 0.000000 -0.685568
-0.203286 1.000000 -0.427349 169 117 156 0.000000 1.000000 0.000000
-0.359408 0.939505 -0.482651 169 117 156 -0.728009 0.000000 -0.685568
-0.412681 0.978590 -0.412705 169 117 156 -0.815009 0.000000 -0.579448
-0.205647 0.932312 -0.243133 169 117 156 0.886665 0.000000 0.462412
-0.454234 1.000000 -0.336181 169 117 156 0.000000 1.000000 0.000000
-0.508936 0.929295 -0.212144 169 117 156 -0.941626 0.000000 -0.336661
-0.329606 1.000000 -0.376166 169 117 156 0.000000 1.000000 0.000000
-0.331348 0.831675 -0.369983 169 117 156 0.000000 -1.000000 0.000000
-0.424666 0.947739 -0.395848 169 117 156 -0.815009 0.000000 -0.579448
-0.354930 0.831675 -0.455963 169 117 156 0.000000 -1.000000 0.000000
-0.142792 0.844547 -0.388617 169 117 156 0.685576 0.000000 -0.728001
-0.289685 1.000000 -0.457960 169 117 156 0.000000 1.000000 0.000000
-0.249177 0.886041 -0.488802 169 117 156 0.685576 0.000000 -0.728001
-0.229961 0.831675 -0.457432 169 117 156 0.000000 -1.000000 0.000000
-0.451047 0.965459 -0.349255 169 117 156 -0.886683 0.000000 -0.462378
-0.121854 0.974359 -0.345946 169 117 156 0.728001 0.000000 0.685576
-0.515983 0.838258 -0.187112 169 117 156 -0.978853 0.000000 -0.204565
-0.459541 0.946452 -0.332966 169 117 156 -0.886683 0.000000 -0.462378
-0.488225 0.869889 -0.270072 169 117 156 -0.941626 0.000000 -0.336661
-0.410652 1.000000 -0.285992 169 117 156 0.000000 1.000000 0.000000
-0.370779 0.880534 -0.470575 169 117 156 -0.728009 0.000000 -0.685568
-0.424061 1.000000 -0.335214 169 117 156 0.000000 1.000000 0.000000
-0.389070 0.831675 -0.170987 44 247 39 0.000000 -1.000000 0.000000
-0.308048 1.000000 0.049156 44 247 39 0.000000 1.000000 0.000000
-0.469002 1.000000 -0.051467 44 247 39 0.000000 1.000000 0.000000
-0.540108 0.888600 -0.012096 44 247 39 -0.997642 0.000000 -0.068632
-0.514846 1.000000 0.046298 44 247 39 0.000000 1.000000 0.000000
-0.433320 0.831675 -0.000738 44 247 39 0.000000 -1.000000 0.000000
-0.291060 1.000000 -0.143377 44 247 39 0.000000 1.000000 0.000000
-0.517984 0.831675 0.111116 44 247 39 0.000000 -1.000000 0.000000
-0.483909 0.831675 -0.092759 44 247 39 0.000000 -1.000000 0.000000
-0.378534 0.831675 -0.076983 44 247 39 0.000000 -1.000000 0.000000
-0.536884 0.926488 -0.058956 44 247 39 -0.997642 0.000000 -0.068632
-0.306204 0.831675 0.127624 44 247 39 0.000000 -1.000000 0.000000
-0.272851 0.907466 -0.011567 44 247 39 0.997645 0.000000 0.068593
-0.509040 1.000000 0.109764 44 247 39 0.000000 1.000000 0.000000
-0.241161 0.987109 -0.169029 44 247 39 0.941634 0.000000 0.336638
-0.536828 0.993819 -0.059768 44 247 39 -0.997642 0.000000 -0.068632
-0.335333 1.000000 0.068142 44 247 39 0.000000 1.000000 0.000000
-0.267551 0.901727 -0.072320 44 247 39 0.978855 0.000000 0.204557
-0.295268 0.831675 -0.095708 44 247 39 0.000000 -1.000000 0.000000
-0.538291 0.938825 0.038511 44 247 39 -0.997642 0.000000 0.068632
-0.340195 1.000000 0.151063 44 247 39 0.000000 1.000000 0.000000
-0.269627 0.908592 0.058450 44 247 39 0.997645 0.000000 -0.068593
-0.456143 0.831675 -0.169494 44 247 39 0.000000 -1.000000 0.000000
-0.531957 0.850617 -0.110678 44 247 39 -0.978853 0.000000 -0.204565
-0.425521 1.000000 0.000171 44 247 39 0.000000 1.000000 0.000000
-0.367623 0.831675 -0.127668 44 247 39 0.000000 -1.000000 0.000000
-0.395395 1.000000 0.041270 44 247 39 0.000000 1.000000 0.000000
-0.259290 0.927110 0.111849 44 247 39 0.978855 0.000000 -0.204557
-0.540916 0.874301 -0.000348 44 247 39 -0.997642 0.000000 -0.068632
-0.406579 1.000000 -0.051517 44 247 39 0.000000 1.000000 0.000000
-0.537500 0.840052 -0.050010 44 247 39 -0.997642 0.000000 -0.068632
-0.454954 0.831675 0.040588 44 247 39 0.000000 -1.000000 0.000000
-0.483292 1.000000 -0.166963 44 247 39 0.000000 1.000000 0.000000
-0.271054 0.849194 -0.037702 44 247 39 0.997645 0.000000 0.068593
-0.537393 0.995197 -0.051561 44 247 39 -0.997642 0.000000 -0.068632
-0.264023 0.867581 0.089205 44 247 39 0.978855 0.000000 -0.204557
-0.287280 0.831675 -0.070813 44 247 39 0.000000 -1.000000 0.000000
-0.290909 1.000000 0.032995 44 247 39 0.000000 1.000000 0.000000
-0.539480 0.868360 0.021227 44 247 39 -0.997642 0.000000 0.068632
-0.358529 1.000000 -0.070523 44 247 39 0.000000 1.000000 0.000000
-0.418801 1.000000 -0.173676 44 247 39 0.000000 1.000000 0.000000
-0.483397 0.831675 -0.012219 44 247 39 0.000000 -1.000000 0.000000
-0.537711 0.907845 -0.046940 44 247 39 -0.997642 0.000000 -0.068632
-0.439543 1.000000 0.004081 44 247 39 0.000000 1.000000 0.000000
-0.527382 0.919711 -0.132569 44 247 39 -0.978853 0.000000 -0.204565
-0.531905 0.994123 0.110927 44 247 39 -0.978853 0.000000 0.204565
-0.246374 0.831675 -0.155637 44 247 39 0.000000 -1.000000 0.000000
-0.361746 1.000000 0.150267 44 247 39 0.000000 1.000000 0.000000
-0.281572 0.831675 0.111274 44 247 39 0.000000 -1.000000 0.000000
-0.507501 0.831675 0.126809 44 247 39 0.000000 -1.000000 0.000000
-0.386827 0.831675 0.057828 44 247 39 0.000000 -1.000000 0.000000
-0.540071 0.853531 0.012636 44 247 39 -0.997642 0.000000 0.068632
-0.334193 1.000000 0.149936 44 247 39 0.000000 1.000000 0.000000
-0.302572 0.831675 0.085686 44 247 39 0.000000 -1.000000 0.000000
-0.419860 1.000000 -0.056158 44 247 39 0.000000 1.000000 0.000000
-0.532381 0.831675 0.056844 44 247 39 0.000000 -1.000000 0.000000
-0.383566 0.831675 0.039670 44 247 39 0.000000 -1.000000 0.000000
-0.240511 0.967401 -0.170846 44 247 39 0.941634 0.000000 0.336638
-0.244948 0.964120 0.158435 44 247 39 0.941634 0.000000 -0.336638
-0.449867 0.831675 0.088683 44 247 39 0.000000 -1.000000 0.000000
-0.538715 0.957730 0.032346 44 247 39 -0.997642 0.000000 0.068632
-0.427836 1.000000 -0.115192 44 247 39 0.000000 1.000000 0.000000
-0.303295 1.000000 -0.137398 44 247 39 0.000000 1.000000 0.000000
-0.280186 0.831675 -0.114825 44 247 39 0.000000 -1.000000 0.000000
-0.524541 0.831675 0.127140 44 247 39 0.000000 -1.000000 0.000000
-0.488890 1.000000 -0.105829 44 247 39 0.000000 1.000000 0.000000
-0.391488 0.831675 -0.160191 44 247 39 0.000000 -1.000000 0.000000
-0.370722 0.831675 0.114573 44 247 39 0.000000 -1.000000 0.000000
-0.262106 0.910393 -0.098376 44 247 39 0.978855 0.000000 0.204557
-0.238723 0.890193 0.175848 44 247 39 0.941634 0.000000 -0.336638
-0.315516 1.000000 -0.170564 44 247 39 0.000000 1.000000 0.000000
-0.534608 0.926528 -0.092048 44 247 39 -0.997642 0.000000 -0.068632
-0.445910 0.831675 0.057809 44 247 39 0.000000 -1.000000 0.000000
-0.534035 0.938240 0.100372 44 247 39 -0.997642 0.000000 0.068632
-0.264515 0.900217 0.086847 44 247 39 0.978855 0.000000 -0.204557
-0.365485 1.000000 -0.153501 44 247 39 0.000000 1.000000 0.000000
-0.246973 0.939827 -0.152772 44 247 39 0.941634 0.000000 0.336638
-0.333822 0.831675 0.025780 44 247 39 0.000000 -1.000000 0.000000
-0.349030 0.831675 0.165005 44 247 39 0.000000 -1.000000 0.000000
-0.256712 0.841615 -0.124189 44 247 39 0.978855 0.000000 0.204557
-0.301373 1.000000 0.169484 44 247 39 0.000000 1.000000 0.000000
-0.311449 1.000000 -0.071611 44 247 39 0.000000 1.000000 0.000000
-0.314972 1.000000 0.170823 44 247 39 0.000000 1.000000 0.000000
-0.329795 0.831675 -0.107593 44 247 39 0.000000 -1.000000 0.000000
-0.530809 0.972547 0.116172 44 247 39 -0.978853 0.000000 0.204565
-0.341804 1.000000 -0.029067 44 247 39 0.000000 1.000000 0.000000
-0.272152 0.831675 -0.034967 44 247 39 0.000000 -1.000000 0.000000
-0.499458 1.000000 0.069824 44 247 39 0.000000 1.000000 0.000000
-0.256305 0.991301 -0.126135 44 247 39 0.978855 0.000000 0.204557
-0.530136 0.831675 0.111482 44 247 39 0.000000 -1.000000 0.000000
-0.316302 0.831675 0.066810 44 247 39 0.000000 -1.000000 0.000000
-0.493153 1.000000 -0.094211 44 247 39 0.000000 1.000000 0.000000
-0.243168 0.872000 0.163414 44 247 39 0.941634 0.000000 -0.336638
-0.244160 0.861019 0.160641 44 247 39 0.941634 0.000000 -0.336638
-0.396919 0.831675 0.128822 44 247 39 0.000000 -1.000000 0.000000
-0.285785 1.000000 -0.075712 44 247 39 0.000000 1.000000 0.000000
-0.271113 0.902072 0.036846 44 247 39 0.997645 0.000000 -0.068593
-0.408981 0.831675 -0.052509 44 247 39 0.000000 -1.000000 0.000000
-0.395193 1.000000 0.170870 44 247 39 0.000000 1.000000 0.000000
-0.491802 1.000000 -0.075727 44 247 39 0.000000 1.000000 0.000000
-0.416112 0.831675 -0.151661 44 247 39 0.000000 -1.000000 0.000000
-0.326938 0.831675 -0.075529 44 247 39 0.000000 -1.000000 0.000000
-0.268493 0.934071 -0.067811 44 247 39 0.978855 0.000000 0.204557
-0.313746 1.000000 0.164055 44 247 39 0.000000 1.000000 0.000000
-0.340324 0.831675 -0.115077 44 247 39 0.000000 -1.000000 0.000000
-0.327276 1.000000 0.163599 44 247 39 0.000000 1.000000 0.000000
-0.271213 0.874492 0.035393 44 247 39 0.997645 0.000000 -0.068593
-0.534147 0.892078 -0.098740 44 247 39 -0.997642 0.000000 -0.068632
-0.490719 1.000000 0.042175 44 247 39 0.000000 1.000000 0.000000
-0.392027 1.000000 -0.073489 44 247 39 0.000000 1.000000 0.000000
-0.384088 0.831675 0.006001 44 247 39 0.000000 -1.000000 0.000000
-0.506513 1.000000 0.162864 44 247 39 0.000000 1.000000 0.000000
-0.272205 0.859642 0.020954 44 247 39 0.997645 0.000000 -0.068593
-0.531024 0.978764 -0.115139 44 247 39 -0.978853 0.000000 -0.204565
-0.345359 1.000000 0.146338 44 247 39 0.000000 1.000000 0.000000
-0.525372 0.990329 -0.142184 44 247 39 -0.978853 0.000000 -0.204565
-0.518328 0.982796 -0.175890 44 247 39 -0.978853 0.000000 -0.204565
-0.490443 1.000000 0.123199 44 247 39 0.000000 1.000000 0.000000
-0.399702 1.000000 -0.166388 44 247 39 0.000000 1.000000 0.000000
-0.475490 1.000000 -0.143006 44 247 39 0.000000 1.000000 0.000000
-0.265246 0.850057 0.083349 44 247 39 0.978855 0.000000 -0.204557
-0.257149 0.900488 0.122098 44 247 39 0.978855 0.000000 -0.204557
-0.266778 0.835649 0.076021 44 247 39 0.978855 0.000000 -0.204557
-0.535886 0.846422 -0.073473 44 247 39 -0.997642 0.000000 -0.068632
-0.526150 0.890180 0.138464 44 247 39 -0.978853 0.000000 0.204565
-0.443463 0.831675 0.162673 44 247 39 0.000000 -1.000000 0.000000
-0.315916 0.831675 -0.106716 44 247 39 0.000000 -1.000000 0.000000
-0.436602 1.000000 0.067167 44 247 39 0.000000 1.000000 0.000000
-0.411934 0.831675 0.031199 44 247 39 0.000000 -1.000000 0.000000
-0.312877 1.000000 -0.033231 44 247 39 0.000000 1.000000 0.000000
-0.253849 0.963617 -0.133538 44 247 39 0.941634 0.000000 0.336638
-0.263168 0.960193 -0.093294 44 247 39 0.978855 0.000000 0.204557
-0.536316 0.831830 0.067221 44 247 39 -0.997642 0.000000 0.068632
-0.505948 0.831675 -0.148400 44 247 39 0.000000 -1.000000 0.000000
-0.306359 1.000000 -0.125635 44 247 39 0.000000 1.000000 0.000000
-0.533132 0.832992 0.105052 44 247 39 -0.978853 0.000000 0.204565
-0.467650 1.000000 -0.115325 44 247 39 0.000000 1.000000 0.000000
-0.287637 0.831675 -0.065907 44 247 39 0.000000 -1.000000 0.000000
-0.399394 1.000000 0.159707 44 247 39 0.000000 1.000000 0.000000
-0.521676 1.000000 -0.073280 44 247 39 0.000000 1.000000 0.000000
-0.528583 0.983005 -0.126823 44 247 39 -0.978853 0.000000 -0.204565
-0.538947 0.869785 0.028967 44 247 39 -0.997642 0.000000 0.068632
-0.373628 1.000000 0.069949 44 247 39 0.000000 1.000000 0.000000
-0.520235 0.967504 -0.166768 44 247 39 -0.978853 0.000000 -0.204565
-0.501830 1.000000 -0.001606 44 247 39 0.000000 1.000000 0.000000
-0.436145 0.831675 -0.047363 44 247 39 0.000000 -1.000000 0.000000
-0.298229 0.831675 0.022888 44 247 39 0.000000 -1.000000 0.000000
-0.447352 1.000000 -0.051139 44 247 39 0.000000 1.000000 0.000000
-0.466348 0.831675 0.020739 44 247 39 0.000000 -1.000000 0.000000
-0.262880 0.831675 0.178074 44 247 39 0.000000 -1.000000 0.000000
-0.243858 0.979293 0.161483 44 247 39 0.941634 0.000000 -0.336638
-0.263550 0.841927 -0.091467 44 247 39 0.978855 0.000000 0.204557
-0.519265 0.866975 -0.171406 44 247 39 -0.978853 0.000000 -0.204565
-0.484674 1.000000 0.028172 44 247 39 0.000000 1.000000 0.000000
-0.290666 1.000000 -0.138722 44 247 39 0.000000 1.000000 0.000000
-0.417675 1.000000 0.015300 44 247 39 0.000000 1.000000 0.000000
-0.299588 1.000000 -0.004515 44 247 39 0.000000 1.000000 0.000000
-0.527799 0.979390 -0.130572 44 247 39 -0.978853 0.000000 -0.204565
-0.375291 0.831675 0.115771 44 247 39 0.000000 -1.000000 0.000000
-0.434412 1.000000 0.008251 44 247 39 0.000000 1.000000 0.000000
-0.474074 1.000000 0.020595 44 247 39 0.000000 1.000000 0.000000
-0.517387 0.922550 -0.180395 44 247 39 -0.978853 0.000000 -0.204565
-0.293805 1.000000 0.152935 44 247 39 0.000000 1.000000 0.000000
-0.307119 1.000000 -0.146022 44 247 39 0.000000 1.000000 0.000000
-0.535209 0.859069 0.083307 44 247 39 -0.997642 0.000000 0.068632
-0.506664 0.831675 -0.046627 44 247 39 0.000000 -1.000000 0.000000
-0.299403 1.000000 0.147809 44 247 39 0.000000 1.000000 0.000000
-0.245197 0.848581 -0.157739 44 247 39 0.941634 0.000000 0.336638
-0.539130 0.870791 -0.026317 44 247 39 -0.997642 0.000000 -0.068632
-0.536330 0.951216 0.067005 44 247 39 -0.997642 0.000000 0.068632
-0.425790 1.000000 0.021855 44 247 39 0.000000 1.000000 0.000000
-0.525404 0.860130 0.142034 44 247 39 -0.978853 0.000000 0.204565
-0.537853 0.916054 -0.044869 44 247 39 -0.997642 0.000000 -0.068632
-0.444365 1.000000 0.017194 44 247 39 0.000000 1.000000 0.000000
-0.519706 0.925252 -0.169295 44 247 39 -0.978853 0.000000 -0.204565
-0.461622 0.831675 0.042905 44 247 39 0.000000 -1.000000 0.000000
-0.522866 0.831675 0.064371 44 247 39 0.000000 -1.000000 0.000000
-0.309868 1.000000 0.026977 44 247 39 0.000000 1.000000 0.000000
-0.264164 0.876519 -0.088528 44 247 39 0.978855 0.000000 0.204557
-0.410319 0.831675 0.168377 44 247 39 0.000000 -1.000000 0.000000
-0.489929 1.000000 -0.067250 44 247 39 0.000000 1.000000 0.000000
-0.306430 0.831675 0.003624 44 247 39 0.000000 -1.000000 0.000000
-0.389550 0.831675 0.094335 44 247 39 0.000000 -1.000000 0.000000
-0.540126 0.890331 -0.011832 44 247 39 -0.997642 0.000000 -0.068632
-0.265382 0.836108 -0.082700 44 247 39 0.978855 0.000000 0.204557
-0.440918 0.831675 -0.173791 44 247 39 0.000000 -1.000000 0.000000
-0.473378 1.000000 -0.028296 44 247 39 0.000000 1.000000 0.000000
-0.524887 1.000000 0.109828 44 247 39 0.000000 1.000000 0.000000
-0.400117 0.831675 -0.055862 44 247 39 0.000000 -1.000000 0.000000
-0.238348 0.866860 -0.176898 44 247 39 0.941634 0.000000 0.336638
-0.539553 0.931573 0.020164 44 247 39 -0.997642 0.000000 0.068632
-0.539851 0.894125 0.015829 44 247 39 -0.997642 0.000000 0.068632
-0.409081 1.000000 -0.104197 44 247 39 0.000000 1.000000 0.000000
-0.240252 0.952141 -0.171572 44 247 39 0.941634 0.000000 0.336638
-0.524251 0.981137 0.147549 44 247 39 -0.978853 0.000000 0.204565
-0.532730 0.831675 -0.038024 44 247 39 0.000000 -1.000000 0.000000
-0.417849 1.000000 -0.116061 44 247 39 0.000000 1.000000 0.000000
-0.519719 0.954570 -0.169237 44 247 39 -0.978853 0.000000 -0.204565
-0.538937 0.946133 0.029114 44 247 39 -0.997642 0.000000 0.068632
-0.324557 0.831675 -0.153025 44 247 39 0.000000 -1.000000 0.000000
-0.251725 0.861927 0.139481 44 247 39 0.941634 0.000000 -0.336638
-0.535199 0.831675 -0.016917 44 247 39 0.000000 -1.000000 0.000000
-0.291052 1.000000 0.105702 44 247 39 0.000000 1.000000 0.000000
-0.291870 0.831675 0.048173 44 247 39 0.000000 -1.000000 0.000000
-0.535460 0.857443 0.079659 44 247 39 -0.997642 0.000000 0.068632
-0.481216 0.831675 0.027805 44 247 39 0.000000 -1.000000 0.000000
-0.272030 0.985161 -0.023507 44 247 39 0.997645 0.000000 0.068593
-0.334180 1.000000 0.170118 44 247 39 0.000000 1.000000 0.000000
-0.315489 1.000000 0.093539 44 247 39 0.000000 1.000000 0.000000
-0.256849 0.918926 -0.123531 44 247 39 0.978855 0.000000 0.204557
-0.461546 1.000000 0.169399 44 247 39 0.000000 1.000000 0.000000
-0.430358 1.000000 0.033978 44 247 39 0.000000 1.000000 0.000000
-0.492224 0.831675 -0.128229 44 247 39 0.000000 -1.000000 0.000000
-0.440830 1.000000 0.017754 44 247 39 0.000000 1.000000 0.000000
-0.526764 0.831675 -0.093738 44 247 39 0.000000 -1.000000 0.000000
-0.535874 0.911195 0.073633 44 247 39 -0.997642 0.000000 0.068632
-0.302548 0.831675 0.120175 44 247 39 0.000000 -1.000000 0.000000
-0.361691 0.831675 -0.013381 44 247 39 0.000000 -1.000000 0.000000
-0.250812 0.943500 0.142032 44 247 39 0.941634 0.000000 -0.336638
-0.534531 0.935372 0.093169 44 247 39 -0.997642 0.000000 0.068632
-0.516342 1.000000 -0.172254 44 247 39 0.000000 1.000000 0.000000
-0.238818 0.940870 -0.175582 44 247 39 0.941634 0.000000 0.336638
-0.430417 0.831675 0.130132 44 247 39 0.000000 -1.000000 0.000000
-0.271045 0.870648 -0.037826 44 247 39 0.997645 0.000000 0.068593
-0.352232 1.000000 0.075718 44 247 39 0.000000 1.000000 0.000000
-0.400795 1.000000 0.110074 44 247 39 0.000000 1.000000 0.000000
-0.446196 0.831675 -0.009425 44 247 39 0.000000 -1.000000 0.000000
-0.274008 0.831675 0.025463 44 247 39 0.000000 -1.000000 0.000000
-0.519812 0.848911 -0.168790 44 247 39 -0.978853 0.000000 -0.204565
-0.457434 0.831675 -0.045623 44 247 39 0.000000 -1.000000 0.000000
-0.530003 0.880729 -0.120028 44 247 39 -0.978853 0.000000 -0.204565
-0.514373 0.831675 0.017919 44 247 39 0.000000 -1.000000 0.000000
-0.270537 0.897163 0.045222 44 247 39 0.997645 0.000000 -0.068593
-0.263373 0.897795 0.092311 44 247 39 0.978855 0.000000 -0.204557
-0.454183 1.000000 0.112952 44 247 39 0.000000 1.000000 0.000000
-0.540220 0.919021 -0.010468 44 247 39 -0.997642 0.000000 -0.068632
-0.381029 0.831675 0.102296 44 247 39 0.000000 -1.000000 0.000000
-0.442112 1.000000 0.004383 44 247 39 0.000000 1.000000 0.000000
-0.351283 0.831675 0.096160 44 247 39 0.000000 -1.000000 0.000000
-0.504097 0.831675 0.149450 44 247 39 0.000000 -1.000000 0.000000
-0.283602 0.831675 0.102862 44 247 39 0.000000 -1.000000 0.000000
-0.504744 0.831675 0.019849 44 247 39 0.000000 -1.000000 0.000000
-0.482922 0.831675 0.101447 44 247 39 0.000000 -1.000000 0.000000
-0.388795 0.831675 0.083019 44 247 39 0.000000 -1.000000 0.000000
-0.267223 0.975405 -0.073891 44 247 39 0.978855 0.000000 0.204557
-0.386727 0.831675 -0.046088 44 247 39 0.000000 -1.000000 0.000000
-0.462529 1.000000 0.062418 44 247 39 0.000000 1.000000 0.000000
-0.255904 0.861307 -0.127791 44 247 39 0.941634 0.000000 0.336638
-0.374260 1.000000 0.105204 44 247 39 0.000000 1.000000 0.000000
-0.313323 0.831675 0.122774 44 247 39 0.000000 -1.000000 0.000000
-0.455041 1.000000 0.146211 44 247 39 0.000000 1.000000 0.000000
-0.487844 1.000000 -0.158972 44 247 39 0.000000 1.000000 0.000000
-0.531488 0.872921 0.112919 44 247 39 -0.978853 0.000000 0.204565
-0.405908 1.000000 0.169392 44 247 39 0.000000 1.000000 0.000000
-0.246850 0.937187 -0.153115 44 247 39 0.941634 0.000000 0.336638
-0.399570 0.831675 0.136640 44 247 39 0.000000 -1.000000 0.000000
-0.238719 0.831675 0.178536 44 247 39 0.000000 -1.000000 0.000000
-0.440324 0.831675 -0.053406 44 247 39 0.000000 -1.000000 0.000000
-0.540220 0.913149 0.010470 44 247 39 -0.997642 0.000000 0.068632
-0.478978 1.000000 -0.149144 44 247 39 0.000000 1.000000 0.000000
-0.529726 1.000000 -0.110039 44 247 39 0.000000 1.000000 0.000000
-0.250050 0.841987 -0.144163 44 247 39 0.941634 0.000000 0.336638
-0.330619 1.000000 0.171728 44 247 39 0.000000 1.000000 0.000000
-0.270234 0.926330 -0.049619 44 247 39 0.997645 0.000000 0.068593
-0.402252 1.000000 0.087181 44 247 39 0.000000 1.000000 0.000000
-0.259858 0.906976 -0.109132 44 247 39 0.978855 0.000000 0.204557
-0.520814 0.953185 -0.163996 44 247 39 -0.978853 0.000000 -0.204565
-0.450276 1.000000 -0.146889 44 247 39 0.000000 1.000000 0.000000
-0.490420 0.831675 -0.126744 44 247 39 0.000000 -1.000000 0.000000
-0.284802 1.000000 0.086009 44 247 39 0.000000 1.000000 0.000000
-0.438053 1.000000 -0.140131 44 247 39 0.000000 1.000000 0.000000
-0.518448 1.000000 -0.122258 44 247 39 0.000000 1.000000 0.000000
-0.366493 1.000000 0.020900 44 247 39 0.000000 1.000000 0.000000
-0.302279 0.831675 -0.062197 44 247 39 0.000000 -1.000000 0.000000
-0.272104 0.904894 -0.022425 44 247 39 0.997645 0.000000 0.068593
-0.257720 0.964811 0.119367 44 247 39 0.978855 0.000000 -0.204557
-0.535494 0.918899 -0.079159 44 247 39 -0.997642 0.000000 -0.068632
-0.335288 1.000000 -0.074078 44 247 39 0.000000 1.000000 0.000000
-0.304610 0.831675 0.151137 44 247 39 0.000000 -1.000000 0.000000
-0.317369 0.831675 0.067865 44 247 39 0.000000 -1.000000 0.000000
-0.538939 0.925490 0.029080 44 247 39 -0.997642 0.000000 0.068632
-0.537395 1.000000 -0.011355 44 247 39 0.000000 1.000000 0.000000
-0.252493 1.000000 0.139230 44 247 39 0.000000 1.000000 0.000000
-0.366670 1.000000 0.115622 44 247 39 0.000000 1.000000 0.000000
-0.257969 0.940297 -0.118172 44 247 39 0.978855 0.000000 0.204557
-0.315301 1.000000 -0.101235 44 247 39 0.000000 1.000000 0.000000
-0.426017 0.831675 -0.123733 44 247 39 0.000000 -1.000000 0.000000
-0.516229 0.831675 -0.067250 44 247 39 0.000000 -1.000000 0.000000
-0.536106 0.831675 0.014463 44 247 39 0.000000 -1.000000 0.000000
-0.416446 1.000000 0.143427 44 247 39 0.000000 1.000000 0.000000
-0.536458 0.889455 0.065147 44 247 39 -0.997642 0.000000 0.068632
-0.260420 0.831675 -0.117387 44 247 39 0.000000 -1.000000 0.000000
-0.391730 1.000000 0.017302 44 247 39 0.000000 1.000000 0.000000
-0.245398 0.959675 -0.157176 44 247 39 0.941634 0.000000 0.336638
-0.248420 1.000000 -0.169675 44 247 39 0.000000 1.000000 0.000000
-0.399931 0.831675 0.106786 44 247 39 0.000000 -1.000000 0.000000
-0.530643 0.845663 -0.116966 44 247 39 -0.978853 0.000000 -0.204565
-0.260152 0.892877 0.107728 44 247 39 0.978855 0.000000 -0.204557
-0.514433 1.000000 -0.082168 44 247 39 0.000000 1.000000 0.000000
-0.400277 1.000000 0.009175 44 247 39 0.000000 1.000000 0.000000
-0.392183 1.000000 0.062788 44 247 39 0.000000 1.000000 0.000000
-0.344434 1.000000 0.024059 44 247 39 0.000000 1.000000 0.000000
-0.532360 1.000000 0.018970 44 247 39 0.000000 1.000000 0.000000
-0.293042 1.000000 -0.142911 44 247 39 0.000000 1.000000 0.000000
-0.259308 0.987841 -0.111767 44 247 39 0.978855 0.000000 0.204557
-0.440163 1.000000 0.147144 44 247 39 0.000000 1.000000 0.000000
-0.272455 0.874361 0.017317 44 247 39 0.997645 0.000000 -0.068593
-0.384760 0.831675 0.103850 44 247 39 0.000000 -1.000000 0.000000
-0.258620 0.919845 0.115060 44 247 39 0.978855 0.000000 -0.204557
-0.356036 1.000000 0.068444 44 247 39 0.000000 1.000000 0.000000
-0.452343 1.000000 -0.140943 44 247 39 0.000000 1.000000 0.000000
-0.417786 1.000000 0.005607 44 247 39 0.000000 1.000000 0.000000
-0.269115 0.918498 -0.064835 44 247 39 0.978855 0.000000 0.204557
-0.535440 0.924413 0.079946 44 247 39 -0.997642 0.000000 0.068632
-0.486012 0.831675 0.156056 44 247 39 0.000000 -1.000000 0.000000
-0.368822 1.000000 -0.077390 44 247 39 0.000000 1.000000 0.000000
-0.390158 1.000000 0.106217 44 247 39 0.000000 1.000000 0.000000
-0.532815 0.893753 0.106570 44 247 39 -0.978853 0.000000 0.204565
-0.534869 0.894640 -0.088248 44 247 39 -0.997642 0.000000 -0.068632
-0.476709 1.000000 0.056285 44 247 39 0.000000 1.000000 0.000000
-0.270821 0.853136 0.041081 44 247 39 0.997645 0.000000 -0.068593
-0.351758 1.000000 -0.079706 44 247 39 0.000000 1.000000 0.000000
-0.504174 1.000000 -0.129225 44 247 39 0.000000 1.000000 0.000000
-0.320102 0.831675 0.013671 44 247 39 0.000000 -1.000000 0.000000
-0.241220 0.919595 -0.168863 44 247 39 0.941634 0.000000 0.336638
-0.396224 1.000000 -0.108538 44 247 39 0.000000 1.000000 0.000000
-0.532670 0.945826 0.107267 44 247 39 -0.978853 0.000000 0.204565
-0.419905 1.000000 -0.157873 44 247 39 0.000000 1.000000 0.000000
-0.269018 0.869503 0.065301 44 247 39 0.978855 0.000000 -0.204557
-0.410431 1.000000 -0.163984 44 247 39 0.000000 1.000000 0.000000
-0.245165 0.831675 0.165818 44 247 39 0.000000 -1.000000 0.000000
-0.271776 0.881262 -0.027200 44 247 39 0.997645 0.000000 0.068593
-0.479643 0.831675 -0.170155 44 247 39 0.000000 -1.000000 0.000000
-0.537101 0.970169 -0.055798 44 247 39 -0.997642 0.000000 -0.068632
-0.357226 1.000000 0.015969 44 247 39 0.000000 1.000000 0.000000
-0.513271 0.831675 0.149526 44 247 39 0.000000 -1.000000 0.000000
-0.534647 0.831675 0.060121 44 247 39 0.000000 -1.000000 0.000000
-0.288558 0.831675 -0.163562 44 247 39 0.000000 -1.000000 0.000000
-0.418300 0.831675 -0.110098 44 247 39 0.000000 -1.000000 0.000000
-0.531542 0.920248 -0.112662 44 247 39 -0.978853 0.000000 -0.204565
-0.279644 0.831675 -0.050179 44 247 39 0.000000 -1.000000 0.000000
-0.388139 1.000000 -0.138667 44 247 39 0.000000 1.000000 0.000000
-0.531244 0.844732 -0.114088 44 247 39 -0.978853 0.000000 -0.204565
-0.331154 0.831675 0.095218 44 247 39 0.000000 -1.000000 0.000000
-0.251324 0.860427 -0.140600 44 247 39 0.941634 0.000000 0.336638
-0.273347 0.954339 -0.004344 44 247 39 0.997645 0.000000 0.068593
-0.323001 0.831675 -0.009223 44 247 39 0.000000 -1.000000 0.000000
-0.522955 1.000000 -0.025475 44 247 39 0.000000 1.000000 0.000000
-0.338732 0.831675 0.167716 44 247 39 0.000000 -1.000000 0.000000
-0.370287 1.000000 -0.124692 44 247 39 0.000000 1.000000 0.000000
-0.272926 0.926273 -0.010466 44 247 39 0.997645 0.000000 0.068593
-0.260487 0.993891 0.106125 44 247 39 0.978855 0.000000 -0.204557
-0.479033 0.831675 -0.179079 44 247 39 0.000000 -1.000000 0.000000
-0.264172 0.859623 0.088492 44 247 39 0.978855 0.000000 -0.204557
-0.472678 0.831675 0.084351 44 247 39 0.000000 -1.000000 0.000000
-0.410498 0.831675 -0.128425 44 247 39 0.000000 -1.000000 0.000000
-0.339974 1.000000 0.042884 44 247 39 0.000000 1.000000 0.000000
-0.535520 0.932528 0.078788 44 247 39 -0.997642 0.000000 0.068632
-0.362417 0.831675 0.144186 44 247 39 0.000000 -1.000000 0.000000
-0.535235 0.902581 -0.082932 44 247 39 -0.997642 0.000000 -0.068632
-0.262705 0.922153 0.095509 44 247 39 0.978855 0.000000 -0.204557
-0.506346 0.831675 -0.053230 44 247 39 0.000000 -1.000000 0.000000
-0.475073 1.000000 0.067379 44 247 39 0.000000 1.000000 0.000000
-0.404542 1.000000 0.104153 44 247 39 0.000000 1.000000 0.000000
-0.461714 0.831675 -0.046690 44 247 39 0.000000 -1.000000 0.000000
-0.435865 0.831675 0.047287 44 247 39 0.000000 -1.000000 0.000000
-0.339654 1.000000 0.007082 44 247 39 0.000000 1.000000 0.000000
-0.299063 1.000000 -0.048097 44 247 39 0.000000 1.000000 0.000000
-0.514557 1.000000 -0.149671 44 247 39 0.000000 1.000000 0.000000
-0.431649 1.000000 -0.180462 44 247 39 0.000000 1.000000 0.000000
-0.269748 0.876002 -0.056700 44 247 39 0.997645 0.000000 0.068593
-0.439002 0.831675 0.033207 44 247 39 0.000000 -1.000000 0.000000
-0.535241 0.972557 0.082840 44 247 39 -0.997642 0.000000 0.068632
-0.429742 0.831675 -0.090550 44 247 39 0.000000 -1.000000 0.000000
-0.430228 0.831675 -0.131560 44 247 39 0.000000 -1.000000 0.000000
-0.280266 0.831675 0.147561 44 247 39 0.000000 -1.000000 0.000000
-0.251799 0.885021 0.139272 44 247 39 0.941634 0.000000 -0.336638
-0.458681 0.831675 0.078006 44 247 39 0.000000 -1.000000 0.000000
-0.270166 0.943588 -0.050611 44 247 39 0.997645 0.000000 0.068593
-0.526744 1.000000 -0.057840 44 247 39 0.000000 1.000000 0.000000
-0.370605 0.831675 0.037681 44 247 39 0.000000 -1.000000 0.000000
-0.475500 0.831675 -0.102088 44 247 39 0.000000 -1.000000 0.000000
-0.395924 0.831675 -0.139674 44 247 39 0.000000 -1.000000 0.000000
-0.490618 1.000000 -0.168613 44 247 39 0.000000 1.000000 0.000000
-0.538860 0.925670 0.030235 44 247 39 -0.997642 0.000000 0.068632
-0.537816 0.899912 -0.045414 44 247 39 -0.997642 0.000000 -0.068632
-0.351910 0.831675 0.147198 44 247 39 0.000000 -1.000000 0.000000
-0.511582 1.000000 0.033856 44 247 39 0.000000 1.000000 0.000000
-0.535088 1.000000 0.028020 44 247 39 0.000000 1.000000 0.000000
-0.409470 0.831675 0.002417 44 247 39 0.000000 -1.000000 0.000000
-0.259311 0.937033 0.111752 44 247 39 0.978855 0.000000 -0.204557
-0.359690 1.000000 -0.174218 44 247 39 0.000000 1.000000 0.000000
-0.253046 0.982074 0.135785 44 247 39 0.941634 0.000000 -0.336638
-0.401353 1.000000 0.140717 44 247 39 0.000000 1.000000 0.000000
-0.438403 0.831675 0.078922 44 247 39 0.000000 -1.000000 0.000000
-0.538318 0.883244 0.038113 44 247 39 -0.997642 0.000000 0.068632
-0.485346 0.831675 0.170251 44 247 39 0.000000 -1.000000 0.000000
-0.271139 0.847178 -0.036459 44 247 39 0.997645 0.000000 0.068593
-0.527310 0.997726 0.132910 44 247 39 -0.978853 0.000000 0.204565
-0.377983 1.000000 -0.017194 44 247 39 0.000000 1.000000 0.000000
-0.382960 0.831675 -0.082845 44 247 39 0.000000 -1.000000 0.000000
-0.296277 1.000000 -0.013930 44 247 39 0.000000 1.000000 0.000000
-0.256605 0.889229 0.124700 44 247 39 0.978855 0.000000 -0.204557
-0.237594 0.955427 -0.179005 44 247 39 0.941634 0.000000 0.336638
-0.493976 1.000000 -0.172981 44 247 39 0.000000 1.000000 0.000000
-0.311581 0.831675 -0.127446 44 247 39 0.000000 -1.000000 0.000000
-0.499768 0.831675 -0.033606 44 247 39 0.000000 -1.000000 0.000000
-0.410909 1.000000 0.027038 44 247 39 0.000000 1.000000 0.000000
-0.276084 1.000000 0.017511 44 247 39 0.000000 1.000000 0.000000
-0.484504 1.000000 -0.043228 44 247 39 0.000000 1.000000 0.000000
-0.436563 0.831675 0.174481 44 247 39 0.000000 -1.000000 0.000000
-0.292983 1.000000 0.043921 44 247 39 0.000000 1.000000 0.000000
-0.296012 0.831675 0.148006 44 247 39 0.000000 -1.000000 0.000000
-0.502140 1.000000 0.013260 44 247 39 0.000000 1.000000 0.000000
-0.272158 0.850144 0.021646 44 247 39 0.997645 0.000000 -0.068593
-0.443467 0.831675 -0.024285 44 247 39 0.000000 -1.000000 0.000000
-0.359960 0.831675 -0.103246 44 247 39 0.000000 -1.000000 0.000000
-0.463727 0.831675 0.016027 44 247 39 0.000000 -1.000000 0.000000
-0.490917 0.831675 -0.087488 44 247 39 0.000000 -1.000000 0.000000
-0.494272 0.831675 0.100110 44 247 39 0.000000 -1.000000 0.000000
-0.537043 0.992156 0.056652 44 247 39 -0.997642 0.000000 0.068632
-0.535289 0.939646 -0.082145 44 247 39 -0.997642 0.000000 -0.068632
-0.442336 1.000000 -0.115972 44 247 39 0.000000 1.000000 0.000000
-0.528642 0.975940 -0.126539 44 247 39 -0.978853 0.000000 -0.204565
-0.396843 0.831675 0.116508 44 247 39 0.000000 -1.000000 0.000000
-0.452900 0.831675 0.171861 44 247 39 0.000000 -1.000000 0.000000
-0.497499 1.000000 0.111036 44 247 39 0.000000 1.000000 0.000000
-0.534074 0.852040 0.099810 44 247 39 -0.997642 0.000000 0.068632
-0.426481 1.000000 -0.152335 44 247 39 0.000000 1.000000 0.000000
-0.265580 0.986418 0.081752 44 247 39 0.978855 0.000000 -0.204557
-0.360532 0.831675 -0.127164 44 247 39 0.000000 -1.000000 0.000000
-0.268061 0.873079 0.069882 44 247 39 0.978855 0.000000 -0.204557
-0.409437 1.000000 0.169771 44 247 39 0.000000 1.000000 0.000000
-0.249295 0.947589 0.146277 44 247 39 0.941634 0.000000 -0.336638
-0.311608 1.000000 0.050878 44 247 39 0.000000 1.000000 0.000000
-0.240890 0.852137 -0.169788 44 247 39 0.941634 0.000000 0.336638
-0.385568 0.831675 0.109760 44 247 39 0.000000 -1.000000 0.000000
-0.342606 1.000000 0.035164 44 247 39 0.000000 1.000000 0.000000
-0.238014 0.856297 -0.177831 44 247 39 0.941634 0.000000 0.336638
-0.272172 0.841019 0.021439 44 247 39 0.997645 0.000000 -0.068593
-0.368420 0.831675 0.052187 44 247 39 0.000000 -1.000000 0.000000
-0.354514 1.000000 0.139456 44 247 39 0.000000 1.000000 0.000000
-0.343235 1.000000 0.100414 44 247 39 0.000000 1.000000 0.000000
-0.259656 0.880145 -0.110098 44 247 39 0.978855 0.000000 0.204557
-0.269373 0.966843 0.062148 44 247 39 0.997645 0.000000 -0.068593
-0.427076 1.000000 -0.172255 44 247 39 0.000000 1.000000 0.000000
-0.386754 1.000000 0.051593 44 247 39 0.000000 1.000000 0.000000
-0.383814 1.000000 -0.084194 44 247 39 0.000000 1.000000 0.000000
-0.536556 0.983796 -0.063734 44 247 39 -0.997642 0.000000 -0.068632
-0.498354 0.831675 0.118402 44 247 39 0.000000 -1.000000 0.000000
-0.393302 1.000000 0.097284 44 247 39 0.000000 1.000000 0.000000
-0.415674 1.000000 -0.072957 44 247 39 0.000000 1.000000 0.000000
-0.309436 0.831675 0.109743 44 247 39 0.000000 -1.000000 0.000000
-0.505377 0.831675 -0.025572 44 247 39 0.000000 -1.000000 0.000000
-0.391094 0.831675 0.139128 44 247 39 0.000000 -1.000000 0.000000
-0.450010 1.000000 -0.167008 44 247 39 0.000000 1.000000 0.000000
-0.260070 0.831675 0.135330 44 247 39 0.000000 -1.000000 0.000000
-0.536438 0.836652 0.065444 44 247 39 -0.997642 0.000000 0.068632
-0.517683 1.000000 -0.060241 44 247 39 0.000000 1.000000 0.000000
-0.536364 0.914403 -0.066517 44 247 39 -0.997642 0.000000 -0.068632
-0.510988 0.831675 -0.030685 44 247 39 0.000000 -1.000000 0.000000
-0.311690 1.000000 -0.090662 44 247 39 0.000000 1.000000 0.000000
-0.264127 0.923795 0.088706 44 247 39 0.978855 0.000000 -0.204557
-0.319515 0.831675 0.150791 44 247 39 0.000000 -1.000000 0.000000
-0.299055 1.000000 -0.169976 44 247 39 0.000000 1.000000 0.000000
-0.342739 0.831675 -0.073523 44 247 39 0.000000 -1.000000 0.000000
-0.250244 0.941387 0.143623 44 247 39 0.941634 0.000000 -0.336638
-0.470671 0.831675 -0.158747 44 247 39 0.000000 -1.000000 0.000000
-0.337410 0.831675 -0.004401 44 247 39 0.000000 -1.000000 0.000000
-0.519564 0.917381 0.169977 44 247 39 -0.978853 0.000000 0.204565
-0.445534 0.831675 -0.171803 44 247 39 0.000000 -1.000000 0.000000
-0.412406 1.000000 -0.057747 44 247 39 0.000000 1.000000 0.000000
-0.529952 0.946331 0.120270 44 247 39 -0.978853 0.000000 0.204565
-0.477430 0.831675 0.142433 44 247 39 0.000000 -1.000000 0.000000
-0.270488 0.864399 0.045928 44 247 39 0.997645 0.000000 -0.068593
-0.405460 1.000000 -0.002810 44 247 39 0.000000 1.000000 0.000000
-0.534725 0.909106 0.090340 44 247 39 -0.997642 0.000000 0.068632
-0.475763 0.831675 -0.102851 44 247 39 0.000000 -1.000000 0.000000
-0.520021 0.997928 0.167788 44 247 39 -0.978853 0.000000 0.204565
-0.273532 1.000000 -0.167887 44 247 39 0.000000 1.000000 0.000000
-0.493048 1.000000 0.096760 44 247 39 0.000000 1.000000 0.000000
-0.332139 0.831675 0.012554 44 247 39 0.000000 -1.000000 0.000000
-0.521805 0.903741 0.159252 44 247 39 -0.978853 0.000000 0.204565
-0.257813 0.831675 0.169249 44 247 39 0.000000 -1.000000 0.000000
-0.458649 1.000000 -0.167371 44 247 39 0.000000 1.000000 0.000000
-0.273751 0.831675 0.019206 44 247 39 0.000000 -1.000000 0.000000
-0.472519 0.831675 -0.154400 44 247 39 0.000000 -1.000000 0.000000
-0.367440 1.000000 0.100333 44 247 39 0.000000 1.000000 0.000000
-0.378071 0.831675 -0.072228 44 247 39 0.000000 -1.000000 0.000000
-0.540594 0.985854 0.005023 44 247 39 -0.997642 0.000000 0.068632
-0.457667 0.831675 0.119575 44 247 39 0.000000 -1.000000 0.000000
-0.325119 0.831675 -0.158217 44 247 39 0.000000 -1.000000 0.000000
-0.329603 1.000000 0.164989 44 247 39 0.000000 1.000000 0.000000
-0.491357 1.000000 -0.008069 44 247 39 0.000000 1.000000 0.000000
-0.449676 1.000000 -0.105976 44 247 39 0.000000 1.000000 0.000000
-0.389510 0.831675 -0.153853 44 247 39 0.000000 -1.000000 0.000000
-0.534241 0.959822 0.097371 44 247 39 -0.997642 0.000000 0.068632
-0.435639 0.831675 -0.157049 44 247 39 0.000000 -1.000000 0.000000
-0.532311 0.911424 -0.108984 44 247 39 -0.978853 0.000000 -0.204565
-0.355948 1.000000 0.106794 44 247 39 0.000000 1.000000 0.000000
-0.538312 0.966616 0.038205 44 247 39 -0.997642 0.000000 0.068632
-0.518803 1.000000 0.011379 44 247 39 0.000000 1.000000 0.000000
-0.329882 1.000000 -0.138852 44 247 39 0.000000 1.000000 0.000000
-0.475765 1.000000 0.077666 44 247 39 0.000000 1.000000 0.000000
-0.537948 0.985343 0.043488 44 247 39 -0.997642 0.000000 0.068632
-0.473384 1.000000 0.085495 44 247 39 0.000000 1.000000 0.000000
-0.290358 0.831675 0.054762 44 247 39 0.000000 -1.000000 0.000000
-0.537089 0.899451 0.055977 44 247 39 -0.997642 0.000000 0.068632
-0.535893 0.849608 0.073371 44 247 39 -0.997642 0.000000 0.068632
-0.383104 1.000000 -0.039297 44 247 39 0.000000 1.000000 0.000000
-0.348199 1.000000 -0.109273 44 247 39 0.000000 1.000000 0.000000
-0.382205 1.000000 -0.064564 44 247 39 0.000000 1.000000 0.000000
-0.266717 0.831675 0.168204 44 247 39 0.000000 -1.000000 0.000000
-0.335303 1.000000 -0.077207 44 247 39 0.000000 1.000000 0.000000
-0.493178 0.831675 0.071047 44 247 39 0.000000 -1.000000 0.000000
-0.450653 1.000000 0.016648 44 247 39 0.000000 1.000000 0.000000
-0.255487 0.831675 0.172988 44 247 39 0.000000 -1.000000 0.000000
-0.257521 0.912461 0.120315 44 247 39 0.978855 0.000000 -0.204557
-0.523256 0.864038 -0.152309 44 247 39 -0.978853 0.000000 -0.204565
-0.335595 1.000000 -0.143324 44 247 39 0.000000 1.000000 0.000000
-0.269625 0.957025 -0.058488 44 247 39 0.997645 0.000000 0.068593
-0.315471 0.831675 0.117378 44 247 39 0.000000 -1.000000 0.000000
-0.527412 0.982220 0.132426 44 247 39 -0.978853 0.000000 0.204565
-0.350730 0.831675 0.085302 44 247 39 0.000000 -1.000000 0.000000
