ply
format ascii 1.0
element vertex 708
property float x
property float y
property float z
property uchar red
property uchar green
property uchar blue
property float nx
property float ny
property float nz
end_header
-0.445422 -0.030600 -0.420965 19 255 57 0.000000 -1.000000 0.000000
-0.402995 -0.067718 -0.422414 19 255 57 0.000000 1.000000 0.000000
-0.230360 -0.085479 -0.414398 19 255 57 0.000000 -1.000000 0.000000
-0.416249 -0.067718 -0.501115 19 255 57 0.000000 1.000000 0.000000
-0.378977 0.028105 -0.115626 19 255 57 0.000000 1.000000 0.000000
-0.057051 0.028105 -0.424240 19 255 57 0.000000 1.000000 0.000000
-0.359022 -0.085479 -0.560463 19 255 57 0.000000 -1.000000 0.000000
-0.222456 -0.125984 -0.143696 19 255 57 0.000000 -1.000000 0.000000
-0.524310 0.028105 -0.589112 19 255 57 0.000000 1.000000 0.000000
-0.322344 -0.125984 -0.459449 19 255 57 0.000000 -1.000000 0.000000
-0.408917 -0.029282 -0.035966 19 255 57 0.000000 1.000000 0.000000
-0.500265 -0.125984 -0.291472 19 255 57 0.000000 -1.000000 0.000000
-0.015278 -0.030600 -0.380623 19 255 57 0.000000 -1.000000 0.000000
0.019661 -0.085479 -0.064671 19 255 57 0.000000 -1.000000 0.000000
-0.225717 -0.029282 -0.483329 19 255 57 0.000000 1.000000 0.000000
-0.091594 -0.064817 -0.580936 19 255 57 0.000000 0.466272 -0.884641
-0.534586 -0.043299 -0.258126 19 255 57 -0.893637 -0.448790 0.000000
-0.253764 -0.085479 -0.086160 19 255 57 0.000000 -1.000000 0.000000
-0.424389 0.028105 -0.476976 19 255 57 0.000000 1.000000 0.000000
-0.475676 -0.030600 -0.462079 19 255 57 0.000000 -1.000000 0.000000
-0.441097 -0.122992 -0.614810 19 255 57 0.000000 0.105248 -0.994446
-0.199879 -0.030600 -0.134327 19 255 57 0.000000 -1.000000 0.000000
-0.109155 -0.029282 -0.265518 19 255 57 0.000000 1.000000 0.000000
-0.536884 -0.038723 -0.247924 19 255 57 -0.893637 -0.448790 0.000000
-0.336164 0.028105 -0.311351 19 255 57 0.000000 1.000000 0.000000
0.009808 -0.030600 -0.483477 19 255 57 0.000000 -1.000000 0.000000
-0.227293 -0.125984 -0.166771 19 255 57 0.000000 -1.000000 0.000000
-0.034877 -0.125984 -0.410491 19 255 57 0.000000 -1.000000 0.000000
-0.312994 -0.085479 -0.572515 19 255 57 0.000000 -1.000000 0.000000
-0.064989 -0.030600 -0.426228 19 255 57 0.000000 -1.000000 0.000000
-0.078016 -0.091731 -0.604976 19 255 57 0.000000 0.808075 -0.589080
-0.337494 0.028105 -0.376042 19 255 57 0.000000 1.000000 0.000000
-0.472204 -0.030600 -0.511975 19 255 57 0.000000 -1.000000 0.000000
-0.200758 0.028105 -0.256677 19 255 57 0.000000 1.000000 0.000000
-0.080775 -0.067718 -0.044019 19 255 57 0.000000 1.000000 0.000000
-0.257413 -0.067718 -0.131570 19 255 57 0.000000 1.000000 0.000000
-0.066821 -0.125984 -0.430568 19 255 57 0.000000 -1.000000 0.000000
-0.454494 -0.085479 -0.293823 19 255 57 0.000000 -1.000000 0.000000
-0.282659 -0.067718 -0.390127 19 255 57 0.000000 1.000000 0.000000
-0.341076 0.028105 -0.265375 19 255 57 0.000000 1.000000 0.000000
-0.397498 0.028105 -0.132508 19 255 57 0.000000 1.000000 0.000000
-0.193194 0.028105 -0.098309 19 255 57 0.000000 1.000000 0.000000
-0.415120 -0.125984 -0.483812 19 255 57 0.000000 -1.000000 0.000000
-0.540774 -0.083788 -0.223564 19 255 57 -0.893239 0.449583 0.000000
-0.544654 -0.030600 -0.235760 19 255 57 0.000000 -1.000000 0.000000
0.013625 -0.067718 -0.507747 19 255 57 0.000000 1.000000 0.000000
-0.464925 -0.068520 -0.582888 19 255 57 0.000000 0.466272 -0.884641
-0.104198 -0.125984 -0.345087 19 255 57 0.000000 -1.000000 0.000000
-0.400503 -0.030600 -0.280802 19 255 57 0.000000 -1.000000 0.000000
-0.104604 -0.030600 -0.055608 19 255 57 0.000000 -1.000000 0.000000
-0.453105 -0.029282 -0.283073 19 255 57 0.000000 1.000000 0.000000
-0.033066 -0.079296 -0.587919 19 255 57 0.000000 0.808075 -0.589080
-0.057401 -0.125984 -0.321421 19 255 57 0.000000 -1.000000 0.000000
-0.521828 -0.030600 -0.599897 19 255 57 0.000000 -1.000000 0.000000
-0.123573 -0.085479 -0.399988 19 255 57 0.000000 -1.000000 0.000000
-0.354405 0.028105 -0.384198 19 255 57 0.000000 1.000000 0.000000
-0.500727 -0.030600 -0.286865 19 255 57 0.000000 -1.000000 0.000000
0.002194 -0.125984 -0.504558 19 255 57 0.000000 -1.000000 0.000000
-0.029309 -0.030600 -0.037182 19 255 57 0.000000 -1.000000 0.000000
-0.437983 -0.030600 -0.513239 19 255 57 0.000000 -1.000000 0.000000
-0.127389 -0.067718 -0.212244 19 255 57 0.000000 1.000000 0.000000
-0.386463 0.028105 -0.280953 19 255 57 0.000000 1.000000 0.000000
-0.175074 -0.030600 -0.591055 19 255 57 0.000000 -1.000000 0.000000
-0.306779 -0.030600 -0.087240 19 255 57 0.000000 -1.000000 0.000000
-0.301760 -0.030600 -0.219740 19 255 57 0.000000 -1.000000 0.000000
-0.506587 -0.029282 -0.138616 19 255 57 0.000000 1.000000 0.000000
-0.514802 -0.048011 -0.581977 19 255 57 0.000000 -0.465466 -0.885066
-0.041435 -0.125984 -0.300976 19 255 57 0.000000 -1.000000 0.000000
-0.483941 -0.029282 -0.019819 19 255 57 0.000000 1.000000 0.000000
-0.057379 0.028105 -0.339668 19 255 57 0.000000 1.000000 0.000000
-0.092231 -0.029282 -0.548979 19 255 57 0.000000 1.000000 0.000000
-0.022244 0.028105 -0.268942 19 255 57 0.000000 1.000000 0.000000
-0.464466 -0.125984 -0.419583 19 255 57 0.000000 -1.000000 0.000000
-0.496740 -0.085479 -0.469497 19 255 57 0.000000 -1.000000 0.000000
-0.134913 -0.072121 -0.578077 19 255 57 0.000000 0.808075 -0.589080
0.006969 -0.029282 -0.524439 19 255 57 0.000000 1.000000 0.000000
-0.104184 -0.067718 -0.037710 19 255 57 0.000000 1.000000 0.000000
-0.369846 -0.067718 -0.314487 19 255 57 0.000000 1.000000 0.000000
-0.537227 -0.029282 -0.421971 19 255 57 0.000000 1.000000 0.000000
-0.370595 -0.125984 -0.429391 19 255 57 0.000000 -1.000000 0.000000
-0.185259 -0.125984 -0.072027 19 255 57 0.000000 -1.000000 0.000000
-0.247140 -0.067718 -0.242813 19 255 57 0.000000 1.000000 0.000000
0.001190 -0.091141 -0.604167 19 255 57 0.000000 0.808075 -0.589080
-0.375646 -0.085479 -0.546519 19 255 57 0.000000 -1.000000 0.000000
-0.252662 -0.067718 -0.440688 19 255 57 0.000000 1.000000 0.000000
-0.260021 -0.030600 -0.146286 19 255 57 0.000000 -1.000000 0.000000
-0.439024 -0.125984 -0.282997 19 255 57 0.000000 -1.000000 0.000000
-0.280881 0.028105 -0.620316 19 255 57 0.000000 1.000000 0.000000
-0.252380 -0.029282 -0.002842 19 255 57 0.000000 1.000000 0.000000
-0.273910 -0.067718 -0.201092 19 255 57 0.000000 1.000000 0.000000
-0.528208 -0.058822 -0.321591 19 255 57 -0.893239 0.449582 0.000000
-0.246575 -0.125984 -0.454191 19 255 57 0.000000 -1.000000 0.000000
-0.371479 -0.085479 -0.138887 19 255 57 0.000000 -1.000000 0.000000
-0.124889 -0.067718 -0.473159 19 255 57 0.000000 1.000000 0.000000
-0.079143 -0.030600 -0.376969 19 255 57 0.000000 -1.000000 0.000000
-0.400192 -0.067718 -0.263934 19 255 57 0.000000 1.000000 0.000000
-0.020107 -0.030600 -0.431634 19 255 57 0.000000 -1.000000 0.000000
-0.098457 -0.067718 -0.201187 19 255 57 0.000000 1.000000 0.000000
-0.249296 -0.085479 -0.370224 19 255 57 0.000000 -1.000000 0.000000
-0.107111 -0.085479 -0.441662 19 255 57 0.000000 -1.000000 0.000000
-0.359708 -0.085479 -0.076601 19 255 57 0.000000 -1.000000 0.000000
-0.101153 -0.069933 -0.575076 19 255 57 0.000000 0.808075 -0.589080
-0.437695 -0.085479 -0.148107 19 255 57 0.000000 -1.000000 0.000000
0.016332 -0.014128 -0.625014 19 255 57 0.000000 -0.500071 -0.865985
-0.164992 -0.067718 -0.308364 19 255 57 0.000000 1.000000 0.000000
-0.032594 -0.029282 -0.416295 19 255 57 0.000000 1.000000 0.000000
-0.522445 -0.030600 -0.557681 19 255 57 0.000000 -1.000000 0.000000
-0.348165 0.028105 -0.573155 19 255 57 0.000000 1.000000 0.000000
-0.395235 -0.067718 -0.344388 19 255 57 0.000000 1.000000 0.000000
-0.333370 -0.085479 -0.541279 19 255 57 0.000000 -1.000000 0.000000
-0.488053 -0.030600 -0.524940 19 255 57 0.000000 -1.000000 0.000000
-0.408907 -0.085479 -0.223056 19 255 57 0.000000 -1.000000 0.000000
-0.241834 -0.125984 -0.280952 19 255 57 0.000000 -1.000000 0.000000
-0.562892 -0.112765 -0.597435 19 255 57 -0.994929 0.100575 0.000000
-0.169251 -0.125984 -0.422123 19 255 57 0.000000 -1.000000 0.000000
-0.485848 -0.125984 -0.604351 19 255 57 0.000000 -1.000000 0.000000
-0.374864 -0.029282 -0.086996 19 255 57 0.000000 1.000000 0.000000
0.006190 -0.067718 -0.180678 19 255 57 0.000000 1.000000 0.000000
-0.281088 -0.029282 -0.169084 19 255 57 0.000000 1.000000 0.000000
-0.262987 0.028105 -0.281650 19 255 57 0.000000 1.000000 0.000000
-0.304542 -0.125984 -0.424561 19 255 57 0.000000 -1.000000 0.000000
-0.529840 -0.062065 -0.329499 19 255 57 -0.893239 0.449582 0.000000
-0.203109 0.028105 -0.038121 19 255 57 0.000000 1.000000 0.000000
-0.361531 -0.067718 -0.489957 19 255 57 0.000000 1.000000 0.000000
-0.029323 0.028105 -0.349172 19 255 57 0.000000 1.000000 0.000000
-0.249425 -0.067718 -0.167210 19 255 57 0.000000 1.000000 0.000000
-0.491723 -0.029282 -0.377408 19 255 57 0.000000 1.000000 0.000000
-0.166782 -0.030600 -0.533431 19 255 57 0.000000 -1.000000 0.000000
-0.047028 -0.125984 -0.368435 19 255 57 0.000000 -1.000000 0.000000
-0.045845 -0.125984 -0.526418 19 255 57 0.000000 -1.000000 0.000000
-0.539654 -0.125984 -0.144280 19 255 57 0.000000 -1.000000 0.000000
-0.580560 0.002169 -0.381815 19 255 57 -0.998755 -0.049880 0.000000
-0.470141 -0.029282 -0.533051 19 255 57 0.000000 1.000000 0.000000
-0.138327 -0.085479 -0.533538 19 255 57 0.000000 -1.000000 0.000000
-0.038976 -0.042203 -0.585031 19 255 57 0.000000 -0.465466 -0.885066
-0.234326 -0.030600 -0.156920 19 255 57 0.000000 -1.000000 0.000000
-0.511914 0.022025 -0.526435 19 255 57 0.000000 -1.000000 0.000000
-0.474510 -0.125984 -0.156622 19 255 57 0.000000 -1.000000 0.000000
-0.451258 -0.067718 -0.409447 19 255 57 0.000000 1.000000 0.000000
-0.363213 0.028105 -0.130959 19 255 57 0.000000 1.000000 0.000000
-0.454397 -0.067718 -0.169148 19 255 57 0.000000 1.000000 0.000000
-0.514442 -0.030600 -0.108408 19 255 57 0.000000 -1.000000 0.000000
-0.060974 -0.125984 -0.513691 19 255 57 0.000000 -1.000000 0.000000
-0.318242 0.028105 -0.560246 19 255 57 0.000000 1.000000 0.000000
-0.169431 -0.029282 -0.249845 19 255 57 0.000000 1.000000 0.000000
-0.222677 -0.067718 -0.038968 19 255 57 0.000000 1.000000 0.000000
-0.185469 -0.067718 -0.168539 19 255 57 0.000000 1.000000 0.000000
-0.070990 -0.125984 -0.293060 19 255 57 0.000000 -1.000000 0.000000
-0.577233 -0.007007 -0.248521 19 255 57 -0.875761 -0.482745 0.000000
-0.057288 -0.030600 -0.044257 19 255 57 0.000000 -1.000000 0.000000
-0.017603 -0.029282 -0.439096 19 255 57 0.000000 1.000000 0.000000
-0.281599 -0.030600 -0.027484 19 255 57 0.000000 -1.000000 0.000000
-0.190650 -0.085479 -0.469435 19 255 57 0.000000 -1.000000 0.000000
-0.270729 -0.085479 -0.224839 19 255 57 0.000000 -1.000000 0.000000
-0.437455 -0.067718 -0.072424 19 255 57 0.000000 1.000000 0.000000
-0.252210 -0.067718 -0.185360 19 255 57 0.000000 1.000000 0.000000
-0.016498 -0.067718 -0.130318 19 255 57 0.000000 1.000000 0.000000
-0.248435 -0.067718 -0.473864 19 255 57 0.000000 1.000000 0.000000
0.013004 -0.030600 -0.203891 19 255 57 0.000000 -1.000000 0.000000
-0.299352 0.028105 -0.047670 19 255 57 0.000000 1.000000 0.000000
-0.414566 -0.044821 -0.583655 19 255 57 0.000000 -0.465466 -0.885066
-0.314378 -0.067718 -0.135977 19 255 57 0.000000 1.000000 0.000000
-0.085114 -0.030600 -0.230071 19 255 57 0.000000 -1.000000 0.000000
-0.552236 -0.125984 -0.534577 19 255 57 0.000000 -1.000000 0.000000
-0.334967 -0.030600 -0.193533 19 255 57 0.000000 -1.000000 0.000000
-0.408333 -0.029282 -0.171276 19 255 57 0.000000 1.000000 0.000000
-0.358046 -0.067718 -0.128851 19 255 57 0.000000 1.000000 0.000000
-0.309700 -0.030600 -0.306989 19 255 57 0.000000 -1.000000 0.000000
-0.424848 -0.029282 -0.417100 19 255 57 0.000000 1.000000 0.000000
-0.190252 -0.029282 -0.553873 19 255 57 0.000000 1.000000 0.000000
-0.206188 -0.029282 -0.413562 19 255 57 0.000000 1.000000 0.000000
-0.504830 -0.085479 -0.109414 19 255 57 0.000000 -1.000000 0.000000
-0.492520 -0.031533 -0.590643 19 255 57 0.000000 -0.465466 -0.885066
-0.207801 -0.030600 -0.612927 19 255 57 0.000000 -1.000000 0.000000
-0.212546 -0.082818 -0.590424 19 255 57 0.000000 0.466272 -0.884641
-0.422563 -0.067718 -0.022460 19 255 57 0.000000 1.000000 0.000000
-0.107397 -0.083598 -0.593821 19 255 57 0.000000 0.808075 -0.589080
-0.236656 -0.067718 -0.188741 19 255 57 0.000000 1.000000 0.000000
-0.515223 -0.030600 -0.173827 19 255 57 0.000000 -1.000000 0.000000
-0.439843 -0.125984 -0.461710 19 255 57 0.000000 -1.000000 0.000000
-0.262394 -0.085479 -0.441233 19 255 57 0.000000 -1.000000 0.000000
-0.485700 -0.030600 -0.168679 19 255 57 0.000000 -1.000000 0.000000
-0.538675 0.028105 -0.435307 19 255 57 0.000000 1.000000 0.000000
-0.323658 -0.070133 -0.575349 19 255 57 0.000000 0.808075 -0.589080
-0.108111 -0.067718 -0.299419 19 255 57 0.000000 1.000000 0.000000
-0.050243 -0.125984 -0.327785 19 255 57 0.000000 -1.000000 0.000000
-0.304220 -0.029282 -0.405739 19 255 57 0.000000 1.000000 0.000000
-0.021540 -0.067718 -0.271156 19 255 57 0.000000 1.000000 0.000000
-0.562997 -0.113797 -0.200455 19 255 57 -0.994929 0.100575 0.000000
-0.203130 -0.125984 -0.539703 19 255 57 0.000000 -1.000000 0.000000
-0.563974 -0.123465 -0.286400 19 255 57 -0.994929 0.100575 0.000000
-0.068792 0.028105 -0.152891 19 255 57 0.000000 1.000000 0.000000
-0.503890 0.026337 -0.492763 19 255 57 1.000000 0.000000 0.000000
-0.011348 -0.067718 -0.500486 19 255 57 0.000000 1.000000 0.000000
-0.418034 0.028105 -0.571090 19 255 57 0.000000 1.000000 0.000000
-0.495563 -0.085479 -0.194926 19 255 57 0.000000 -1.000000 0.000000
-0.469628 -0.030600 -0.586507 19 255 57 0.000000 -1.000000 0.000000
-0.120346 -0.085479 -0.479659 19 255 57 0.000000 -1.000000 0.000000
-0.259836 -0.098700 -0.612239 19 255 57 0.000000 0.105248 -0.994446
-0.215610 -0.030600 -0.260662 19 255 57 0.000000 -1.000000 0.000000
-0.137451 -0.085479 -0.436443 19 255 57 0.000000 -1.000000 0.000000
-0.266802 -0.125984 -0.340721 19 255 57 0.000000 -1.000000 0.000000
-0.021283 -0.030600 -0.115356 19 255 57 0.000000 -1.000000 0.000000
-0.282343 -0.068995 -0.573787 19 255 57 0.000000 0.808075 -0.589080
-0.541550 -0.081815 -0.353985 19 255 57 -0.606884 0.794791 0.000000
-0.535184 -0.042108 -0.481997 19 255 57 -0.893637 -0.448790 0.000000
0.012654 -0.067718 -0.333959 19 255 57 0.000000 1.000000 0.000000
-0.476477 -0.029282 -0.143344 19 255 57 0.000000 1.000000 0.000000
-0.139727 -0.125984 -0.302962 19 255 57 0.000000 -1.000000 0.000000
-0.525114 0.022025 -0.313799 19 255 57 0.000000 -1.000000 0.000000
-0.501689 -0.125984 -0.062454 19 255 57 0.000000 -1.000000 0.000000
-0.486176 -0.029282 -0.473045 19 255 57 0.000000 1.000000 0.000000
-0.269011 -0.125984 -0.090195 19 255 57 0.000000 -1.000000 0.000000
-0.527902 -0.029282 -0.350930 19 255 57 0.000000 1.000000 0.000000
-0.528797 -0.085479 -0.124772 19 255 57 0.000000 -1.000000 0.000000
-0.194602 -0.029282 -0.465601 19 255 57 0.000000 1.000000 0.000000
-0.047447 -0.029282 -0.275408 19 255 57 0.000000 1.000000 0.000000
-0.358957 -0.085479 -0.048348 19 255 57 0.000000 -1.000000 0.000000
-0.420503 -0.125984 -0.449421 19 255 57 0.000000 -1.000000 0.000000
-0.256099 -0.125984 -0.450085 19 255 57 0.000000 -1.000000 0.000000
-0.341714 -0.067718 -0.156866 19 255 57 0.000000 1.000000 0.000000
-0.512275 0.028105 -0.589288 19 255 57 0.000000 1.000000 0.000000
-0.458214 -0.029282 -0.363767 19 255 57 0.000000 1.000000 0.000000
-0.044753 -0.085479 -0.413866 19 255 57 0.000000 -1.000000 0.000000
-0.081095 -0.125984 -0.061991 19 255 57 0.000000 -1.000000 0.000000
-0.245952 -0.125984 -0.107176 19 255 57 0.000000 -1.000000 0.000000
-0.178043 -0.029282 -0.520308 19 255 57 0.000000 1.000000 0.000000
-0.431784 -0.125984 -0.188936 19 255 57 0.000000 -1.000000 0.000000
-0.142922 -0.067718 -0.158010 19 255 57 0.000000 1.000000 0.000000
-0.230062 0.028105 -0.064054 19 255 57 0.000000 1.000000 0.000000
-0.455169 -0.067718 -0.462239 19 255 57 0.000000 1.000000 0.000000
-0.282206 -0.085479 -0.289954 19 255 57 0.000000 -1.000000 0.000000
-0.298082 -0.030600 -0.222293 19 255 57 0.000000 -1.000000 0.000000
-0.373329 -0.067718 -0.558931 19 255 57 0.000000 1.000000 0.000000
-0.326469 -0.125984 -0.130480 19 255 57 0.000000 -1.000000 0.000000
-0.119781 -0.030600 -0.351252 19 255 57 0.000000 -1.000000 0.000000
-0.282023 -0.067718 -0.372581 19 255 57 0.000000 1.000000 0.000000
-0.581744 0.025849 -0.352819 19 255 57 -0.998755 -0.049879 0.000000
-0.146683 0.028105 -0.164601 19 255 57 0.000000 1.000000 0.000000
-0.497302 -0.030600 -0.048957 19 255 57 0.000000 -1.000000 0.000000
-0.318816 -0.029282 -0.154354 19 255 57 0.000000 1.000000 0.000000
-0.266306 -0.125984 -0.074264 19 255 57 0.000000 -1.000000 0.000000
-0.562139 -0.125984 -0.334388 19 255 57 0.000000 -1.000000 0.000000
-0.318536 -0.085479 -0.046437 19 255 57 0.000000 -1.000000 0.000000
-0.090375 0.028105 -0.569260 19 255 57 0.000000 1.000000 0.000000
-0.049418 0.028105 -0.479449 19 255 57 0.000000 1.000000 0.000000
-0.142954 -0.067718 -0.388762 19 255 57 0.000000 1.000000 0.000000
-0.034405 -0.085479 -0.123956 19 255 57 0.000000 -1.000000 0.000000
-0.468800 -0.029282 -0.074145 19 255 57 0.000000 1.000000 0.000000
-0.198050 -0.125984 -0.512388 19 255 57 0.000000 -1.000000 0.000000
-0.129914 0.028105 -0.213481 19 255 57 0.000000 1.000000 0.000000
-0.234755 -0.085479 -0.195408 19 255 57 0.000000 -1.000000 0.000000
-0.292579 -0.067718 -0.171742 19 255 57 0.000000 1.000000 0.000000
-0.099182 -0.085479 -0.165817 19 255 57 0.000000 -1.000000 0.000000
-0.309074 -0.125984 -0.448149 19 255 57 0.000000 -1.000000 0.000000
-0.089066 -0.085479 -0.367814 19 255 57 0.000000 -1.000000 0.000000
-0.299768 -0.085479 -0.125439 19 255 57 0.000000 -1.000000 0.000000
-0.198912 -0.085479 -0.478855 19 255 57 0.000000 -1.000000 0.000000
-0.113557 -0.085479 -0.489300 19 255 57 0.000000 -1.000000 0.000000
-0.110865 -0.085479 -0.427475 19 255 57 0.000000 -1.000000 0.000000
0.014242 -0.029282 -0.476716 19 255 57 0.000000 1.000000 0.000000
-0.068799 0.028105 -0.449527 19 255 57 0.000000 1.000000 0.000000
-0.189304 -0.067718 -0.123943 19 255 57 0.000000 1.000000 0.000000
-0.291987 -0.085479 -0.041127 19 255 57 0.000000 -1.000000 0.000000
-0.089368 -0.125984 -0.002485 19 255 57 0.000000 -1.000000 0.000000
-0.189938 -0.085479 -0.194639 19 255 57 0.000000 -1.000000 0.000000
-0.236728 -0.085479 -0.474985 19 255 57 0.000000 -1.000000 0.000000
-0.349171 -0.029282 -0.442893 19 255 57 0.000000 1.000000 0.000000
-0.307250 -0.125984 -0.449104 19 255 57 0.000000 -1.000000 0.000000
-0.421122 -0.029282 -0.281176 19 255 57 0.000000 1.000000 0.000000
-0.502392 -0.029282 -0.178654 19 255 57 0.000000 1.000000 0.000000
-0.240336 -0.029282 -0.591279 19 255 57 0.000000 1.000000 0.000000
-0.124543 -0.067718 -0.098446 19 255 57 0.000000 1.000000 0.000000
-0.131113 -0.030600 -0.410618 19 255 57 0.000000 -1.000000 0.000000
-0.246829 -0.125984 -0.424326 19 255 57 0.000000 -1.000000 0.000000
-0.116718 -0.067957 -0.572364 19 255 57 0.000000 0.808075 -0.589080
-0.499537 -0.030600 -0.145695 19 255 57 0.000000 -1.000000 0.000000
-0.537286 -0.029282 -0.058147 19 255 57 0.000000 1.000000 0.000000
-0.110765 -0.085479 -0.151215 19 255 57 0.000000 -1.000000 0.000000
-0.397330 -0.030600 -0.295291 19 255 57 0.000000 -1.000000 0.000000
-0.254555 -0.067718 -0.409681 19 255 57 0.000000 1.000000 0.000000
-0.237853 -0.125984 -0.457166 19 255 57 0.000000 -1.000000 0.000000
-0.315585 0.028105 -0.548789 19 255 57 0.000000 1.000000 0.000000
-0.448751 -0.030600 -0.467118 19 255 57 0.000000 -1.000000 0.000000
-0.148152 -0.085479 -0.552078 19 255 57 0.000000 -1.000000 0.000000
-0.405569 -0.085479 -0.279000 19 255 57 0.000000 -1.000000 0.000000
-0.139901 -0.067718 -0.562485 19 255 57 0.000000 1.000000 0.000000
-0.070259 -0.029282 -0.035920 19 255 57 0.000000 1.000000 0.000000
-0.038421 -0.125984 -0.569868 19 255 57 0.000000 -1.000000 0.000000
-0.064622 -0.030600 -0.191226 19 255 57 0.000000 -1.000000 0.000000
-0.269824 -0.067718 -0.029956 19 255 57 0.000000 1.000000 0.000000
-0.174149 0.028105 -0.202137 19 255 57 0.000000 1.000000 0.000000
-0.303221 -0.125984 -0.004602 19 255 57 0.000000 -1.000000 0.000000
-0.225265 -0.125984 -0.092667 19 255 57 0.000000 -1.000000 0.000000
-0.114281 -0.125984 -0.451513 19 255 57 0.000000 -1.000000 0.000000
-0.014592 -0.029282 -0.305803 19 255 57 0.000000 1.000000 0.000000
-0.058610 -0.125984 -0.103876 19 255 57 0.000000 -1.000000 0.000000
-0.126029 -0.067718 -0.322653 19 255 57 0.000000 1.000000 0.000000
-0.263026 -0.125984 -0.235718 19 255 57 0.000000 -1.000000 0.000000
-0.166966 -0.029282 -0.229909 19 255 57 0.000000 1.000000 0.000000
-0.450158 -0.030600 -0.394273 19 255 57 0.000000 -1.000000 0.000000
-0.295643 -0.030600 -0.598919 19 255 57 0.000000 -1.000000 0.000000
-0.042743 -0.125984 -0.527332 19 255 57 0.000000 -1.000000 0.000000
-0.014134 -0.085479 -0.308183 19 255 57 0.000000 -1.000000 0.000000
-0.115219 -0.085479 -0.093587 19 255 57 0.000000 -1.000000 0.000000
-0.465344 -0.029282 -0.006449 19 255 57 0.000000 1.000000 0.000000
-0.167145 -0.067718 -0.548265 19 255 57 0.000000 1.000000 0.000000
-0.298777 -0.085479 -0.380013 19 255 57 0.000000 -1.000000 0.000000
0.009455 -0.125984 -0.175743 19 255 57 0.000000 -1.000000 0.000000
-0.238641 -0.030600 -0.550775 19 255 57 0.000000 -1.000000 0.000000
-0.235837 -0.125984 -0.514345 19 255 57 0.000000 -1.000000 0.000000
-0.097367 -0.067718 -0.190226 19 255 57 0.000000 1.000000 0.000000
-0.024634 -0.067718 -0.476071 19 255 57 0.000000 1.000000 0.000000
-0.161898 -0.030600 -0.354614 19 255 57 0.000000 -1.000000 0.000000
-0.444264 -0.030600 -0.106631 19 255 57 0.000000 -1.000000 0.000000
-0.054561 -0.029282 -0.301191 19 255 57 0.000000 1.000000 0.000000
-0.182706 0.028105 -0.201264 19 255 57 0.000000 1.000000 0.000000
0.017420 0.028105 -0.507928 19 255 57 0.000000 1.000000 0.000000
-0.210656 0.028105 -0.598491 19 255 57 0.000000 1.000000 0.000000
-0.467761 -0.067718 -0.384179 19 255 57 0.000000 1.000000 0.000000
-0.067516 -0.067718 -0.258597 19 255 57 0.000000 1.000000 0.000000
-0.376946 -0.029282 -0.420430 19 255 57 0.000000 1.000000 0.000000
-0.317550 0.028105 -0.497769 19 255 57 0.000000 1.000000 0.000000
-0.011098 -0.085479 -0.132327 19 255 57 0.000000 -1.000000 0.000000
-0.549128 -0.087601 -0.293270 19 255 57 -0.606884 0.794791 0.000000
-0.443332 0.028105 -0.114231 19 255 57 0.000000 1.000000 0.000000
-0.355299 -0.125984 -0.277859 19 255 57 0.000000 -1.000000 0.000000
-0.123998 -0.029282 -0.486732 19 255 57 0.000000 1.000000 0.000000
-0.086849 -0.085479 -0.457124 19 255 57 0.000000 -1.000000 0.000000
-0.009130 -0.125984 -0.336206 19 255 57 0.000000 -1.000000 0.000000
-0.231082 -0.067718 -0.138461 19 255 57 0.000000 1.000000 0.000000
-0.469841 -0.030600 -0.489261 19 255 57 0.000000 -1.000000 0.000000
-0.464665 -0.125984 -0.436235 19 255 57 0.000000 -1.000000 0.000000
-0.531589 -0.085479 -0.061744 19 255 57 0.000000 -1.000000 0.000000
-0.122577 -0.085479 -0.124764 19 255 57 0.000000 -1.000000 0.000000
-0.435638 -0.029282 -0.442472 19 255 57 0.000000 1.000000 0.000000
-0.086045 -0.029282 -0.067317 19 255 57 0.000000 1.000000 0.000000
-0.379716 -0.029282 -0.231851 19 255 57 0.000000 1.000000 0.000000
-0.424371 -0.084055 -0.594447 19 255 57 0.000000 0.808075 -0.589080
-0.518731 0.028105 -0.537544 19 255 57 0.000000 1.000000 0.000000
-0.402601 0.028105 -0.539722 19 255 57 0.000000 1.000000 0.000000
-0.323739 0.028105 -0.484627 19 255 57 0.000000 1.000000 0.000000
-0.419655 -0.125984 -0.220013 19 255 57 0.000000 -1.000000 0.000000
-0.241688 -0.068414 -0.572992 19 255 57 0.000000 0.808075 -0.589080
-0.429303 -0.029282 -0.361991 19 255 57 0.000000 1.000000 0.000000
-0.085702 -0.029282 -0.054885 19 255 57 0.000000 1.000000 0.000000
-0.531218 -0.050006 -0.162088 19 255 57 -0.893637 -0.448791 0.000000
-0.279315 -0.030600 -0.234453 19 255 57 0.000000 -1.000000 0.000000
-0.272160 0.028105 -0.606804 19 255 57 0.000000 1.000000 0.000000
-0.357581 0.028105 -0.578747 19 255 57 0.000000 1.000000 0.000000
-0.559204 -0.095295 -0.095341 19 255 57 -0.606884 0.794791 0.000000
-0.068612 -0.030600 -0.367322 19 255 57 0.000000 -1.000000 0.000000
-0.387606 -0.085479 -0.057069 19 255 57 0.000000 -1.000000 0.000000
-0.161721 -0.082805 -0.592733 19 255 57 0.000000 0.808075 -0.589080
-0.107757 -0.030600 -0.089706 19 255 57 0.000000 -1.000000 0.000000
-0.404844 -0.051633 -0.580073 19 255 57 0.000000 -0.465466 -0.885066
-0.448385 -0.125984 -0.392569 19 255 57 0.000000 -1.000000 0.000000
-0.271264 -0.085479 -0.257853 19 255 57 0.000000 -1.000000 0.000000
-0.183699 -0.067718 -0.142729 19 255 57 0.000000 1.000000 0.000000
-0.513432 -0.030600 -0.030805 19 255 57 0.000000 -1.000000 0.000000
-0.440665 -0.029282 -0.041710 19 255 57 0.000000 1.000000 0.000000
-0.524746 -0.125984 -0.033595 19 255 57 0.000000 -1.000000 0.000000
-0.007133 -0.030600 -0.111870 19 255 57 0.000000 -1.000000 0.000000
-0.186316 -0.125984 -0.057944 19 255 57 0.000000 -1.000000 0.000000
-0.250936 0.028105 -0.007437 19 255 57 0.000000 1.000000 0.000000
-0.392770 -0.080781 -0.589350 19 255 57 0.000000 0.466272 -0.884641
-0.285987 -0.029282 -0.095425 19 255 57 0.000000 1.000000 0.000000
-0.069910 -0.125984 -0.286652 19 255 57 0.000000 -1.000000 0.000000
-0.417978 -0.029282 -0.195399 19 255 57 0.000000 1.000000 0.000000
-0.006241 -0.067718 -0.193046 19 255 57 0.000000 1.000000 0.000000
-0.121041 -0.085479 -0.060766 19 255 57 0.000000 -1.000000 0.000000
0.016555 -0.085479 -0.297728 19 255 57 0.000000 -1.000000 0.000000
-0.347167 -0.029282 -0.347343 19 255 57 0.000000 1.000000 0.000000
-0.310238 -0.085479 -0.063332 19 255 57 0.000000 -1.000000 0.000000
-0.532086 -0.048276 -0.576332 19 255 57 -0.893637 -0.448790 0.000000
-0.316518 -0.051374 -0.580209 19 255 57 0.000000 -0.465466 -0.885066
-0.017886 -0.030600 -0.536338 19 255 57 0.000000 -1.000000 0.000000
-0.282348 -0.030600 -0.302493 19 255 57 0.000000 -1.000000 0.000000
-0.534635 -0.043202 -0.346395 19 255 57 -0.893637 -0.448790 0.000000
0.011108 -0.125984 -0.028279 19 255 57 0.000000 -1.000000 0.000000
-0.124729 -0.125984 -0.501693 19 255 57 0.000000 -1.000000 0.000000
-0.580529 0.001542 -0.166459 19 255 57 -0.998755 -0.049880 0.000000
-0.236095 -0.030600 -0.183235 19 255 57 0.000000 -1.000000 0.000000
-0.023487 0.028105 -0.262004 19 255 57 0.000000 1.000000 0.000000
-0.460254 -0.067718 -0.057979 19 255 57 0.000000 1.000000 0.000000
-0.266785 -0.029282 -0.283871 19 255 57 0.000000 1.000000 0.000000
-0.247885 0.028105 -0.476950 19 255 57 0.000000 1.000000 0.000000
-0.365489 -0.085479 -0.277756 19 255 57 0.000000 -1.000000 0.000000
-0.450299 -0.125984 -0.018818 19 255 57 0.000000 -1.000000 0.000000
-0.170077 0.028105 -0.067127 19 255 57 0.000000 1.000000 0.000000
-0.110730 -0.029282 -0.075738 19 255 57 0.000000 1.000000 0.000000
-0.501023 -0.051418 -0.580186 19 255 57 0.000000 -0.465466 -0.885066
-0.030170 -0.085479 -0.246287 19 255 57 0.000000 -1.000000 0.000000
-0.280417 -0.030600 -0.118813 19 255 57 0.000000 -1.000000 0.000000
-0.020806 -0.029282 -0.185141 19 255 57 0.000000 1.000000 0.000000
-0.522631 -0.030600 -0.551658 19 255 57 0.000000 -1.000000 0.000000
-0.092938 -0.098435 -0.612211 19 255 57 0.000000 0.105248 -0.994446
-0.442236 -0.030600 -0.225731 19 255 57 0.000000 -1.000000 0.000000
-0.038294 -0.029282 -0.172121 19 255 57 0.000000 1.000000 0.000000
0.004154 -0.125984 -0.233288 19 255 57 0.000000 -1.000000 0.000000
-0.121011 -0.067718 -0.423204 19 255 57 0.000000 1.000000 0.000000
-0.364917 0.028105 -0.020913 19 255 57 0.000000 1.000000 0.000000
-0.186403 -0.081869 -0.589923 19 255 57 0.000000 0.466272 -0.884641
-0.163235 -0.085479 -0.581007 19 255 57 0.000000 -1.000000 0.000000
-0.472284 0.028105 -0.508173 19 255 57 0.000000 1.000000 0.000000
-0.073170 -0.125984 -0.134089 19 255 57 0.000000 -1.000000 0.000000
-0.108366 -0.030600 -0.524454 19 255 57 0.000000 -1.000000 0.000000
-0.548917 0.003392 -0.632677 19 255 57 0.000000 -0.052324 -0.998630
-0.430066 -0.030600 -0.069770 19 255 57 0.000000 -1.000000 0.000000
-0.504184 -0.125984 -0.333693 19 255 57 0.000000 -1.000000 0.000000
-0.378727 -0.029282 -0.190504 19 255 57 0.000000 1.000000 0.000000
-0.564094 -0.124657 -0.295266 19 255 57 -0.994929 0.100575 0.000000
-0.037924 -0.125984 -0.329681 19 255 57 0.000000 -1.000000 0.000000
-0.478721 -0.030600 -0.321697 19 255 57 0.000000 -1.000000 0.000000
-0.327748 0.028105 -0.125210 19 255 57 0.000000 1.000000 0.000000
-0.478258 -0.125984 -0.098881 19 255 57 0.000000 -1.000000 0.000000
0.005448 -0.085479 -0.016342 19 255 57 0.000000 -1.000000 0.000000
-0.004838 -0.125984 -0.516768 19 255 57 0.000000 -1.000000 0.000000
-0.479773 -0.125984 -0.439546 19 255 57 0.000000 -1.000000 0.000000
-0.509837 -0.125984 -0.111866 19 255 57 0.000000 -1.000000 0.000000
-0.016096 -0.067718 -0.393690 19 255 57 0.000000 1.000000 0.000000
-0.209172 0.028105 -0.317268 19 255 57 0.000000 1.000000 0.000000
-0.007063 -0.029282 -0.299193 19 255 57 0.000000 1.000000 0.000000
-0.151540 -0.030600 -0.231808 19 255 57 0.000000 -1.000000 0.000000
-0.080968 0.028105 -0.049687 19 255 57 0.000000 1.000000 0.000000
-0.014573 -0.029282 -0.054769 19 255 57 0.000000 1.000000 0.000000
-0.172230 0.028105 -0.407081 19 255 57 0.000000 1.000000 0.000000
-0.087857 -0.109804 -0.613414 19 255 57 0.000000 0.105248 -0.994446
-0.049170 -0.125984 -0.321988 19 255 57 0.000000 -1.000000 0.000000
-0.055543 -0.085479 -0.000033 19 255 57 0.000000 -1.000000 0.000000
-0.086530 -0.008475 -0.628279 19 255 57 0.000000 -0.500071 -0.865985
-0.111934 -0.125984 -0.404217 19 255 57 0.000000 -1.000000 0.000000
-0.389905 -0.067718 -0.009798 19 255 57 0.000000 1.000000 0.000000
-0.121281 -0.029282 -0.232165 19 255 57 0.000000 1.000000 0.000000
-0.323700 -0.085479 -0.117702 19 255 57 0.000000 -1.000000 0.000000
-0.243077 -0.029282 -0.010473 19 255 57 0.000000 1.000000 0.000000
-0.128451 -0.030600 -0.541891 19 255 57 0.000000 -1.000000 0.000000
-0.196379 -0.113191 -0.613773 19 255 57 0.000000 0.105248 -0.994446
0.019110 -0.067718 -0.417782 19 255 57 0.000000 1.000000 0.000000
-0.094265 -0.030600 -0.011925 19 255 57 0.000000 -1.000000 0.000000
-0.289470 -0.125984 -0.297206 19 255 57 0.000000 -1.000000 0.000000
-0.008638 -0.030600 -0.123833 19 255 57 0.000000 -1.000000 0.000000
-0.530205 -0.073152 -0.405006 19 255 57 -0.606884 0.794791 0.000000
-0.225065 -0.029282 -0.035226 19 255 57 0.000000 1.000000 0.000000
-0.380446 -0.030600 -0.381198 19 255 57 0.000000 -1.000000 0.000000
-0.334060 -0.030600 -0.093052 19 255 57 0.000000 -1.000000 0.000000
-0.291812 0.028105 -0.183020 19 255 57 0.000000 1.000000 0.000000
-0.016675 -0.085479 -0.583407 19 255 57 0.000000 -1.000000 0.000000
-0.085010 -0.029282 -0.150307 19 255 57 0.000000 1.000000 0.000000
-0.058860 -0.029282 -0.219697 19 255 57 0.000000 1.000000 0.000000
-0.226768 0.028105 -0.072311 19 255 57 0.000000 1.000000 0.000000
-0.538869 -0.034771 -0.489379 19 255 57 -0.893637 -0.448790 0.000000
-0.336214 -0.030600 -0.503898 19 255 57 0.000000 -1.000000 0.000000
-0.202197 0.028105 -0.085450 19 255 57 0.000000 1.000000 0.000000
-0.076537 0.028105 -0.462055 19 255 57 0.000000 1.000000 0.000000
-0.311437 0.028105 -0.268889 19 255 57 0.000000 1.000000 0.000000
-0.240557 -0.030600 -0.227201 19 255 57 0.000000 -1.000000 0.000000
-0.261446 -0.029282 -0.504028 19 255 57 0.000000 1.000000 0.000000
-0.064905 -0.029282 -0.487898 19 255 57 0.000000 1.000000 0.000000
-0.188859 -0.067718 -0.567305 19 255 57 0.000000 1.000000 0.000000
-0.311166 -0.085479 -0.027728 19 255 57 0.000000 -1.000000 0.000000
-0.471311 -0.125984 -0.428959 19 255 57 0.000000 -1.000000 0.000000
-0.484811 -0.029282 -0.254243 19 255 57 0.000000 1.000000 0.000000
-0.164601 -0.067718 -0.520011 19 255 57 0.000000 1.000000 0.000000
-0.162853 0.028105 -0.211464 19 255 57 0.000000 1.000000 0.000000
-0.080317 -0.085479 -0.263949 19 255 57 0.000000 -1.000000 0.000000
-0.220557 -0.030600 -0.196685 19 255 57 0.000000 -1.000000 0.000000
-0.209534 0.028105 -0.027958 19 255 57 0.000000 1.000000 0.000000
-0.028533 -0.125984 -0.211342 19 255 57 0.000000 -1.000000 0.000000
-0.494494 0.028105 -0.417645 19 255 57 0.000000 1.000000 0.000000
-0.204120 0.028105 -0.177733 19 255 57 0.000000 1.000000 0.000000
-0.403512 -0.125984 -0.205505 19 255 57 0.000000 -1.000000 0.000000
-0.261852 -0.085479 -0.090080 19 255 57 0.000000 -1.000000 0.000000
-0.505595 -0.029282 -0.070439 19 255 57 0.000000 1.000000 0.000000
-0.096804 -0.030600 -0.431949 19 255 57 0.000000 -1.000000 0.000000
-0.414907 -0.030600 -0.316484 19 255 57 0.000000 -1.000000 0.000000
-0.191327 -0.085479 -0.247069 19 255 57 0.000000 -1.000000 0.000000
-0.254175 0.028105 -0.432577 19 255 57 0.000000 1.000000 0.000000
-0.340978 -0.029282 -0.061027 19 255 57 0.000000 1.000000 0.000000
-0.137561 -0.029282 -0.515850 19 255 57 0.000000 1.000000 0.000000
-0.385250 -0.030600 -0.024284 19 255 57 0.000000 -1.000000 0.000000
-0.163746 -0.067718 -0.546071 19 255 57 0.000000 1.000000 0.000000
-0.070168 -0.067718 -0.248546 19 255 57 0.000000 1.000000 0.000000
-0.423836 -0.030600 -0.311574 19 255 57 0.000000 -1.000000 0.000000
-0.326759 0.028105 -0.494907 19 255 57 0.000000 1.000000 0.000000
-0.041090 -0.067718 -0.118394 19 255 57 0.000000 1.000000 0.000000
-0.149357 -0.030600 -0.303667 19 255 57 0.000000 -1.000000 0.000000
-0.124077 0.028105 -0.565431 19 255 57 0.000000 1.000000 0.000000
-0.381228 -0.067718 -0.213856 19 255 57 0.000000 1.000000 0.000000
-0.248650 -0.085479 -0.158375 19 255 57 0.000000 -1.000000 0.000000
-0.410733 -0.030600 -0.333232 19 255 57 0.000000 -1.000000 0.000000
-0.041031 0.028105 -0.046570 19 255 57 0.000000 1.000000 0.000000
-0.086357 -0.030600 -0.605843 19 255 57 0.000000 -1.000000 0.000000
-0.094378 -0.030600 -0.132601 19 255 57 0.000000 -1.000000 0.000000
-0.533934 -0.029282 -0.105422 19 255 57 0.000000 1.000000 0.000000
-0.114828 -0.085479 -0.414606 19 255 57 0.000000 -1.000000 0.000000
-0.427008 -0.030600 -0.562045 19 255 57 0.000000 -1.000000 0.000000
-0.072039 0.028105 -0.339166 19 255 57 0.000000 1.000000 0.000000
-0.223345 0.028105 -0.121787 19 255 57 0.000000 1.000000 0.000000
-0.539149 -0.030600 -0.456862 19 255 57 0.000000 -1.000000 0.000000
-0.367722 -0.029282 -0.246495 19 255 57 0.000000 1.000000 0.000000
-0.212047 -0.067718 -0.298019 19 255 57 0.000000 1.000000 0.000000
-0.042800 -0.125984 -0.369594 19 255 57 0.000000 -1.000000 0.000000
-0.049400 -0.030600 -0.163013 19 255 57 0.000000 -1.000000 0.000000
-0.203158 -0.125984 -0.007962 19 255 57 0.000000 -1.000000 0.000000
-0.367746 -0.125984 -0.527711 19 255 57 0.000000 -1.000000 0.000000
-0.500655 -0.085479 -0.314055 19 255 57 0.000000 -1.000000 0.000000
-0.137264 -0.067718 -0.135148 19 255 57 0.000000 1.000000 0.000000
-0.410748 0.028105 -0.546191 19 255 57 0.000000 1.000000 0.000000
-0.176306 0.028105 -0.448003 19 255 57 0.000000 1.000000 0.000000
-0.496711 -0.085479 -0.523611 19 255 57 0.000000 -1.000000 0.000000
-0.532317 -0.030600 -0.087074 19 255 57 0.000000 -1.000000 0.000000
-0.116977 0.028105 -0.271622 19 255 57 0.000000 1.000000 0.000000
-0.225720 -0.029282 -0.491709 19 255 57 0.000000 1.000000 0.000000
-0.580554 0.002048 -0.368162 19 255 57 -0.998755 -0.049880 0.000000
-0.491535 -0.085479 -0.588513 19 255 57 0.000000 -1.000000 0.000000
-0.450970 0.028105 -0.576901 19 255 57 0.000000 1.000000 0.000000
-0.142750 0.028105 -0.587520 19 255 57 0.000000 1.000000 0.000000
-0.340094 -0.107805 -0.613202 19 255 57 0.000000 0.105248 -0.994446
-0.382197 -0.125984 -0.428954 19 255 57 0.000000 -1.000000 0.000000
-0.069248 -0.125984 -0.133615 19 255 57 0.000000 -1.000000 0.000000
-0.308867 -0.067718 -0.205266 19 255 57 0.000000 1.000000 0.000000
-0.281547 -0.085479 -0.124829 19 255 57 0.000000 -1.000000 0.000000
-0.516940 -0.030600 -0.107020 19 255 57 0.000000 -1.000000 0.000000
0.021764 0.028105 -0.032594 19 255 57 0.000000 1.000000 0.000000
-0.307102 -0.029282 -0.532845 19 255 57 0.000000 1.000000 0.000000
-0.525708 -0.030600 -0.425791 19 255 57 0.000000 -1.000000 0.000000
-0.117364 -0.029282 -0.277442 19 255 57 0.000000 1.000000 0.000000
-0.417476 -0.029282 -0.207951 19 255 57 0.000000 1.000000 0.000000
-0.282882 -0.125984 -0.570093 19 255 57 0.000000 -1.000000 0.000000
-0.363780 -0.030600 -0.089643 19 255 57 0.000000 -1.000000 0.000000
-0.066041 0.028105 -0.120162 19 255 57 0.000000 1.000000 0.000000
-0.000496 0.028105 -0.336234 19 255 57 0.000000 1.000000 0.000000
-0.435906 -0.029282 -0.269067 19 255 57 0.000000 1.000000 0.000000
-0.367026 -0.125984 -0.433919 19 255 57 0.000000 -1.000000 0.000000
-0.460277 -0.085479 -0.047866 19 255 57 0.000000 -1.000000 0.000000
-0.093603 -0.085479 -0.324004 19 255 57 0.000000 -1.000000 0.000000
-0.439923 -0.029282 -0.340324 19 255 57 0.000000 1.000000 0.000000
-0.380109 -0.029282 -0.170118 19 255 57 0.000000 1.000000 0.000000
-0.362867 -0.067718 -0.426818 19 255 57 0.000000 1.000000 0.000000
-0.499511 -0.030600 -0.042873 19 255 57 0.000000 -1.000000 0.000000
-0.097758 -0.030600 -0.450669 19 255 57 0.000000 -1.000000 0.000000
-0.355361 -0.125984 -0.550390 19 255 57 0.000000 -1.000000 0.000000
-0.479867 -0.125984 -0.473991 19 255 57 0.000000 -1.000000 0.000000
-0.330351 -0.029282 -0.248728 19 255 57 0.000000 1.000000 0.000000
-0.041599 -0.125984 -0.059383 19 255 57 0.000000 -1.000000 0.000000
-0.411693 0.028105 -0.474631 19 255 57 0.000000 1.000000 0.000000
-0.425556 -0.125984 -0.039910 19 255 57 0.000000 -1.000000 0.000000
-0.069668 -0.067718 -0.003945 19 255 57 0.000000 1.000000 0.000000
-0.440445 -0.067718 -0.423241 19 255 57 0.000000 1.000000 0.000000
-0.132176 -0.030600 -0.122343 19 255 57 0.000000 -1.000000 0.000000
-0.545973 -0.125984 -0.554371 19 255 57 0.000000 -1.000000 0.000000
-0.223810 -0.067718 -0.147587 19 255 57 0.000000 1.000000 0.000000
-0.424267 -0.125984 -0.016216 19 255 57 0.000000 -1.000000 0.000000
-0.169168 -0.030600 -0.570833 19 255 57 0.000000 -1.000000 0.000000
-0.150136 -0.067718 -0.127014 19 255 57 0.000000 1.000000 0.000000
-0.233337 -0.029282 -0.449493 19 255 57 0.000000 1.000000 0.000000
-0.545605 0.028105 -0.215283 19 255 57 0.000000 1.000000 0.000000
-0.318481 0.028105 -0.588932 19 255 57 0.000000 1.000000 0.000000
-0.078976 -0.067718 -0.127758 19 255 57 0.000000 1.000000 0.000000
-0.419911 -0.067718 -0.050555 19 255 57 0.000000 1.000000 0.000000
-0.527746 -0.085479 -0.006499 19 255 57 0.000000 -1.000000 0.000000
-0.026585 -0.085479 -0.479014 19 255 57 0.000000 -1.000000 0.000000
0.003650 -0.029282 -0.033750 19 255 57 0.000000 1.000000 0.000000
-0.013446 -0.125984 -0.056753 19 255 57 0.000000 -1.000000 0.000000
-0.353832 -0.125984 -0.401979 19 255 57 0.000000 -1.000000 0.000000
-0.098348 -0.125984 -0.316256 19 255 57 0.000000 -1.000000 0.000000
-0.214876 -0.029135 -0.616349 19 255 57 0.000000 -0.500071 -0.865985
-0.536313 -0.074924 -0.429605 19 255 57 -0.893239 0.449582 0.000000
-0.570174 -0.019815 -0.223180 19 255 57 -0.875761 -0.482745 0.000000
-0.299894 -0.022065 -0.620431 19 255 57 0.000000 -0.500071 -0.865985
-0.061312 -0.029282 -0.231387 19 255 57 0.000000 1.000000 0.000000
-0.447975 -0.030600 -0.180280 19 255 57 0.000000 -1.000000 0.000000
-0.074745 0.028105 -0.431078 19 255 57 0.000000 1.000000 0.000000
-0.075390 -0.067718 -0.277344 19 255 57 0.000000 1.000000 0.000000
-0.144656 -0.029282 -0.424492 19 255 57 0.000000 1.000000 0.000000
0.016781 0.028105 -0.183477 19 255 57 0.000000 1.000000 0.000000
-0.415449 -0.030600 -0.597159 19 255 57 0.000000 -1.000000 0.000000
-0.561660 -0.100575 -0.048511 19 255 57 -0.994929 0.100575 0.000000
-0.013326 -0.085479 -0.302917 19 255 57 0.000000 -1.000000 0.000000
-0.114432 -0.067718 -0.073582 19 255 57 0.000000 1.000000 0.000000
-0.085107 -0.030600 -0.432472 19 255 57 0.000000 -1.000000 0.000000
0.020655 -0.085479 -0.393182 19 255 57 0.000000 -1.000000 0.000000
-0.518643 -0.085479 -0.166588 19 255 57 0.000000 -1.000000 0.000000
-0.369023 -0.067718 -0.020620 19 255 57 0.000000 1.000000 0.000000
-0.417776 -0.082834 -0.592772 19 255 57 0.000000 0.808075 -0.589080
-0.396311 -0.067718 -0.024055 19 255 57 0.000000 1.000000 0.000000
-0.182877 -0.085479 -0.053309 19 255 57 0.000000 -1.000000 0.000000
0.019827 -0.030600 -0.054305 19 255 57 0.000000 -1.000000 0.000000
-0.219099 -0.125984 -0.067800 19 255 57 0.000000 -1.000000 0.000000
-0.165128 -0.125984 -0.110338 19 255 57 0.000000 -1.000000 0.000000
-0.102838 -0.125984 -0.114327 19 255 57 0.000000 -1.000000 0.000000
-0.026282 -0.125984 -0.004154 19 255 57 0.000000 -1.000000 0.000000
-0.437956 -0.030600 -0.607233 19 255 57 0.000000 -1.000000 0.000000
-0.399512 -0.085479 -0.114582 19 255 57 0.000000 -1.000000 0.000000
-0.360248 -0.067718 -0.546312 19 255 57 0.000000 1.000000 0.000000
-0.483792 -0.067718 -0.419980 19 255 57 0.000000 1.000000 0.000000
-0.357875 -0.030600 -0.329575 19 255 57 0.000000 -1.000000 0.000000
-0.539801 -0.030600 -0.128735 19 255 57 0.000000 -1.000000 0.000000
-0.107180 0.028105 -0.187303 19 255 57 0.000000 1.000000 0.000000
-0.182601 -0.085479 -0.033674 19 255 57 0.000000 -1.000000 0.000000
-0.411675 -0.067718 -0.517755 19 255 57 0.000000 1.000000 0.000000
-0.144624 -0.125984 -0.586686 19 255 57 0.000000 -1.000000 0.000000
-0.329387 -0.030600 -0.285571 19 255 57 0.000000 -1.000000 0.000000
-0.116541 -0.067718 -0.509415 19 255 57 0.000000 1.000000 0.000000
-0.128058 -0.029282 -0.322730 19 255 57 0.000000 1.000000 0.000000
-0.415864 -0.067718 -0.165175 19 255 57 0.000000 1.000000 0.000000
-0.428840 -0.030600 -0.153488 19 255 57 0.000000 -1.000000 0.000000
-0.152469 0.028105 -0.244438 19 255 57 0.000000 1.000000 0.000000
-0.164972 -0.085479 -0.269657 19 255 57 0.000000 -1.000000 0.000000
-0.523033 0.028105 -0.588542 19 255 57 0.000000 1.000000 0.000000
-0.116872 -0.030600 -0.259847 19 255 57 0.000000 -1.000000 0.000000
-0.009054 -0.029282 -0.241945 19 255 57 0.000000 1.000000 0.000000
-0.254026 -0.029282 -0.249852 19 255 57 0.000000 1.000000 0.000000
-0.146882 -0.085479 -0.385865 19 255 57 0.000000 -1.000000 0.000000
-0.296441 -0.085479 -0.360902 19 255 57 0.000000 -1.000000 0.000000
-0.466203 -0.067718 -0.429472 19 255 57 0.000000 1.000000 0.000000
-0.001828 -0.029282 -0.289349 19 255 57 0.000000 1.000000 0.000000
-0.208162 -0.029282 -0.209058 19 255 57 0.000000 1.000000 0.000000
-0.504699 -0.030600 -0.070146 19 255 57 0.000000 -1.000000 0.000000
0.008088 -0.030600 -0.200713 19 255 57 0.000000 -1.000000 0.000000
-0.115855 -0.029282 -0.582295 19 255 57 0.000000 1.000000 0.000000
-0.175764 -0.067718 -0.515595 19 255 57 0.000000 1.000000 0.000000
-0.110395 -0.029282 -0.265119 19 255 57 0.000000 1.000000 0.000000
-0.175033 -0.029282 -0.497006 19 255 57 0.000000 1.000000 0.000000
-0.170217 -0.125984 -0.348082 19 255 57 0.000000 -1.000000 0.000000
-0.371044 -0.085479 -0.433323 19 255 57 0.000000 -1.000000 0.000000
-0.499684 -0.125984 -0.232301 19 255 57 0.000000 -1.000000 0.000000
-0.480307 0.028105 -0.468243 19 255 57 0.000000 1.000000 0.000000
-0.442325 0.028105 -0.278777 19 255 57 0.000000 1.000000 0.000000
-0.491196 -0.125984 -0.374389 19 255 57 0.000000 -1.000000 0.000000
-0.318924 -0.067718 -0.352168 19 255 57 0.000000 1.000000 0.000000
-0.482655 -0.020806 -0.621159 19 255 57 0.000000 -0.500071 -0.865985
-0.218081 -0.067718 -0.140985 19 255 57 0.000000 1.000000 0.000000
-0.127312 0.028105 -0.438565 19 255 57 0.000000 1.000000 0.000000
-0.470026 -0.004478 -0.630587 19 255 57 0.000000 -0.500071 -0.865985
-0.023838 -0.030600 -0.549951 19 255 57 0.000000 -1.000000 0.000000
-0.044099 -0.072230 -0.578225 19 255 57 0.000000 0.808075 -0.589080
-0.538192 -0.079250 -0.578334 19 255 57 -0.606884 0.794791 0.000000
-0.547700 0.022025 -0.394033 19 255 57 0.000000 -1.000000 0.000000
-0.473580 -0.067718 -0.379836 19 255 57 0.000000 1.000000 0.000000
-0.456698 -0.125984 -0.563364 19 255 57 0.000000 -1.000000 0.000000
-0.478910 0.028105 -0.475252 19 255 57 0.000000 1.000000 0.000000
0.007870 -0.125984 -0.495739 19 255 57 0.000000 -1.000000 0.000000
-0.314153 -0.125984 -0.598090 19 255 57 0.000000 -1.000000 0.000000
-0.530637 -0.051162 -0.459846 19 255 57 -0.893637 -0.448790 0.000000
-0.274688 -0.029282 -0.041697 19 255 57 0.000000 1.000000 0.000000
-0.394748 -0.030600 -0.194110 19 255 57 0.000000 -1.000000 0.000000
-0.535712 -0.073731 -0.130047 19 255 57 -0.893239 0.449582 0.000000
0.015822 -0.125984 -0.438672 19 255 57 0.000000 -1.000000 0.000000
-0.204790 -0.030600 -0.169675 19 255 57 0.000000 -1.000000 0.000000
-0.038147 -0.029282 -0.469254 19 255 57 0.000000 1.000000 0.000000
-0.083822 -0.067718 -0.299918 19 255 57 0.000000 1.000000 0.000000
-0.123387 -0.085479 -0.493884 19 255 57 0.000000 -1.000000 0.000000
-0.016380 -0.085479 -0.017793 19 255 57 0.000000 -1.000000 0.000000
-0.437027 -0.049868 -0.581001 19 255 57 0.000000 -0.465466 -0.885066
-0.278277 -0.067718 -0.207144 19 255 57 0.000000 1.000000 0.000000
-0.573191 0.023784 -0.459730 19 255 57 -1.000000 0.000000 0.000000
-0.515242 0.002337 -0.632621 19 255 57 0.000000 -0.052324 -0.998630
-0.516755 -0.014087 -0.625038 19 255 57 0.000000 -0.500071 -0.865985
-0.498147 -0.030600 -0.411021 19 255 57 0.000000 -1.000000 0.000000
-0.183898 -0.030600 -0.073436 19 255 57 0.000000 -1.000000 0.000000
-0.160520 0.028105 -0.593034 19 255 57 0.000000 1.000000 0.000000
0.016006 -0.125984 -0.066729 19 255 57 0.000000 -1.000000 0.000000
-0.044886 -0.085479 -0.529579 19 255 57 0.000000 -1.000000 0.000000
-0.032947 -0.067718 -0.400650 19 255 57 0.000000 1.000000 0.000000
-0.119566 -0.030600 -0.087778 19 255 57 0.000000 -1.000000 0.000000
-0.056519 -0.085479 -0.229771 19 255 57 0.000000 -1.000000 0.000000
-0.064803 -0.000411 -0.632477 19 255 57 0.000000 -0.052324 -0.998630
-0.463570 0.028105 -0.481188 19 255 57 0.000000 1.000000 0.000000
-0.506150 -0.125984 -0.458432 19 255 57 0.000000 -1.000000 0.000000
-0.059237 -0.109203 -0.613350 19 255 57 0.000000 0.105248 -0.994446
-0.003079 -0.085479 -0.077929 19 255 57 0.000000 -1.000000 0.000000
-0.573038 -0.014618 -0.551638 19 255 57 -0.875761 -0.482745 0.000000
-0.372104 -0.029282 -0.125276 19 255 57 0.000000 1.000000 0.000000
-0.260100 -0.085479 -0.102178 19 255 57 0.000000 -1.000000 0.000000
-0.157172 0.028105 -0.379228 19 255 57 0.000000 1.000000 0.000000
-0.455897 0.028105 -0.305527 19 255 57 0.000000 1.000000 0.000000
-0.116651 -0.125984 -0.603494 19 255 57 0.000000 -1.000000 0.000000
-0.216056 -0.067718 -0.457513 19 255 57 0.000000 1.000000 0.000000
-0.157474 -0.030600 -0.425526 19 255 57 0.000000 -1.000000 0.000000
-0.365393 -0.085479 -0.174453 19 255 57 0.000000 -1.000000 0.000000
-0.205778 -0.125984 -0.127259 19 255 57 0.000000 -1.000000 0.000000
-0.474062 -0.085479 -0.180672 19 255 57 0.000000 -1.000000 0.000000
-0.015710 -0.125984 -0.312166 19 255 57 0.000000 -1.000000 0.000000
-0.371856 -0.030600 -0.574902 19 255 57 0.000000 -1.000000 0.000000
-0.136371 -0.125984 -0.081746 19 255 57 0.000000 -1.000000 0.000000
-0.193165 0.028105 -0.607882 19 255 57 0.000000 1.000000 0.000000
-0.028424 -0.029282 -0.550489 19 255 57 0.000000 1.000000 0.000000
-0.107490 -0.030600 -0.114773 19 255 57 0.000000 -1.000000 0.000000
-0.182220 -0.085479 -0.435319 19 255 57 0.000000 -1.000000 0.000000
-0.544026 -0.083705 -0.210861 19 255 57 -0.606884 0.794791 0.000000
-0.173850 0.026744 -0.633900 19 255 57 0.000000 -0.052324 -0.998630
-0.012701 0.028105 -0.105420 19 255 57 0.000000 1.000000 0.000000
-0.141847 -0.079778 -0.588822 19 255 57 0.000000 0.466272 -0.884641
-0.033165 -0.029282 -0.267446 19 255 57 0.000000 1.000000 0.000000
-0.222734 -0.067718 -0.523007 19 255 57 0.000000 1.000000 0.000000
-0.133894 -0.029282 -0.452581 19 255 57 0.000000 1.000000 0.000000
-0.429762 -0.067718 -0.449617 19 255 57 0.000000 1.000000 0.000000
-0.284875 -0.029282 -0.519778 19 255 57 0.000000 1.000000 0.000000
-0.479117 -0.067718 -0.527710 19 255 57 0.000000 1.000000 0.000000
-0.091177 -0.085479 -0.126663 19 255 57 0.000000 -1.000000 0.000000
-0.344950 -0.085479 -0.531471 19 255 57 0.000000 -1.000000 0.000000
-0.153582 -0.030600 -0.556771 19 255 57 0.000000 -1.000000 0.000000
-0.294781 -0.067718 -0.519009 19 255 57 0.000000 1.000000 0.000000
-0.468249 -0.125984 -0.405070 19 255 57 0.000000 -1.000000 0.000000
-0.248086 -0.029282 -0.488084 19 255 57 0.000000 1.000000 0.000000
-0.433133 -0.067718 -0.389689 19 255 57 0.000000 1.000000 0.000000
