ply
format ascii 1.0
element vertex 704
property float x
property float y
property float z
property uchar red
property uchar green
property uchar blue
property float nx
property float ny
property float nz
end_header
-0.354041 -0.073548 -0.082767 88 249 59 -0.700807 0.707116 -0.094112
-0.318422 -0.118490 -0.102974 88 249 59 0.000000 -1.000000 0.000000
-0.312976 -0.105357 -0.312700 88 249 59 -0.920869 0.000000 -0.389872
-0.114765 -0.058114 -0.363883 88 249 59 0.000000 1.000000 0.000000
-0.233515 -0.097214 -0.415813 88 249 59 0.000000 0.000000 -1.000000
-0.302221 -0.118490 -0.149927 88 249 59 0.000000 -1.000000 0.000000
-0.342113 -0.118490 -0.214236 88 249 59 0.000000 -1.000000 0.000000
-0.112472 -0.118490 -0.142147 88 249 59 0.000000 -1.000000 0.000000
-0.179444 -0.058114 -0.203959 88 249 59 0.000000 1.000000 0.000000
-0.137802 -0.118490 -0.259121 88 249 59 0.000000 -1.000000 0.000000
-0.359452 -0.111866 -0.160661 88 249 59 -0.975353 0.000000 -0.220650
-0.019896 -0.029413 -0.288516 88 249 59 0.000000 0.906693 -0.421792
-0.135884 -0.036139 -0.146472 88 249 59 -0.518373 0.855155 0.000000
-0.218893 -0.060676 -0.385794 88 249 59 0.000000 0.707107 -0.707107
-0.342886 -0.058114 -0.004237 88 249 59 0.000000 1.000000 0.000000
-0.311803 -0.118490 -0.173800 88 249 59 0.000000 -1.000000 0.000000
-0.236024 -0.058114 -0.327916 88 249 59 0.000000 1.000000 0.000000
-0.318007 -0.058114 -0.103078 88 249 59 0.000000 1.000000 0.000000
-0.189784 -0.118490 -0.215718 88 249 59 0.000000 -1.000000 0.000000
-0.351276 -0.118490 -0.186587 88 249 59 0.000000 -1.000000 0.000000
-0.312843 -0.112638 -0.313015 88 249 59 -0.920869 0.000000 -0.389872
-0.059786 -0.118490 -0.383616 88 249 59 0.000000 -1.000000 0.000000
-0.143898 -0.058040 -0.327950 88 249 59 0.000000 0.684375 -0.729130
-0.253156 -0.118490 -0.282755 88 249 59 0.000000 -1.000000 0.000000
-0.049643 -0.021886 -0.264076 88 249 59 0.000000 1.000000 0.000000
-0.282606 -0.118490 -0.267172 88 249 59 0.000000 -1.000000 0.000000
-0.205281 -0.118490 -0.133310 88 249 59 0.000000 -1.000000 0.000000
-0.206389 -0.118490 -0.403065 88 249 59 0.000000 -1.000000 0.000000
-0.091323 -0.050081 -0.367127 88 249 59 0.139488 0.793335 -0.592589
-0.021613 -0.118490 -0.358954 88 249 59 0.000000 -1.000000 0.000000
-0.221122 -0.118490 -0.056070 88 249 59 0.000000 -1.000000 0.000000
-0.322652 -0.113582 -0.289846 88 249 59 -0.920869 0.000000 -0.389872
-0.108271 -0.058749 -0.383867 88 249 59 0.000000 0.707107 -0.707107
-0.342422 -0.058114 -0.010114 88 249 59 0.000000 1.000000 0.000000
-0.122804 -0.118454 -0.415813 88 249 59 0.000000 0.000000 -1.000000
-0.022655 -0.118490 -0.351129 88 249 59 0.000000 -1.000000 0.000000
-0.097117 -0.118490 -0.331190 88 249 59 0.000000 -1.000000 0.000000
-0.236967 -0.118490 -0.106530 88 249 59 0.000000 -1.000000 0.000000
-0.112520 -0.118490 -0.196701 88 249 59 0.000000 -1.000000 0.000000
-0.151034 -0.047021 -0.117289 88 249 59 -0.650420 0.759575 0.000000
-0.133759 -0.034850 -0.076732 88 249 59 -0.518373 0.855155 0.000000
-0.187415 -0.058114 -0.305870 88 249 59 0.000000 1.000000 0.000000
-0.355543 -0.072529 -0.048463 88 249 59 -0.706399 0.707115 -0.031438
-0.351040 -0.118490 -0.005872 88 249 59 0.000000 -1.000000 0.000000
-0.148346 -0.044776 -0.152750 88 249 59 -0.608286 0.793718 0.000000
-0.104780 -0.023213 -0.267663 88 249 59 -0.216317 0.976323 0.000000
-0.190303 -0.118490 -0.050520 88 249 59 0.000000 -1.000000 0.000000
-0.139107 -0.038107 -0.085918 88 249 59 -0.563916 0.825832 0.000000
-0.330038 -0.118490 -0.260290 88 249 59 0.000000 -1.000000 0.000000
-0.326158 -0.118490 -0.079339 88 249 59 0.000000 -1.000000 0.000000
-0.076519 -0.118490 -0.194511 88 249 59 0.000000 -1.000000 0.000000
-0.143895 -0.118490 -0.116477 88 249 59 0.000000 -1.000000 0.000000
-0.227803 -0.058114 -0.084089 88 249 59 0.000000 1.000000 0.000000
-0.319691 -0.079342 -0.263535 88 249 59 -0.673070 0.707121 -0.216694
-0.271621 -0.118490 -0.082127 88 249 59 0.000000 -1.000000 0.000000
-0.175357 -0.058114 -0.155620 88 249 59 0.000000 1.000000 0.000000
-0.298545 -0.079200 -0.317302 88 249 59 -0.651151 0.707109 -0.275680
-0.336604 -0.118490 -0.007073 88 249 59 0.000000 -1.000000 0.000000
-0.002552 -0.118490 -0.152464 88 249 59 0.000000 -1.000000 0.000000
-0.080264 -0.058114 -0.350137 88 249 59 0.000000 1.000000 0.000000
-0.166033 -0.058114 -0.050011 88 249 59 0.000000 1.000000 0.000000
-0.244605 -0.058114 -0.285680 88 249 59 0.000000 1.000000 0.000000
-0.188232 -0.118490 -0.372369 88 249 59 0.000000 -1.000000 0.000000
-0.223685 -0.058114 -0.135011 88 249 59 0.000000 1.000000 0.000000
-0.009457 -0.118490 -0.093178 88 249 59 0.000000 -1.000000 0.000000
-0.038235 -0.021886 -0.227976 88 249 59 0.000000 1.000000 0.000000
-0.264380 -0.118490 -0.049462 88 249 59 0.000000 -1.000000 0.000000
-0.096830 -0.080819 -0.405937 88 249 59 0.000000 0.707107 -0.707107
-0.263216 -0.058114 -0.283894 88 249 59 0.000000 1.000000 0.000000
-0.001065 -0.118490 -0.057943 88 249 59 0.000000 -1.000000 0.000000
-0.137577 -0.085379 -0.410497 88 249 59 0.000000 0.707107 -0.707107
-0.263273 -0.118490 -0.180986 88 249 59 0.000000 -1.000000 0.000000
-0.002986 -0.118490 -0.184687 88 249 59 0.000000 -1.000000 0.000000
-0.186348 -0.118490 -0.367488 88 249 59 0.000000 -1.000000 0.000000
-0.159856 -0.118490 -0.299742 88 249 59 0.000000 -1.000000 0.000000
-0.085150 -0.118490 -0.298862 88 249 59 0.000000 -1.000000 0.000000
-0.023454 -0.077283 -0.402401 88 249 59 0.000000 0.707107 -0.707107
-0.300170 -0.118490 -0.027029 88 249 59 0.000000 -1.000000 0.000000
-0.084558 -0.021886 -0.090580 88 249 59 0.000000 1.000000 0.000000
-0.116808 -0.053856 -0.356877 88 249 59 0.899367 0.382105 0.212451
-0.171099 -0.118490 -0.274515 88 249 59 0.000000 -1.000000 0.000000
-0.165363 -0.058114 -0.118284 88 249 59 0.000000 1.000000 0.000000
-0.342777 -0.058645 -0.023054 88 249 59 -0.706431 0.707082 -0.031470
-0.297580 -0.058114 -0.212118 88 249 59 0.000000 1.000000 0.000000
-0.152063 -0.118490 -0.070302 88 249 59 0.000000 -1.000000 0.000000
-0.342957 -0.118490 -0.019573 88 249 59 0.000000 -1.000000 0.000000
-0.136773 -0.058114 -0.381704 88 249 59 0.000000 1.000000 0.000000
-0.002039 -0.118490 -0.000969 88 249 59 0.000000 -1.000000 0.000000
-0.256503 -0.058114 -0.189775 88 249 59 0.000000 1.000000 0.000000
-0.019798 -0.118490 -0.074728 88 249 59 0.000000 -1.000000 0.000000
-0.064906 -0.118490 -0.243237 88 249 59 0.000000 -1.000000 0.000000
-0.162892 -0.058114 -0.151301 88 249 59 0.000000 1.000000 0.000000
-0.290652 -0.058114 -0.042208 88 249 59 0.000000 1.000000 0.000000
-0.317347 -0.118490 -0.082173 88 249 59 0.000000 -1.000000 0.000000
-0.225018 -0.124298 -0.303510 88 249 59 1.000000 0.000000 0.000000
-0.007259 -0.118490 -0.275591 88 249 59 0.000000 -1.000000 0.000000
-0.230310 -0.100415 -0.415813 88 249 59 0.000000 0.000000 -1.000000
-0.281068 -0.090061 -0.379266 88 249 59 -0.624068 0.707109 -0.332470
-0.164330 -0.118490 -0.198682 88 249 59 0.000000 -1.000000 0.000000
-0.074175 -0.118490 -0.281514 88 249 59 0.000000 -1.000000 0.000000
-0.023054 -0.118490 -0.194528 88 249 59 0.000000 -1.000000 0.000000
-0.147346 -0.118490 -0.281270 88 249 59 0.000000 -1.000000 0.000000
-0.132098 -0.118490 -0.253831 88 249 59 0.000000 -1.000000 0.000000
-0.016954 -0.118490 -0.233637 88 249 59 0.000000 -1.000000 0.000000
-0.343264 -0.118490 -0.094262 88 249 59 0.000000 -1.000000 0.000000
-0.182592 -0.091767 -0.415813 88 249 59 0.000000 0.000000 -1.000000
-0.102377 -0.118490 -0.401661 88 249 59 0.000000 -1.000000 0.000000
-0.033623 -0.021886 -0.225369 88 249 59 0.000000 1.000000 0.000000
-0.067818 -0.021886 -0.183408 88 249 59 0.000000 1.000000 0.000000
-0.073177 -0.118490 -0.126645 88 249 59 0.000000 -1.000000 0.000000
-0.182680 -0.089699 -0.414817 88 249 59 0.000000 0.707107 -0.707107
-0.309632 -0.058114 -0.112415 88 249 59 0.000000 1.000000 0.000000
-0.160270 -0.055814 -0.019507 88 249 59 -0.729211 0.684289 0.000000
-0.035610 -0.118490 -0.101902 88 249 59 0.000000 -1.000000 0.000000
-0.013701 -0.081615 -0.406733 88 249 59 0.000000 0.707107 -0.707107
-0.124765 -0.118490 -0.267227 88 249 59 0.000000 -1.000000 0.000000
-0.298068 -0.118490 -0.155815 88 249 59 0.000000 -1.000000 0.000000
-0.125912 -0.042120 -0.310469 88 249 59 0.000000 0.793777 -0.608209
-0.075033 -0.118490 -0.085051 88 249 59 0.000000 -1.000000 0.000000
-0.104405 -0.058114 -0.329564 88 249 59 0.000000 1.000000 0.000000
-0.193562 -0.058114 -0.256196 88 249 59 0.000000 1.000000 0.000000
-0.102458 -0.118490 -0.126598 88 249 59 0.000000 -1.000000 0.000000
-0.081504 -0.118490 -0.359078 88 249 59 0.000000 -1.000000 0.000000
-0.203438 -0.092727 -0.415813 88 249 59 0.000000 0.000000 -1.000000
-0.025537 -0.109257 -0.415813 88 249 59 0.000000 0.000000 -1.000000
-0.296417 -0.064993 -0.285885 88 249 59 -0.651144 0.707121 -0.275666
-0.196479 -0.058114 -0.240600 88 249 59 0.000000 1.000000 0.000000
-0.023670 -0.118490 -0.272933 88 249 59 0.000000 -1.000000 0.000000
-0.084159 -0.118490 -0.015565 88 249 59 0.000000 -1.000000 0.000000
-0.247175 -0.118490 -0.291457 88 249 59 0.000000 -1.000000 0.000000
-0.131966 -0.033882 -0.107939 88 249 59 -0.470755 0.882264 0.000000
-0.226657 -0.058114 -0.042223 88 249 59 0.000000 1.000000 0.000000
-0.326324 -0.071065 -0.215928 88 249 59 -0.673084 0.707101 -0.216717
-0.374171 -0.098206 -0.038491 88 249 59 -0.999011 0.000000 -0.044461
-0.030675 -0.046839 -0.316410 88 249 59 0.000000 0.759643 -0.650341
-0.329153 -0.118490 -0.088359 88 249 59 0.000000 -1.000000 0.000000
-0.126035 -0.118490 -0.115918 88 249 59 0.000000 -1.000000 0.000000
-0.235584 -0.058114 -0.347046 88 249 59 0.000000 1.000000 0.000000
-0.300704 -0.118490 -0.022869 88 249 59 0.000000 -1.000000 0.000000
-0.356907 -0.118490 -0.010107 88 249 59 0.000000 -1.000000 0.000000
-0.118947 -0.118490 -0.050241 88 249 59 0.000000 -1.000000 0.000000
-0.178832 -0.118490 -0.360140 88 249 59 0.000000 -1.000000 0.000000
-0.286987 -0.118490 -0.305631 88 249 59 0.000000 -1.000000 0.000000
-0.198800 -0.118490 -0.335537 88 249 59 0.000000 -1.000000 0.000000
-0.000141 -0.094503 -0.415813 88 249 59 0.000000 0.000000 -1.000000
-0.231061 -0.058114 -0.351631 88 249 59 0.000000 1.000000 0.000000
-0.275880 -0.118490 -0.182911 88 249 59 0.000000 -1.000000 0.000000
-0.159780 -0.055291 -0.285469 88 249 59 -0.729211 0.684289 0.000000
-0.024217 -0.118490 -0.285509 88 249 59 0.000000 -1.000000 0.000000
-0.011449 -0.021886 -0.042591 88 249 59 0.000000 1.000000 0.000000
-0.056949 -0.118490 -0.195463 88 249 59 0.000000 -1.000000 0.000000
-0.246050 -0.118490 -0.303152 88 249 59 0.000000 -1.000000 0.000000
-0.035508 -0.118490 -0.308531 88 249 59 0.000000 -1.000000 0.000000
-0.058912 -0.118490 -0.352887 88 249 59 0.000000 -1.000000 0.000000
-0.270940 -0.058114 -0.075064 88 249 59 0.000000 1.000000 0.000000
-0.238241 -0.058114 -0.110753 88 249 59 0.000000 1.000000 0.000000
-0.282703 -0.118490 -0.007132 88 249 59 0.000000 -1.000000 0.000000
-0.017659 -0.118490 -0.368839 88 249 59 0.000000 -1.000000 0.000000
-0.125692 -0.118490 -0.319064 88 249 59 0.000000 -1.000000 0.000000
-0.087762 -0.021886 -0.145597 88 249 59 0.000000 1.000000 0.000000
-0.060700 -0.118490 -0.238048 88 249 59 0.000000 -1.000000 0.000000
-0.316662 -0.118490 -0.157750 88 249 59 0.000000 -1.000000 0.000000
-0.240815 -0.058114 -0.229330 88 249 59 0.000000 1.000000 0.000000
-0.073771 -0.021886 -0.127347 88 249 59 0.000000 1.000000 0.000000
-0.004212 -0.021886 -0.194245 88 249 59 0.000000 1.000000 0.000000
-0.113949 -0.025955 -0.209945 88 249 59 -0.320812 0.947143 0.000000
-0.169763 -0.058114 -0.029030 88 249 59 0.000000 1.000000 0.000000
-0.139551 -0.067062 -0.392180 88 249 59 0.000000 0.707107 -0.707107
-0.326857 -0.118490 -0.145304 88 249 59 0.000000 -1.000000 0.000000
-0.114895 -0.118490 -0.127368 88 249 59 0.000000 -1.000000 0.000000
-0.333818 -0.118490 -0.176380 88 249 59 0.000000 -1.000000 0.000000
-0.091173 -0.118490 -0.384326 88 249 59 0.000000 -1.000000 0.000000
-0.326282 -0.063515 -0.184107 88 249 59 -0.689677 0.707111 -0.156012
-0.179789 -0.118490 -0.136465 88 249 59 0.000000 -1.000000 0.000000
-0.327577 -0.059651 -0.160869 88 249 59 -0.689677 0.707111 -0.156012
-0.019427 -0.062231 -0.387349 88 249 59 0.000000 0.707107 -0.707107
-0.061099 -0.118490 -0.332020 88 249 59 0.000000 -1.000000 0.000000
-0.165900 -0.058114 -0.045701 88 249 59 0.000000 1.000000 0.000000
-0.228813 -0.118490 -0.388025 88 249 59 0.000000 -1.000000 0.000000
-0.251213 -0.118490 -0.349756 88 249 59 0.000000 -1.000000 0.000000
-0.292991 -0.118490 -0.305196 88 249 59 0.000000 -1.000000 0.000000
-0.093556 -0.035508 -0.300434 88 249 59 0.000000 0.855155 -0.518373
-0.161338 -0.118490 -0.246070 88 249 59 0.000000 -1.000000 0.000000
-0.216987 -0.058114 -0.078899 88 249 59 0.000000 1.000000 0.000000
-0.192622 -0.118490 -0.152430 88 249 59 0.000000 -1.000000 0.000000
-0.296141 -0.058114 -0.052237 88 249 59 0.000000 1.000000 0.000000
-0.057134 -0.118490 -0.280756 88 249 59 0.000000 -1.000000 0.000000
-0.098200 -0.021886 -0.189805 88 249 59 0.000000 1.000000 0.000000
-0.182273 -0.058114 -0.326405 88 249 59 0.000000 1.000000 0.000000
-0.293433 -0.062851 -0.287440 88 249 59 -0.651144 0.707121 -0.275666
-0.087021 -0.108042 -0.415813 88 249 59 0.000000 0.000000 -1.000000
-0.051512 -0.021886 -0.163724 88 249 59 0.000000 1.000000 0.000000
-0.351729 -0.071299 -0.083079 88 249 59 -0.700807 0.707116 -0.094112
-0.121720 -0.118490 -0.173148 88 249 59 0.000000 -1.000000 0.000000
-0.308097 -0.058114 -0.134524 88 249 59 0.000000 1.000000 0.000000
-0.249341 -0.058114 -0.267381 88 249 59 0.000000 1.000000 0.000000
-0.373554 -0.118490 -0.040190 88 249 59 0.000000 -1.000000 0.000000
-0.188078 -0.058114 -0.348314 88 249 59 0.000000 1.000000 0.000000
-0.034746 -0.021886 -0.052022 88 249 59 0.000000 1.000000 0.000000
-0.166630 -0.118490 -0.232940 88 249 59 0.000000 -1.000000 0.000000
-0.136848 -0.036723 -0.292251 88 249 59 -0.518373 0.855155 0.000000
-0.115901 -0.118490 -0.139043 88 249 59 0.000000 -1.000000 0.000000
-0.149302 -0.045538 -0.029462 88 249 59 -0.650420 0.759575 0.000000
-0.318865 -0.108740 -0.298791 88 249 59 -0.920869 0.000000 -0.389872
-0.107575 -0.023989 -0.034901 88 249 59 -0.269122 0.963106 0.000000
-0.186232 -0.118490 -0.052082 88 249 59 0.000000 -1.000000 0.000000
-0.075379 -0.021886 -0.133336 88 249 59 0.000000 1.000000 0.000000
-0.194480 -0.118490 -0.084822 88 249 59 0.000000 -1.000000 0.000000
-0.003137 -0.021886 -0.220685 88 249 59 0.000000 1.000000 0.000000
-0.010416 -0.108085 -0.415813 88 249 59 0.000000 0.000000 -1.000000
-0.261364 -0.058114 -0.015216 88 249 59 0.000000 1.000000 0.000000
-0.225895 -0.058114 -0.346147 88 249 59 0.000000 1.000000 0.000000
-0.342509 -0.059857 -0.056308 88 249 59 -0.706431 0.707082 -0.031470
-0.221056 -0.118490 -0.151065 88 249 59 0.000000 -1.000000 0.000000
-0.269144 -0.118490 -0.118625 88 249 59 0.000000 -1.000000 0.000000
-0.190954 -0.118490 -0.306461 88 249 59 0.000000 -1.000000 0.000000
-0.151294 -0.090632 -0.415750 88 249 59 0.000000 0.707107 -0.707107
-0.185392 -0.096173 -0.415813 88 249 59 0.000000 0.000000 -1.000000
-0.116451 -0.118490 -0.080300 88 249 59 0.000000 -1.000000 0.000000
-0.014967 -0.118490 -0.200674 88 249 59 0.000000 -1.000000 0.000000
-0.143540 -0.118490 -0.032961 88 249 59 0.000000 -1.000000 0.000000
-0.065986 -0.118490 -0.157491 88 249 59 0.000000 -1.000000 0.000000
-0.192559 -0.058114 -0.312560 88 249 59 0.000000 1.000000 0.000000
-0.035727 -0.118490 -0.146368 88 249 59 0.000000 -1.000000 0.000000
-0.281608 -0.118490 -0.361879 88 249 59 0.000000 -1.000000 0.000000
-0.024053 -0.085249 -0.410367 88 249 59 0.000000 0.707107 -0.707107
-0.169008 -0.118490 -0.377374 88 249 59 0.000000 -1.000000 0.000000
-0.108625 -0.024283 -0.236567 88 249 59 -0.269122 0.963106 0.000000
-0.310413 -0.118490 -0.017407 88 249 59 0.000000 -1.000000 0.000000
-0.212345 -0.090552 -0.415670 88 249 59 0.000000 0.707107 -0.707107
-0.089784 -0.118490 -0.077989 88 249 59 0.000000 -1.000000 0.000000
-0.341263 -0.098533 -0.233579 88 249 59 -0.951884 0.000000 -0.306458
-0.220589 -0.058114 -0.277426 88 249 59 0.000000 1.000000 0.000000
-0.051522 -0.021886 -0.071123 88 249 59 0.000000 1.000000 0.000000
-0.232405 -0.058114 -0.091458 88 249 59 0.000000 1.000000 0.000000
-0.237881 -0.118490 -0.307740 88 249 59 0.000000 -1.000000 0.000000
-0.275952 -0.118490 -0.227431 88 249 59 0.000000 -1.000000 0.000000
-0.005525 -0.021886 -0.090770 88 249 59 0.000000 1.000000 0.000000
-0.061845 -0.118490 -0.361321 88 249 59 0.000000 -1.000000 0.000000
-0.314290 -0.075487 -0.267731 88 249 59 -0.673070 0.707121 -0.216694
-0.107281 -0.023907 -0.002002 88 249 59 -0.269122 0.963106 0.000000
-0.234748 -0.058114 -0.304757 88 249 59 0.000000 1.000000 0.000000
-0.125922 -0.118490 -0.091004 88 249 59 0.000000 -1.000000 0.000000
-0.018656 -0.026436 -0.280958 88 249 59 0.000000 0.947126 -0.320861
-0.052198 -0.021886 -0.204790 88 249 59 0.000000 1.000000 0.000000
-0.096120 -0.118490 -0.007948 88 249 59 0.000000 -1.000000 0.000000
-0.320387 -0.058114 -0.139020 88 249 59 0.000000 1.000000 0.000000
-0.305617 -0.118490 -0.096914 88 249 59 0.000000 -1.000000 0.000000
-0.035598 -0.118490 -0.092065 88 249 59 0.000000 -1.000000 0.000000
-0.233411 -0.058114 -0.295079 88 249 59 0.000000 1.000000 0.000000
-0.041651 -0.118490 -0.110679 88 249 59 0.000000 -1.000000 0.000000
-0.167778 -0.061203 -0.386321 88 249 59 0.000000 0.707107 -0.707107
-0.268482 -0.058114 -0.020332 88 249 59 0.000000 1.000000 0.000000
-0.260229 -0.118490 -0.005155 88 249 59 0.000000 -1.000000 0.000000
-0.077335 -0.021886 -0.125799 88 249 59 0.000000 1.000000 0.000000
-0.285562 -0.118490 -0.339966 88 249 59 0.000000 -1.000000 0.000000
-0.224122 -0.118490 -0.250172 88 249 59 0.000000 -1.000000 0.000000
-0.224895 -0.058114 -0.322801 88 249 59 0.000000 1.000000 0.000000
-0.131861 -0.033826 -0.213294 88 249 59 -0.470755 0.882264 0.000000
-0.091585 -0.058114 -0.353013 88 249 59 0.000000 1.000000 0.000000
-0.263243 -0.058114 -0.213458 88 249 59 0.000000 1.000000 0.000000
-0.200283 -0.058114 -0.189562 88 249 59 0.000000 1.000000 0.000000
-0.035738 -0.118490 -0.235924 88 249 59 0.000000 -1.000000 0.000000
-0.101766 -0.022545 -0.050023 88 249 59 -0.216317 0.976323 0.000000
-0.293779 -0.060009 -0.279333 88 249 59 -0.651144 0.707121 -0.275666
-0.118504 -0.027609 -0.222660 88 249 59 -0.372445 0.928054 0.000000
-0.158380 -0.053799 -0.322302 88 249 59 -0.729211 0.684289 0.000000
-0.235341 -0.077750 -0.402868 88 249 59 0.000000 0.707107 -0.707107
-0.357402 -0.087031 -0.153119 88 249 59 -0.689685 0.707100 -0.156025
-0.372600 -0.104965 -0.073402 88 249 59 -0.991102 0.000000 -0.133104
-0.096390 -0.021886 -0.156497 88 249 59 0.000000 1.000000 0.000000
-0.261526 -0.074086 -0.381974 88 249 59 -0.624068 0.707109 -0.332470
-0.126712 -0.031174 -0.187657 88 249 59 -0.421915 0.906635 0.000000
-0.140045 -0.099705 -0.415813 88 249 59 0.000000 0.000000 -1.000000
-0.331910 -0.078682 -0.223431 88 249 59 -0.673084 0.707101 -0.216717
-0.141379 -0.118490 -0.150437 88 249 59 0.000000 -1.000000 0.000000
-0.200823 -0.058114 -0.007899 88 249 59 0.000000 1.000000 0.000000
-0.261337 -0.118490 -0.130998 88 249 59 0.000000 -1.000000 0.000000
-0.050772 -0.118490 -0.013642 88 249 59 0.000000 -1.000000 0.000000
-0.295329 -0.058114 -0.230958 88 249 59 0.000000 1.000000 0.000000
-0.145946 -0.118490 -0.189433 88 249 59 0.000000 -1.000000 0.000000
-0.256678 -0.058114 -0.002177 88 249 59 0.000000 1.000000 0.000000
-0.157253 -0.052700 -0.287054 88 249 59 -0.690824 0.723023 0.000000
-0.230790 -0.118490 -0.408417 88 249 59 0.000000 -1.000000 0.000000
-0.319027 -0.093172 -0.298408 88 249 59 -0.920869 0.000000 -0.389872
-0.304292 -0.068700 -0.276639 88 249 59 -0.673070 0.707121 -0.216694
-0.152330 -0.118490 -0.132457 88 249 59 0.000000 -1.000000 0.000000
-0.113362 -0.081395 -0.406513 88 249 59 0.000000 0.707107 -0.707107
-0.056806 -0.118490 -0.408086 88 249 59 0.000000 -1.000000 0.000000
-0.301953 -0.118490 -0.206841 88 249 59 0.000000 -1.000000 0.000000
-0.130117 -0.056121 -0.326148 88 249 59 0.000000 0.684375 -0.729130
-0.091196 -0.118490 -0.001176 88 249 59 0.000000 -1.000000 0.000000
-0.039713 -0.118490 -0.390448 88 249 59 0.000000 -1.000000 0.000000
-0.081311 -0.025767 -0.278985 88 249 59 0.000000 0.947126 -0.320861
-0.155899 -0.118490 -0.358814 88 249 59 0.000000 -1.000000 0.000000
-0.081817 -0.118490 -0.179644 88 249 59 0.000000 -1.000000 0.000000
-0.173232 -0.118490 -0.374772 88 249 59 0.000000 -1.000000 0.000000
-0.092972 -0.118490 -0.026916 88 249 59 0.000000 -1.000000 0.000000
-0.262297 -0.118490 -0.175681 88 249 59 0.000000 -1.000000 0.000000
-0.145866 -0.042875 -0.260819 88 249 59 -0.608286 0.793718 0.000000
-0.155936 -0.081630 -0.406748 88 249 59 0.000000 0.707107 -0.707107
-0.098332 -0.049334 -0.361643 88 249 59 -0.592475 0.793335 -0.139976
-0.248207 -0.058114 -0.075795 88 249 59 0.000000 1.000000 0.000000
-0.360477 -0.117167 -0.156130 88 249 59 -0.975353 0.000000 -0.220650
-0.244654 -0.118490 -0.167042 88 249 59 0.000000 -1.000000 0.000000
-0.207849 -0.118490 -0.359211 88 249 59 0.000000 -1.000000 0.000000
-0.100061 -0.103420 -0.415813 88 249 59 0.000000 0.000000 -1.000000
-0.177994 -0.118490 -0.382063 88 249 59 0.000000 -1.000000 0.000000
-0.344248 -0.070106 -0.129829 88 249 59 -0.700813 0.707109 -0.094119
-0.109650 -0.024569 -0.178857 88 249 59 -0.269122 0.963106 0.000000
-0.026493 -0.118490 -0.348615 88 249 59 0.000000 -1.000000 0.000000
-0.065222 -0.021886 -0.263905 88 249 59 0.000000 1.000000 0.000000
-0.298785 -0.118490 -0.262282 88 249 59 0.000000 -1.000000 0.000000
-0.270444 -0.058114 -0.302229 88 249 59 0.000000 1.000000 0.000000
-0.208262 -0.058114 -0.032763 88 249 59 0.000000 1.000000 0.000000
-0.217048 -0.118490 -0.112044 88 249 59 0.000000 -1.000000 0.000000
-0.055221 -0.118490 -0.245102 88 249 59 0.000000 -1.000000 0.000000
-0.031934 -0.118490 -0.327293 88 249 59 0.000000 -1.000000 0.000000
-0.080259 -0.118490 -0.096380 88 249 59 0.000000 -1.000000 0.000000
-0.293532 -0.084468 -0.342655 88 249 59 -0.651151 0.707109 -0.275680
-0.049131 -0.118490 -0.120547 88 249 59 0.000000 -1.000000 0.000000
-0.125487 -0.030604 -0.201870 88 249 59 -0.421915 0.906635 0.000000
-0.194649 -0.118490 -0.059160 88 249 59 0.000000 -1.000000 0.000000
-0.034341 -0.021886 -0.179713 88 249 59 0.000000 1.000000 0.000000
-0.192736 -0.058114 -0.201906 88 249 59 0.000000 1.000000 0.000000
-0.083231 -0.031437 -0.292866 88 249 59 0.000000 0.906693 -0.421792
-0.374144 -0.092359 -0.039088 88 249 59 -0.999011 0.000000 -0.044461
-0.355004 -0.118490 -0.006200 88 249 59 0.000000 -1.000000 0.000000
-0.080985 -0.118490 -0.074970 88 249 59 0.000000 -1.000000 0.000000
-0.133934 -0.058114 -0.343485 88 249 59 0.000000 1.000000 0.000000
-0.217866 -0.082412 -0.407530 88 249 59 0.000000 0.707107 -0.707107
-0.040265 -0.058114 -0.381148 88 249 59 0.000000 1.000000 0.000000
-0.253896 -0.058114 -0.194376 88 249 59 0.000000 1.000000 0.000000
-0.105543 -0.036740 -0.302467 88 249 59 0.000000 0.855155 -0.518373
-0.067027 -0.118490 -0.149875 88 249 59 0.000000 -1.000000 0.000000
-0.345828 -0.062064 -0.031397 88 249 59 -0.706431 0.707082 -0.031470
-0.212259 -0.058114 -0.144068 88 249 59 0.000000 1.000000 0.000000
-0.259998 -0.058114 -0.147311 88 249 59 0.000000 1.000000 0.000000
-0.003132 -0.118490 -0.350284 88 249 59 0.000000 -1.000000 0.000000
-0.228032 -0.058114 -0.218323 88 249 59 0.000000 1.000000 0.000000
-0.059905 -0.118490 -0.047984 88 249 59 0.000000 -1.000000 0.000000
-0.053885 -0.021886 -0.074544 88 249 59 0.000000 1.000000 0.000000
-0.173359 -0.118490 -0.358030 88 249 59 0.000000 -1.000000 0.000000
-0.144022 -0.041463 -0.143685 88 249 59 -0.563916 0.825832 0.000000
-0.127634 -0.058114 -0.365693 88 249 59 0.000000 1.000000 0.000000
-0.311235 -0.118490 -0.126091 88 249 59 0.000000 -1.000000 0.000000
-0.298193 -0.104722 -0.347619 88 249 59 -0.920869 0.000000 -0.389872
-0.313561 -0.118490 -0.201786 88 249 59 0.000000 -1.000000 0.000000
-0.037279 -0.048657 -0.318534 88 249 59 0.000000 0.759643 -0.650341
-0.020577 -0.118490 -0.409314 88 249 59 0.000000 -1.000000 0.000000
-0.096991 -0.021886 -0.087792 88 249 59 0.000000 1.000000 0.000000
-0.327153 -0.065264 -0.188181 88 249 59 -0.689677 0.707111 -0.156012
-0.212445 -0.058114 -0.111500 88 249 59 0.000000 1.000000 0.000000
-0.204751 -0.118490 -0.006362 88 249 59 0.000000 -1.000000 0.000000
-0.253240 -0.118490 -0.400202 88 249 59 0.000000 -1.000000 0.000000
-0.165235 -0.118490 -0.347233 88 249 59 0.000000 -1.000000 0.000000
-0.317205 -0.058114 -0.076405 88 249 59 0.000000 1.000000 0.000000
-0.297503 -0.058114 -0.175942 88 249 59 0.000000 1.000000 0.000000
-0.360145 -0.118490 -0.147697 88 249 59 0.000000 -1.000000 0.000000
-0.348826 -0.118490 -0.086633 88 249 59 0.000000 -1.000000 0.000000
-0.189086 -0.058114 -0.139406 88 249 59 0.000000 1.000000 0.000000
-0.214737 -0.058114 -0.371173 88 249 59 0.000000 1.000000 0.000000
-0.208397 -0.118490 -0.086537 88 249 59 0.000000 -1.000000 0.000000
-0.076607 -0.092727 -0.415813 88 249 59 0.000000 0.000000 -1.000000
-0.375275 -0.099272 -0.013692 88 249 59 -0.999011 0.000000 -0.044461
-0.206050 -0.058114 -0.012715 88 249 59 0.000000 1.000000 0.000000
-0.178391 -0.118490 -0.010225 88 249 59 0.000000 -1.000000 0.000000
-0.091227 -0.021886 -0.052201 88 249 59 0.000000 1.000000 0.000000
-0.246432 -0.118490 -0.326293 88 249 59 0.000000 -1.000000 0.000000
-0.306910 -0.118490 -0.128538 88 249 59 0.000000 -1.000000 0.000000
-0.313839 -0.058114 -0.180140 88 249 59 0.000000 1.000000 0.000000
-0.207858 -0.058114 -0.211950 88 249 59 0.000000 1.000000 0.000000
-0.239787 -0.058114 -0.341074 88 249 59 0.000000 1.000000 0.000000
-0.098919 -0.118490 -0.309928 88 249 59 0.000000 -1.000000 0.000000
-0.163367 -0.058114 -0.256257 88 249 59 0.000000 1.000000 0.000000
-0.348278 -0.090132 -0.207501 88 249 59 -0.689685 0.707100 -0.156025
-0.259304 -0.059533 -0.355192 88 249 59 -0.624068 0.707107 -0.332473
-0.040155 -0.021886 -0.094554 88 249 59 0.000000 1.000000 0.000000
-0.061534 -0.021886 -0.136965 88 249 59 0.000000 1.000000 0.000000
-0.171124 -0.059157 -0.361244 88 249 59 -0.991027 0.130289 0.029824
-0.137371 -0.058114 -0.356852 88 249 59 0.000000 1.000000 0.000000
-0.150234 -0.081419 -0.406537 88 249 59 0.000000 0.707107 -0.707107
-0.026261 -0.021886 -0.169611 88 249 59 0.000000 1.000000 0.000000
-0.286715 -0.110707 -0.370016 88 249 59 -0.882568 0.000000 -0.470185
-0.183863 -0.084046 -0.409164 88 249 59 0.000000 0.707107 -0.707107
-0.345625 -0.062810 -0.052711 88 249 59 -0.706431 0.707082 -0.031470
-0.267057 -0.058114 -0.295496 88 249 59 0.000000 1.000000 0.000000
-0.212481 -0.079452 -0.404570 88 249 59 0.000000 0.707107 -0.707107
-0.211381 -0.058114 -0.078331 88 249 59 0.000000 1.000000 0.000000
-0.144019 -0.041461 -0.029370 88 249 59 -0.563916 0.825832 0.000000
-0.134689 -0.118490 -0.347063 88 249 59 0.000000 -1.000000 0.000000
-0.333635 -0.118490 -0.233210 88 249 59 0.000000 -1.000000 0.000000
-0.200844 -0.118490 -0.411791 88 249 59 0.000000 -1.000000 0.000000
-0.140242 -0.118490 -0.327432 88 249 59 0.000000 -1.000000 0.000000
-0.154368 -0.049944 -0.176823 88 249 59 -0.690824 0.723023 0.000000
-0.346307 -0.070363 -0.116426 88 249 59 -0.700813 0.707109 -0.094119
-0.335001 -0.058114 -0.031579 88 249 59 0.000000 1.000000 0.000000
-0.187951 -0.118490 -0.322784 88 249 59 0.000000 -1.000000 0.000000
-0.169024 -0.058114 -0.093824 88 249 59 0.000000 1.000000 0.000000
-0.318004 -0.075962 -0.257749 88 249 59 -0.673070 0.707121 -0.216694
-0.020204 -0.118490 -0.218057 88 249 59 0.000000 -1.000000 0.000000
-0.236350 -0.063170 -0.388288 88 249 59 0.000000 0.707107 -0.707107
-0.119062 -0.027834 -0.056519 88 249 59 -0.372445 0.928054 0.000000
-0.100383 -0.022239 -0.186767 88 249 59 -0.216317 0.976323 0.000000
-0.244811 -0.105122 -0.415813 88 249 59 0.000000 0.000000 -1.000000
-0.040918 -0.021886 -0.027473 88 249 59 0.000000 1.000000 0.000000
-0.221878 -0.124792 -0.298461 88 249 59 0.000000 0.000000 -1.000000
-0.305790 -0.118490 -0.071447 88 249 59 0.000000 -1.000000 0.000000
-0.011717 -0.118490 -0.157686 88 249 59 0.000000 -1.000000 0.000000
-0.173170 -0.118490 -0.152737 88 249 59 0.000000 -1.000000 0.000000
-0.018070 -0.021886 -0.061226 88 249 59 0.000000 1.000000 0.000000
-0.194970 -0.058114 -0.162251 88 249 59 0.000000 1.000000 0.000000
-0.046042 -0.021886 -0.220465 88 249 59 0.000000 1.000000 0.000000
-0.290661 -0.058114 -0.197672 88 249 59 0.000000 1.000000 0.000000
-0.076585 -0.021886 -0.124705 88 249 59 0.000000 1.000000 0.000000
-0.031638 -0.118490 -0.147771 88 249 59 0.000000 -1.000000 0.000000
-0.278364 -0.118490 -0.161741 88 249 59 0.000000 -1.000000 0.000000
-0.328436 -0.078111 -0.232358 88 249 59 -0.673084 0.707101 -0.216717
-0.358761 -0.109162 -0.163716 88 249 59 -0.975353 0.000000 -0.220650
-0.197786 -0.118490 -0.393402 88 249 59 0.000000 -1.000000 0.000000
-0.310819 -0.064593 -0.242969 88 249 59 -0.673084 0.707101 -0.216717
-0.143927 -0.041398 -0.164030 88 249 59 -0.563916 0.825832 0.000000
-0.225018 -0.119222 -0.316770 88 249 59 1.000000 0.000000 0.000000
-0.187929 -0.118490 -0.414407 88 249 59 0.000000 -1.000000 0.000000
-0.148708 -0.118490 -0.380417 88 249 59 0.000000 -1.000000 0.000000
-0.096965 -0.058114 -0.331583 88 249 59 0.000000 1.000000 0.000000
-0.164113 -0.118490 -0.376877 88 249 59 0.000000 -1.000000 0.000000
-0.094177 -0.021886 -0.250713 88 249 59 0.000000 1.000000 0.000000
-0.204603 -0.058114 -0.038800 88 249 59 0.000000 1.000000 0.000000
-0.344189 -0.090218 -0.222936 88 249 59 -0.673070 0.707121 -0.216694
-0.089941 -0.118490 -0.137846 88 249 59 0.000000 -1.000000 0.000000
-0.289155 -0.058114 -0.040503 88 249 59 0.000000 1.000000 0.000000
-0.173091 -0.118490 -0.030264 88 249 59 0.000000 -1.000000 0.000000
-0.099635 -0.022073 -0.107106 88 249 59 -0.216317 0.976323 0.000000
-0.253966 -0.058114 -0.150631 88 249 59 0.000000 1.000000 0.000000
-0.073631 -0.036761 -0.302501 88 249 59 0.000000 0.855155 -0.518373
-0.217871 -0.118490 -0.042608 88 249 59 0.000000 -1.000000 0.000000
-0.137323 -0.118490 -0.008489 88 249 59 0.000000 -1.000000 0.000000
-0.313359 -0.058114 -0.107228 88 249 59 0.000000 1.000000 0.000000
-0.178959 -0.058114 -0.217250 88 249 59 0.000000 1.000000 0.000000
-0.273695 -0.058114 -0.296175 88 249 59 0.000000 1.000000 0.000000
-0.182012 -0.118490 -0.085208 88 249 59 0.000000 -1.000000 0.000000
-0.154454 -0.050025 -0.158281 88 249 59 -0.690824 0.723023 0.000000
-0.084906 -0.118490 -0.387883 88 249 59 0.000000 -1.000000 0.000000
-0.208536 -0.058114 -0.177327 88 249 59 0.000000 1.000000 0.000000
-0.228070 -0.118490 -0.169681 88 249 59 0.000000 -1.000000 0.000000
-0.203017 -0.118490 -0.163477 88 249 59 0.000000 -1.000000 0.000000
-0.091517 -0.021886 -0.085996 88 249 59 0.000000 1.000000 0.000000
-0.324343 -0.073985 -0.231606 88 249 59 -0.673084 0.707101 -0.216717
-0.066933 -0.118490 -0.139679 88 249 59 0.000000 -1.000000 0.000000
-0.039451 -0.096112 -0.415813 88 249 59 0.000000 0.000000 -1.000000
-0.101193 -0.118490 -0.306695 88 249 59 0.000000 -1.000000 0.000000
-0.105719 -0.118490 -0.035296 88 249 59 0.000000 -1.000000 0.000000
-0.374218 -0.096463 -0.037436 88 249 59 -0.999011 0.000000 -0.044461
-0.333249 -0.108427 -0.258472 88 249 59 -0.951884 0.000000 -0.306458
-0.047067 -0.021886 -0.256236 88 249 59 0.000000 1.000000 0.000000
-0.197203 -0.058114 -0.059540 88 249 59 0.000000 1.000000 0.000000
-0.180838 -0.118490 -0.020882 88 249 59 0.000000 -1.000000 0.000000
-0.256328 -0.058114 -0.101027 88 249 59 0.000000 1.000000 0.000000
-0.124296 -0.058114 -0.339649 88 249 59 0.000000 1.000000 0.000000
-0.023557 -0.118490 -0.112470 88 249 59 0.000000 -1.000000 0.000000
-0.045424 -0.118490 -0.142411 88 249 59 0.000000 -1.000000 0.000000
-0.134998 -0.035601 -0.202243 88 249 59 -0.518373 0.855155 0.000000
-0.329907 -0.058114 -0.040184 88 249 59 0.000000 1.000000 0.000000
-0.262535 -0.108374 -0.415403 88 249 59 -0.882568 0.000000 -0.470185
-0.016408 -0.118490 -0.162020 88 249 59 0.000000 -1.000000 0.000000
-0.332616 -0.118490 -0.152467 88 249 59 0.000000 -1.000000 0.000000
-0.315454 -0.058114 -0.199884 88 249 59 0.000000 1.000000 0.000000
-0.341548 -0.118490 -0.105014 88 249 59 0.000000 -1.000000 0.000000
-0.215243 -0.118490 -0.093597 88 249 59 0.000000 -1.000000 0.000000
-0.273126 -0.058114 -0.173510 88 249 59 0.000000 1.000000 0.000000
-0.202938 -0.118490 -0.219489 88 249 59 0.000000 -1.000000 0.000000
-0.075289 -0.118490 -0.010274 88 249 59 0.000000 -1.000000 0.000000
-0.142522 -0.118490 -0.267395 88 249 59 0.000000 -1.000000 0.000000
-0.322306 -0.075243 -0.242039 88 249 59 -0.673084 0.707101 -0.216717
-0.110583 -0.024830 -0.023900 88 249 59 -0.269122 0.963106 0.000000
-0.175348 -0.118490 -0.373922 88 249 59 0.000000 -1.000000 0.000000
-0.322676 -0.062442 -0.195183 88 249 59 -0.689677 0.707111 -0.156012
-0.091538 -0.118490 -0.411656 88 249 59 0.000000 -1.000000 0.000000
-0.049402 -0.021886 -0.039192 88 249 59 0.000000 1.000000 0.000000
-0.112144 -0.025344 -0.267456 88 249 59 -0.320812 0.947143 0.000000
-0.069444 -0.030558 -0.290978 88 249 59 0.000000 0.906693 -0.421792
-0.211424 -0.118490 -0.028990 88 249 59 0.000000 -1.000000 0.000000
-0.111848 -0.025243 -0.066261 88 249 59 -0.320812 0.947143 0.000000
-0.223766 -0.118490 -0.308379 88 249 59 0.000000 -1.000000 0.000000
-0.030432 -0.118490 -0.247816 88 249 59 0.000000 -1.000000 0.000000
-0.264411 -0.058114 -0.062837 88 249 59 0.000000 1.000000 0.000000
-0.182060 -0.058114 -0.181430 88 249 59 0.000000 1.000000 0.000000
-0.373350 -0.092948 -0.056939 88 249 59 -0.999011 0.000000 -0.044461
-0.038958 -0.118490 -0.181115 88 249 59 0.000000 -1.000000 0.000000
-0.071168 -0.065389 -0.390507 88 249 59 0.000000 0.707107 -0.707107
-0.254161 -0.058114 -0.046269 88 249 59 0.000000 1.000000 0.000000
-0.316897 -0.118490 -0.256996 88 249 59 0.000000 -1.000000 0.000000
-0.094527 -0.037566 -0.303830 88 249 59 0.000000 0.855155 -0.518373
-0.115407 -0.118490 -0.274071 88 249 59 0.000000 -1.000000 0.000000
-0.066744 -0.118490 -0.091410 88 249 59 0.000000 -1.000000 0.000000
-0.049234 -0.118490 -0.333152 88 249 59 0.000000 -1.000000 0.000000
-0.325163 -0.070694 -0.218320 88 249 59 -0.673084 0.707101 -0.216717
-0.072933 -0.118490 -0.138438 88 249 59 0.000000 -1.000000 0.000000
-0.190522 -0.058114 -0.099055 88 249 59 0.000000 1.000000 0.000000
-0.225368 -0.118490 -0.293327 88 249 59 0.000000 -1.000000 0.000000
-0.164863 -0.118490 -0.359107 88 249 59 0.000000 -1.000000 0.000000
-0.068542 -0.118490 -0.242038 88 249 59 0.000000 -1.000000 0.000000
-0.373188 -0.101706 -0.060581 88 249 59 -0.999011 0.000000 -0.044461
-0.209831 -0.118490 -0.160541 88 249 59 0.000000 -1.000000 0.000000
-0.062995 -0.118490 -0.234488 88 249 59 0.000000 -1.000000 0.000000
-0.092271 -0.021886 -0.095896 88 249 59 0.000000 1.000000 0.000000
-0.032922 -0.118490 -0.248090 88 249 59 0.000000 -1.000000 0.000000
-0.179811 -0.058114 -0.141062 88 249 59 0.000000 1.000000 0.000000
-0.195221 -0.118490 -0.331688 88 249 59 0.000000 -1.000000 0.000000
-0.138994 -0.081860 -0.406978 88 249 59 0.000000 0.707107 -0.707107
-0.064420 -0.118490 -0.360502 88 249 59 0.000000 -1.000000 0.000000
-0.037866 -0.021886 -0.174715 88 249 59 0.000000 1.000000 0.000000
-0.223185 -0.118490 -0.107709 88 249 59 0.000000 -1.000000 0.000000
-0.306623 -0.118490 -0.214720 88 249 59 0.000000 -1.000000 0.000000
-0.059820 -0.021886 -0.034936 88 249 59 0.000000 1.000000 0.000000
-0.160358 -0.118490 -0.078334 88 249 59 0.000000 -1.000000 0.000000
-0.104709 -0.118490 -0.415661 88 249 59 0.000000 -1.000000 0.000000
-0.089615 -0.089282 -0.414400 88 249 59 0.000000 0.707107 -0.707107
-0.090648 -0.118490 -0.219901 88 249 59 0.000000 -1.000000 0.000000
-0.072743 -0.118490 -0.344463 88 249 59 0.000000 -1.000000 0.000000
-0.287486 -0.058114 -0.269472 88 249 59 0.000000 1.000000 0.000000
-0.276071 -0.118490 -0.279258 88 249 59 0.000000 -1.000000 0.000000
-0.042494 -0.021886 -0.027508 88 249 59 0.000000 1.000000 0.000000
-0.233763 -0.058114 -0.373357 88 249 59 0.000000 1.000000 0.000000
-0.148617 -0.118490 -0.270416 88 249 59 0.000000 -1.000000 0.000000
-0.132288 -0.118490 -0.270459 88 249 59 0.000000 -1.000000 0.000000
-0.270516 -0.058114 -0.309383 88 249 59 0.000000 1.000000 0.000000
-0.248240 -0.118490 -0.223722 88 249 59 0.000000 -1.000000 0.000000
-0.097987 -0.118490 -0.171675 88 249 59 0.000000 -1.000000 0.000000
-0.149424 -0.118490 -0.058023 88 249 59 0.000000 -1.000000 0.000000
-0.087046 -0.021886 -0.068307 88 249 59 0.000000 1.000000 0.000000
-0.016040 -0.021886 -0.173579 88 249 59 0.000000 1.000000 0.000000
-0.094885 -0.088470 -0.413588 88 249 59 0.000000 0.707107 -0.707107
-0.016709 -0.118490 -0.146645 88 249 59 0.000000 -1.000000 0.000000
-0.026439 -0.118490 -0.056921 88 249 59 0.000000 -1.000000 0.000000
-0.269069 -0.118490 -0.305678 88 249 59 0.000000 -1.000000 0.000000
-0.343173 -0.060246 -0.050138 88 249 59 -0.706431 0.707082 -0.031470
-0.098072 -0.021886 -0.156681 88 249 59 0.000000 1.000000 0.000000
-0.321434 -0.058114 -0.115873 88 249 59 0.000000 1.000000 0.000000
-0.153116 -0.048804 -0.143806 88 249 59 -0.650420 0.759575 0.000000
-0.252025 -0.118490 -0.141785 88 249 59 0.000000 -1.000000 0.000000
-0.051661 -0.054359 -0.356360 88 249 59 0.813538 0.381962 0.438475
-0.241266 -0.118490 -0.124392 88 249 59 0.000000 -1.000000 0.000000
-0.064379 -0.074748 -0.399866 88 249 59 0.000000 0.707107 -0.707107
-0.055982 -0.058114 -0.367418 88 249 59 0.000000 1.000000 0.000000
-0.207001 -0.118490 -0.313073 88 249 59 0.000000 -1.000000 0.000000
-0.057713 -0.021886 -0.005054 88 249 59 0.000000 1.000000 0.000000
-0.280166 -0.118490 -0.005894 88 249 59 0.000000 -1.000000 0.000000
-0.200660 -0.118490 -0.228598 88 249 59 0.000000 -1.000000 0.000000
-0.199082 -0.118490 -0.239586 88 249 59 0.000000 -1.000000 0.000000
-0.184592 -0.058114 -0.260319 88 249 59 0.000000 1.000000 0.000000
-0.212800 -0.118490 -0.260750 88 249 59 0.000000 -1.000000 0.000000
-0.095204 -0.118490 -0.225532 88 249 59 0.000000 -1.000000 0.000000
-0.274109 -0.058114 -0.252597 88 249 59 0.000000 1.000000 0.000000
-0.291962 -0.118490 -0.067256 88 249 59 0.000000 -1.000000 0.000000
-0.205545 -0.118490 -0.209097 88 249 59 0.000000 -1.000000 0.000000
-0.159933 -0.055454 -0.302454 88 249 59 -0.729211 0.684289 0.000000
-0.281440 -0.118490 -0.174841 88 249 59 0.000000 -1.000000 0.000000
-0.338060 -0.117954 -0.243529 88 249 59 -0.951884 0.000000 -0.306458
-0.072463 -0.113609 -0.415813 88 249 59 0.000000 0.000000 -1.000000
-0.235719 -0.118490 -0.186051 88 249 59 0.000000 -1.000000 0.000000
-0.156854 -0.055698 -0.325751 88 249 59 0.000000 0.684375 -0.729130
-0.331509 -0.080259 -0.229822 88 249 59 -0.673084 0.707101 -0.216717
-0.318228 -0.069928 -0.237363 88 249 59 -0.673084 0.707101 -0.216717
-0.121179 -0.058114 -0.338194 88 249 59 0.000000 1.000000 0.000000
-0.037955 -0.118490 -0.100310 88 249 59 0.000000 -1.000000 0.000000
-0.172106 -0.058114 -0.331640 88 249 59 0.000000 1.000000 0.000000
-0.363064 -0.078515 -0.014132 88 249 59 -0.706431 0.707082 -0.031470
-0.064462 -0.058114 -0.359477 88 249 59 0.000000 1.000000 0.000000
-0.141887 -0.118490 -0.217292 88 249 59 0.000000 -1.000000 0.000000
-0.344116 -0.091644 -0.224717 88 249 59 -0.951884 0.000000 -0.306458
-0.346119 -0.066582 -0.089414 88 249 59 -0.700807 0.707116 -0.094112
-0.304333 -0.058114 -0.093012 88 249 59 0.000000 1.000000 0.000000
-0.292780 -0.058114 -0.108667 88 249 59 0.000000 1.000000 0.000000
-0.291666 -0.094033 -0.360723 88 249 59 -0.882568 0.000000 -0.470185
-0.099116 -0.021958 -0.023495 88 249 59 -0.216317 0.976323 0.000000
-0.328258 -0.058114 -0.116627 88 249 59 0.000000 1.000000 0.000000
-0.338425 -0.105822 -0.242394 88 249 59 -0.951884 0.000000 -0.306458
-0.224007 -0.118490 -0.034553 88 249 59 0.000000 -1.000000 0.000000
-0.339766 -0.118490 -0.195051 88 249 59 0.000000 -1.000000 0.000000
-0.209981 -0.118490 -0.029184 88 249 59 0.000000 -1.000000 0.000000
-0.179607 -0.118490 -0.352648 88 249 59 0.000000 -1.000000 0.000000
-0.173325 -0.118490 -0.395340 88 249 59 0.000000 -1.000000 0.000000
-0.088514 -0.070593 -0.395711 88 249 59 0.000000 0.707107 -0.707107
-0.056933 -0.106034 -0.415813 88 249 59 0.000000 0.000000 -1.000000
-0.228108 -0.118490 -0.413940 88 249 59 0.000000 -1.000000 0.000000
-0.120838 -0.028546 -0.212386 88 249 59 -0.372445 0.928054 0.000000
-0.218955 -0.118490 -0.018884 88 249 59 0.000000 -1.000000 0.000000
-0.314076 -0.118490 -0.060472 88 249 59 0.000000 -1.000000 0.000000
-0.179454 -0.118490 -0.155614 88 249 59 0.000000 -1.000000 0.000000
-0.135845 -0.118490 -0.036829 88 249 59 0.000000 -1.000000 0.000000
-0.001909 -0.021886 -0.083572 88 249 59 0.000000 1.000000 0.000000
-0.065073 -0.118490 -0.108863 88 249 59 0.000000 -1.000000 0.000000
-0.003056 -0.057367 -0.352675 88 249 59 -0.228535 0.130072 0.964807
-0.213361 -0.058114 -0.317078 88 249 59 0.000000 1.000000 0.000000
-0.064676 -0.021886 -0.264033 88 249 59 0.000000 1.000000 0.000000
-0.005712 -0.118490 -0.101868 88 249 59 0.000000 -1.000000 0.000000
-0.272640 -0.058114 -0.069414 88 249 59 0.000000 1.000000 0.000000
-0.248121 -0.058114 -0.113347 88 249 59 0.000000 1.000000 0.000000
-0.154212 -0.118490 -0.414164 88 249 59 0.000000 -1.000000 0.000000
-0.158207 -0.053615 -0.281750 88 249 59 -0.729211 0.684289 0.000000
-0.032120 -0.047997 -0.363478 88 249 59 -0.069028 0.991414 -0.111060
-0.199408 -0.058114 -0.098586 88 249 59 0.000000 1.000000 0.000000
-0.307527 -0.058114 -0.229614 88 249 59 0.000000 1.000000 0.000000
-0.224354 -0.118490 -0.321123 88 249 59 0.000000 -1.000000 0.000000
-0.026380 -0.058114 -0.352568 88 249 59 0.000000 1.000000 0.000000
-0.236987 -0.058114 -0.381582 88 249 59 0.000000 1.000000 0.000000
-0.326653 -0.113227 -0.278958 88 249 59 -0.951884 0.000000 -0.306458
-0.257886 -0.107056 -0.415813 88 249 59 0.000000 0.000000 -1.000000
-0.114715 -0.118490 -0.194284 88 249 59 0.000000 -1.000000 0.000000
-0.260217 -0.118490 -0.026655 88 249 59 0.000000 -1.000000 0.000000
-0.373283 -0.089357 -0.028354 88 249 59 -0.706399 0.707115 -0.031438
-0.032266 -0.118490 -0.238461 88 249 59 0.000000 -1.000000 0.000000
-0.007112 -0.021886 -0.048644 88 249 59 0.000000 1.000000 0.000000
-0.308500 -0.118490 -0.010782 88 249 59 0.000000 -1.000000 0.000000
-0.213432 -0.118490 -0.304655 88 249 59 0.000000 -1.000000 0.000000
-0.128737 -0.118490 -0.390871 88 249 59 0.000000 -1.000000 0.000000
-0.231611 -0.118490 -0.112609 88 249 59 0.000000 -1.000000 0.000000
-0.149863 -0.118490 -0.213462 88 249 59 0.000000 -1.000000 0.000000
-0.103390 -0.065985 -0.391103 88 249 59 0.000000 0.707107 -0.707107
-0.212436 -0.058114 -0.015384 88 249 59 0.000000 1.000000 0.000000
-0.142364 -0.040331 -0.079882 88 249 59 -0.563916 0.825832 0.000000
-0.231279 -0.058114 -0.049477 88 249 59 0.000000 1.000000 0.000000
-0.051988 -0.021886 -0.041716 88 249 59 0.000000 1.000000 0.000000
-0.285875 -0.118490 -0.196769 88 249 59 0.000000 -1.000000 0.000000
-0.251779 -0.118490 -0.366261 88 249 59 0.000000 -1.000000 0.000000
-0.176284 -0.058114 -0.337536 88 249 59 0.000000 1.000000 0.000000
-0.074432 -0.118490 -0.393323 88 249 59 0.000000 -1.000000 0.000000
-0.205809 -0.058114 -0.236096 88 249 59 0.000000 1.000000 0.000000
-0.132302 -0.118490 -0.206143 88 249 59 0.000000 -1.000000 0.000000
-0.098533 -0.021886 -0.174256 88 249 59 0.000000 1.000000 0.000000
-0.209714 -0.118490 -0.016133 88 249 59 0.000000 -1.000000 0.000000
-0.216633 -0.058114 -0.173989 88 249 59 0.000000 1.000000 0.000000
-0.178725 -0.118490 -0.364409 88 249 59 0.000000 -1.000000 0.000000
-0.288182 -0.118490 -0.041747 88 249 59 0.000000 -1.000000 0.000000
-0.014156 -0.118490 -0.080746 88 249 59 0.000000 -1.000000 0.000000
-0.035443 -0.021886 -0.187787 88 249 59 0.000000 1.000000 0.000000
-0.111826 -0.118490 -0.222276 88 249 59 0.000000 -1.000000 0.000000
-0.245671 -0.118490 -0.403220 88 249 59 0.000000 -1.000000 0.000000
-0.325006 -0.088122 -0.275677 88 249 59 -0.673070 0.707121 -0.216694
-0.144665 -0.118490 -0.254616 88 249 59 0.000000 -1.000000 0.000000
-0.358702 -0.118490 -0.153448 88 249 59 0.000000 -1.000000 0.000000
-0.210469 -0.118490 -0.334442 88 249 59 0.000000 -1.000000 0.000000
-0.123851 -0.118490 -0.296871 88 249 59 0.000000 -1.000000 0.000000
-0.316656 -0.118490 -0.245961 88 249 59 0.000000 -1.000000 0.000000
-0.169630 -0.058114 -0.076562 88 249 59 0.000000 1.000000 0.000000
-0.334078 -0.058114 -0.073303 88 249 59 0.000000 1.000000 0.000000
-0.001120 -0.021886 -0.256485 88 249 59 0.000000 1.000000 0.000000
-0.365152 -0.118490 -0.125981 88 249 59 0.000000 -1.000000 0.000000
-0.051605 -0.118490 -0.000848 88 249 59 0.000000 -1.000000 0.000000
-0.312713 -0.113896 -0.313321 88 249 59 -0.920869 0.000000 -0.389872
-0.102265 -0.105426 -0.415813 88 249 59 0.000000 0.000000 -1.000000
-0.049419 -0.021886 -0.228973 88 249 59 0.000000 1.000000 0.000000
-0.191771 -0.118490 -0.037609 88 249 59 0.000000 -1.000000 0.000000
-0.021098 -0.021886 -0.052138 88 249 59 0.000000 1.000000 0.000000
-0.110101 -0.024695 -0.181331 88 249 59 -0.269122 0.963106 0.000000
-0.208155 -0.118490 -0.279519 88 249 59 0.000000 -1.000000 0.000000
-0.248494 -0.058114 -0.331298 88 249 59 0.000000 1.000000 0.000000
-0.138644 -0.075261 -0.400379 88 249 59 0.000000 0.707107 -0.707107
-0.037928 -0.021886 -0.060519 88 249 59 0.000000 1.000000 0.000000
-0.076523 -0.118490 -0.054500 88 249 59 0.000000 -1.000000 0.000000
-0.032677 -0.025179 -0.277249 88 249 59 0.000000 0.947126 -0.320861
-0.178029 -0.118490 -0.248173 88 249 59 0.000000 -1.000000 0.000000
-0.158681 -0.118490 -0.315019 88 249 59 0.000000 -1.000000 0.000000
-0.331598 -0.073343 -0.205146 88 249 59 -0.689685 0.707100 -0.156025
-0.334834 -0.118490 -0.010945 88 249 59 0.000000 -1.000000 0.000000
-0.180624 -0.118490 -0.368056 88 249 59 0.000000 -1.000000 0.000000
-0.372434 -0.118490 -0.071239 88 249 59 0.000000 -1.000000 0.000000
-0.215292 -0.118490 -0.404875 88 249 59 0.000000 -1.000000 0.000000
-0.347090 -0.118490 -0.099301 88 249 59 0.000000 -1.000000 0.000000
-0.266285 -0.058114 -0.261983 88 249 59 0.000000 1.000000 0.000000
-0.201668 -0.118490 -0.302566 88 249 59 0.000000 -1.000000 0.000000
-0.326768 -0.062188 -0.175942 88 249 59 -0.689677 0.707111 -0.156012
-0.178787 -0.118490 -0.292840 88 249 59 0.000000 -1.000000 0.000000
-0.187286 -0.058114 -0.363866 88 249 59 0.000000 1.000000 0.000000
-0.266344 -0.118490 -0.266147 88 249 59 0.000000 -1.000000 0.000000
-0.127523 -0.056159 -0.349722 88 249 59 -0.228812 0.130140 0.964732
-0.091527 -0.060341 -0.385459 88 249 59 0.000000 0.707107 -0.707107
-0.178247 -0.118490 -0.202942 88 249 59 0.000000 -1.000000 0.000000
-0.356831 -0.118490 -0.021676 88 249 59 0.000000 -1.000000 0.000000
-0.333684 -0.118490 -0.090780 88 249 59 0.000000 -1.000000 0.000000
-0.322375 -0.118490 -0.108646 88 249 59 0.000000 -1.000000 0.000000
-0.133201 -0.034541 -0.213419 88 249 59 -0.470755 0.882264 0.000000
-0.005290 -0.021886 -0.118500 88 249 59 0.000000 1.000000 0.000000
-0.218387 -0.118490 -0.019732 88 249 59 0.000000 -1.000000 0.000000
-0.326190 -0.118490 -0.070560 88 249 59 0.000000 -1.000000 0.000000
-0.003729 -0.086241 -0.411359 88 249 59 0.000000 0.707107 -0.707107
-0.055655 -0.118490 -0.322988 88 249 59 0.000000 -1.000000 0.000000
-0.176662 -0.058114 -0.302328 88 249 59 0.000000 1.000000 0.000000
-0.210552 -0.118490 -0.121563 88 249 59 0.000000 -1.000000 0.000000
-0.358472 -0.080717 -0.103632 88 249 59 -0.700813 0.707109 -0.094119
-0.150474 -0.084413 -0.409531 88 249 59 0.000000 0.707107 -0.707107
-0.002338 -0.021886 -0.218755 88 249 59 0.000000 1.000000 0.000000
-0.253158 -0.118490 -0.259419 88 249 59 0.000000 -1.000000 0.000000
-0.150661 -0.046702 -0.303605 88 249 59 -0.650420 0.759575 0.000000
-0.329942 -0.111104 -0.268744 88 249 59 -0.951884 0.000000 -0.306458
-0.161872 -0.118490 -0.338626 88 249 59 0.000000 -1.000000 0.000000
-0.343645 -0.060569 -0.046813 88 249 59 -0.706431 0.707082 -0.031470
-0.067024 -0.021886 -0.041322 88 249 59 0.000000 1.000000 0.000000
-0.210769 -0.058114 -0.358210 88 249 59 0.000000 1.000000 0.000000
-0.068350 -0.118490 -0.020615 88 249 59 0.000000 -1.000000 0.000000
-0.269608 -0.118490 -0.098946 88 249 59 0.000000 -1.000000 0.000000
-0.064364 -0.118490 -0.320999 88 249 59 0.000000 -1.000000 0.000000
