ply
format ascii 1.0
element vertex 709
property float x
property float y
property float z
property uchar red
property uchar green
property uchar blue
property float nx
property float ny
property float nz
end_header
-0.314378 0.785647 0.276902 182 1 82 0.000000 0.000000 -1.000000
-0.308558 0.689931 0.303609 182 1 82 0.998970 -0.045373 0.000000
-0.307399 0.715448 0.315113 182 1 82 0.998970 -0.045373 0.000000
-0.305371 0.760090 0.277036 182 1 82 0.998970 -0.045373 0.000000
-0.330862 0.812467 0.298852 182 1 82 -0.998961 0.045572 0.000000
-0.331008 0.809267 0.294199 182 1 82 -0.998961 0.045572 0.000000
-0.334172 0.900140 0.305060 182 1 82 -0.981370 -0.192126 0.000000
-0.311794 0.928461 0.316284 182 1 82 0.981742 0.190220 0.000000
-0.301550 0.844227 0.284596 182 1 82 0.998970 -0.045373 0.000000
-0.333599 0.752477 0.279076 182 1 82 -0.998961 0.045572 0.000000
-0.334028 0.675335 0.276902 182 1 82 0.000000 0.000000 -1.000000
-0.326282 0.958799 0.307302 182 1 82 -0.008997 0.999960 0.000000
-0.313463 0.937073 0.281788 182 1 82 0.981742 0.190220 0.000000
-0.335231 0.691668 0.276902 182 1 82 0.000000 0.000000 -1.000000
-0.319004 -0.226348 0.168130 86 21 218 0.999881 0.015409 0.000000
-0.348115 -0.153254 0.173751 86 21 218 -0.999881 -0.015416 0.000000
-0.336988 -0.147370 0.154602 86 21 218 0.000000 0.000000 -1.000000
-0.322267 -0.014572 0.174530 86 21 218 0.999881 0.015409 0.000000
-0.317927 -0.296211 0.193233 86 21 218 0.999881 0.015409 0.000000
-0.345416 -0.194391 0.154602 86 21 218 0.000000 0.000000 -1.000000
-0.337455 -0.152607 0.196594 86 21 218 0.000000 0.000000 1.000000
-0.327185 -0.251455 0.154602 86 21 218 0.000000 0.000000 -1.000000
-0.346105 -0.283652 0.155782 86 21 218 -0.999881 -0.015416 0.000000
-0.320592 -0.123306 0.166660 86 21 218 0.999881 0.015409 0.000000
-0.342510 -0.114705 0.196594 86 21 218 0.000000 0.000000 1.000000
-0.348063 -0.156674 0.161796 86 21 218 -0.999881 -0.015416 0.000000
-0.347762 -0.176148 0.163229 86 21 218 -0.999881 -0.015416 0.000000
-0.320882 -0.104490 0.161457 86 21 218 0.999881 0.015409 0.000000
-0.318318 -0.270836 0.179439 86 21 218 0.999881 0.015409 0.000000
-0.350140 -0.021913 0.192464 86 21 218 -0.999881 -0.015416 0.000000
-0.348390 -0.135432 0.192114 86 21 218 -0.999881 -0.015416 0.000000
-0.332162 -0.295020 0.196594 86 21 218 0.000000 0.000000 1.000000
-0.349280 -0.077708 0.161255 86 21 218 -0.999881 -0.015416 0.000000
-0.345685 -0.024289 0.196594 86 21 218 0.000000 0.000000 1.000000
-0.328825 -0.019329 0.196594 86 21 218 0.000000 0.000000 1.000000
-0.319152 -0.216710 0.172903 86 21 218 0.999881 0.015409 0.000000
-0.329869 -0.000976 0.154602 86 21 218 0.000000 0.000000 -1.000000
-0.349437 -0.067527 0.165398 86 21 218 -0.999881 -0.015416 0.000000
-0.327217 -0.135514 0.196594 86 21 218 0.000000 0.000000 1.000000
-0.337591 -0.196141 0.154602 86 21 218 0.000000 0.000000 -1.000000
-0.341185 -0.044249 0.154602 86 21 218 0.000000 0.000000 -1.000000
-0.321635 -0.055596 0.167277 86 21 218 0.999881 0.015409 0.000000
-0.318342 -0.269328 0.158513 86 21 218 0.999881 0.015409 0.000000
-0.318073 -0.286785 0.190871 86 21 218 0.999881 0.015409 0.000000
-0.327059 -0.191147 0.196594 86 21 218 0.000000 0.000000 1.000000
-0.324874 -0.122128 0.154602 86 21 218 0.000000 0.000000 -1.000000
-0.349138 -0.086957 0.172642 86 21 218 -0.999881 -0.015416 0.000000
-0.320264 -0.144581 0.193840 86 21 218 0.999881 0.015409 0.000000
-0.347128 -0.217299 0.191113 86 21 218 -0.999881 -0.015416 0.000000
-0.319128 -0.218301 0.184076 86 21 218 0.999881 0.015409 0.000000
-0.332565 -0.085028 0.196594 86 21 218 0.000000 0.000000 1.000000
-0.336132 -0.132291 0.196594 86 21 218 0.000000 0.000000 1.000000
-0.327096 -0.051752 0.154602 86 21 218 0.000000 0.000000 -1.000000
-0.322051 -0.028585 0.194085 86 21 218 0.999881 0.015409 0.000000
-0.322580 -0.222833 0.196594 86 21 218 0.000000 0.000000 1.000000
-0.347368 -0.201743 0.172183 86 21 218 -0.999881 -0.015416 0.000000
-0.349722 -0.049043 0.164539 86 21 218 -0.999881 -0.015416 0.000000
-0.328975 -0.147287 0.154602 86 21 218 0.000000 0.000000 -1.000000
-0.319795 -0.174994 0.195848 86 21 218 0.999881 0.015409 0.000000
-0.350254 -0.014533 0.164619 86 21 218 -0.999881 -0.015416 0.000000
-0.344319 -0.161501 0.154602 86 21 218 0.000000 0.000000 -1.000000
-0.349568 -0.059053 0.179982 86 21 218 -0.999881 -0.015416 0.000000
-0.338757 -0.002463 0.196594 86 21 218 0.000000 0.000000 1.000000
-0.349131 -0.087391 0.175004 86 21 218 -0.999881 -0.015416 0.000000
-0.320372 -0.137555 0.167016 86 21 218 0.999881 0.015409 0.000000
-0.318660 -0.248683 0.173079 86 21 218 0.999881 0.015409 0.000000
-0.337142 -0.120251 0.154602 86 21 218 0.000000 0.000000 -1.000000
-0.322364 -0.008315 0.185154 86 21 218 0.999881 0.015409 0.000000
-0.318447 -0.262467 0.169979 86 21 218 0.999881 0.015409 0.000000
-0.325118 -0.165179 0.196594 86 21 218 0.000000 0.000000 1.000000
-0.349171 -0.084785 0.188093 86 21 218 -0.999881 -0.015416 0.000000
-0.349017 -0.094802 0.181839 86 21 218 -0.999881 -0.015416 0.000000
-0.345892 -0.236390 0.154602 86 21 218 0.000000 0.000000 -1.000000
-0.337724 -0.298818 0.196594 86 21 218 0.000000 0.000000 1.000000
-0.323809 -0.129904 0.154602 86 21 218 0.000000 0.000000 -1.000000
-0.333956 -0.242765 0.154602 86 21 218 0.000000 0.000000 -1.000000
-0.335851 -0.074784 0.154602 86 21 218 0.000000 0.000000 -1.000000
-0.339878 -0.234816 0.196594 86 21 218 0.000000 0.000000 1.000000
-0.334110 -0.004348 0.196594 86 21 218 0.000000 0.000000 1.000000
-0.348553 -0.124883 0.185204 86 21 218 -0.999881 -0.015416 0.000000
-0.350071 -0.026429 0.157043 86 21 218 -0.999881 -0.015416 0.000000
-0.337209 -0.190707 0.196594 86 21 218 0.000000 0.000000 1.000000
-0.320713 -0.115431 0.183404 86 21 218 0.999881 0.015409 0.000000
-0.320736 -0.113962 0.170062 86 21 218 0.999881 0.015409 0.000000
-0.341841 -0.174730 0.196594 86 21 218 0.000000 0.000000 1.000000
-0.349515 -0.062499 0.170335 86 21 218 -0.999881 -0.015416 0.000000
-0.347375 -0.201283 0.178813 86 21 218 -0.999881 -0.015416 0.000000
-0.349531 -0.061470 0.155901 86 21 218 -0.999881 -0.015416 0.000000
-0.322626 0.008715 0.167579 86 21 218 0.999881 0.015409 0.000000
-0.322223 -0.017458 0.158105 86 21 218 0.999881 0.015409 0.000000
-0.349179 -0.001958 0.196594 86 21 218 0.000000 0.000000 1.000000
-0.318217 -0.277436 0.166005 86 21 218 0.999881 0.015409 0.000000
-0.348403 -0.134575 0.167008 86 21 218 -0.999881 -0.015416 0.000000
-0.328332 -0.188838 0.196594 86 21 218 0.000000 0.000000 1.000000
-0.344142 -0.130329 0.196594 86 21 218 0.000000 0.000000 1.000000
-0.348717 -0.114215 0.163076 86 21 218 -0.999881 -0.015416 0.000000
-0.323587 -0.283002 0.154602 86 21 218 0.000000 0.000000 -1.000000
-0.350485 0.000431 0.164075 86 21 218 -0.999881 -0.015416 0.000000
-0.320462 -0.131723 0.156847 86 21 218 0.999881 0.015409 0.000000
-0.348588 -0.015886 0.154602 86 21 218 0.000000 0.000000 -1.000000
-0.326337 -0.206448 0.196594 86 21 218 0.000000 0.000000 1.000000
-0.321463 -0.066784 0.159567 86 21 218 0.999881 0.015409 0.000000
-0.318729 -0.244203 0.193029 86 21 218 0.999881 0.015409 0.000000
-0.349585 -0.057924 0.187459 86 21 218 -0.999881 -0.015416 0.000000
-0.318559 -0.255224 0.172934 86 21 218 0.999881 0.015409 0.000000
-0.320905 -0.102994 0.178976 86 21 218 0.999881 0.015409 0.000000
-0.318832 -0.237507 0.158463 86 21 218 0.999881 0.015409 0.000000
-0.346763 -0.240998 0.190678 86 21 218 -0.999881 -0.015416 0.000000
-0.346787 0.011457 0.196594 86 21 218 0.000000 0.000000 1.000000
-0.342276 0.069831 0.196594 115 235 219 0.000000 0.000000 1.000000
-0.352946 0.160028 0.185220 115 235 219 -0.999881 -0.015416 0.000000
-0.325221 0.323071 0.163261 115 235 219 0.998970 -0.045373 0.000000
-0.350920 0.028660 0.163155 115 235 219 -0.999881 -0.015416 0.000000
-0.323026 0.034636 0.167982 115 235 219 0.999881 0.015409 0.000000
-0.353834 0.217616 0.170891 115 235 219 -0.999881 -0.015416 0.000000
-0.347998 0.158142 0.196594 115 235 219 0.000000 0.000000 1.000000
-0.325557 0.315678 0.163893 115 235 219 0.998970 -0.045373 0.000000
-0.323764 0.082569 0.191108 115 235 219 0.999881 0.015409 0.000000
-0.350829 0.022730 0.195624 115 235 219 -0.999881 -0.015416 0.000000
-0.345294 0.257636 0.154602 115 235 219 0.000000 0.000000 -1.000000
-0.350758 0.018154 0.174376 115 235 219 -0.999881 -0.015416 0.000000
-0.353392 0.188985 0.189018 115 235 219 -0.999881 -0.015416 0.000000
-0.329523 0.153766 0.154602 115 235 219 0.000000 0.000000 -1.000000
-0.345282 0.153352 0.196594 115 235 219 0.000000 0.000000 1.000000
-0.351319 0.054505 0.154902 115 235 219 -0.999881 -0.015416 0.000000
-0.323294 0.052014 0.168409 115 235 219 0.999881 0.015409 0.000000
-0.353613 0.203337 0.157440 115 235 219 -0.999881 -0.015416 0.000000
-0.338195 0.166393 0.196594 115 235 219 0.000000 0.000000 1.000000
-0.353730 0.210911 0.178630 115 235 219 -0.999881 -0.015416 0.000000
-0.345381 0.017791 0.154602 115 235 219 0.000000 0.000000 -1.000000
-0.331924 0.203345 0.196594 115 235 219 0.000000 0.000000 1.000000
-0.325488 0.194397 0.158987 115 235 219 0.999881 0.015409 0.000000
-0.341266 0.058711 0.154602 115 235 219 0.000000 0.000000 -1.000000
-0.353269 0.180994 0.193713 115 235 219 -0.999881 -0.015416 0.000000
-0.352870 0.319166 0.154602 115 235 219 0.000000 0.000000 -1.000000
-0.337916 0.166585 0.196594 115 235 219 0.000000 0.000000 1.000000
-0.353074 0.168338 0.160514 115 235 219 -0.999881 -0.015416 0.000000
-0.324980 0.158874 0.196594 115 235 219 0.000000 0.000000 1.000000
-0.333707 0.114170 0.154602 115 235 219 0.000000 0.000000 -1.000000
-0.353531 0.198007 0.159490 115 235 219 -0.999881 -0.015416 0.000000
-0.326669 0.270793 0.192213 115 235 219 0.999877 0.015685 0.000000
-0.350569 0.242861 0.154602 115 235 219 0.000000 0.000000 -1.000000
-0.337628 0.040797 0.196594 115 235 219 0.000000 0.000000 1.000000
-0.351150 0.043573 0.176372 115 235 219 -0.999881 -0.015416 0.000000
-0.322813 0.020821 0.186897 115 235 219 0.999881 0.015409 0.000000
-0.353203 0.176715 0.160660 115 235 219 -0.999881 -0.015416 0.000000
-0.324727 0.145025 0.193821 115 235 219 0.999881 0.015409 0.000000
-0.352531 0.133123 0.191295 115 235 219 -0.999881 -0.015416 0.000000
-0.326488 0.259226 0.185702 115 235 219 0.999877 0.015685 0.000000
-0.325151 0.324618 0.160364 115 235 219 0.998970 -0.045373 0.000000
-0.341861 0.166026 0.196594 115 235 219 0.000000 0.000000 1.000000
-0.343733 0.090691 0.154602 115 235 219 0.000000 0.000000 -1.000000
-0.351690 0.078561 0.187652 115 235 219 -0.999881 -0.015416 0.000000
-0.324871 0.154378 0.156402 115 235 219 0.999881 0.015409 0.000000
-0.354863 0.286197 0.169651 115 235 219 -0.998970 0.045378 0.000000
-0.353482 0.194820 0.194116 115 235 219 -0.999881 -0.015416 0.000000
-0.332993 0.134533 0.154602 115 235 219 0.000000 0.000000 -1.000000
-0.324020 0.099138 0.187748 115 235 219 0.999881 0.015409 0.000000
-0.326699 0.272679 0.168813 115 235 219 0.999877 0.015685 0.000000
-0.354699 0.289821 0.176502 115 235 219 -0.998970 0.045378 0.000000
-0.344840 0.324688 0.154602 115 235 219 0.000000 0.000000 -1.000000
-0.334472 0.229639 0.196594 115 235 219 0.000000 0.000000 1.000000
-0.325492 0.194685 0.174696 115 235 219 0.999881 0.015409 0.000000
-0.343640 0.210889 0.154602 115 235 219 0.000000 0.000000 -1.000000
-0.326699 0.055670 0.154602 115 235 219 0.000000 0.000000 -1.000000
-0.323118 0.040642 0.185922 115 235 219 0.999881 0.015409 0.000000
-0.353355 0.319414 0.183512 115 235 219 -0.998970 0.045378 0.000000
-0.340363 0.157666 0.154602 115 235 219 0.000000 0.000000 -1.000000
-0.351889 0.091509 0.159648 115 235 219 -0.999881 -0.015416 0.000000
-0.326822 0.280552 0.157238 115 235 219 0.999877 0.015685 0.000000
-0.351223 0.048311 0.186168 115 235 219 -0.999881 -0.015416 0.000000
-0.353078 0.168622 0.162958 115 235 219 -0.999881 -0.015416 0.000000
-0.324281 0.116068 0.193637 115 235 219 0.999881 0.015409 0.000000
-0.336970 0.121042 0.154602 115 235 219 0.000000 0.000000 -1.000000
-0.325770 0.212736 0.195529 115 235 219 0.999881 0.015409 0.000000
-0.354542 0.263821 0.164235 115 235 219 -0.999887 -0.015057 0.000000
-0.337328 0.267195 0.196594 115 235 219 0.000000 0.000000 1.000000
-0.336004 0.141195 0.154602 115 235 219 0.000000 0.000000 -1.000000
-0.328593 0.181651 0.154602 115 235 219 0.000000 0.000000 -1.000000
-0.337276 0.202842 0.196594 115 235 219 0.000000 0.000000 1.000000
-0.324014 0.098767 0.157528 115 235 219 0.999881 0.015409 0.000000
-0.344074 0.091839 0.154602 115 235 219 0.000000 0.000000 -1.000000
-0.326550 0.263195 0.182533 115 235 219 0.999877 0.015685 0.000000
-0.346365 0.175904 0.154602 115 235 219 0.000000 0.000000 -1.000000
-0.353515 0.196972 0.189966 115 235 219 -0.999881 -0.015416 0.000000
-0.324561 0.134284 0.170911 115 235 219 0.999881 0.015409 0.000000
-0.350713 0.015231 0.157362 115 235 219 -0.999881 -0.015416 0.000000
-0.332666 0.287046 0.154602 115 235 219 0.000000 0.000000 -1.000000
-0.353232 0.178626 0.174265 115 235 219 -0.999881 -0.015416 0.000000
-0.353676 0.207367 0.158410 115 235 219 -0.999881 -0.015416 0.000000
-0.324358 0.121088 0.176318 115 235 219 0.999881 0.015409 0.000000
-0.331440 0.045291 0.196594 115 235 219 0.000000 0.000000 1.000000
-0.351360 0.057187 0.164180 115 235 219 -0.999881 -0.015416 0.000000
-0.332071 0.165413 0.154602 115 235 219 0.000000 0.000000 -1.000000
-0.351813 0.086594 0.181341 115 235 219 -0.999881 -0.015416 0.000000
-0.339089 0.148901 0.154602 115 235 219 0.000000 0.000000 -1.000000
-0.325062 0.166789 0.186555 115 235 219 0.999881 0.015409 0.000000
-0.351469 0.064252 0.181474 115 235 219 -0.999881 -0.015416 0.000000
-0.325246 0.178684 0.194613 115 235 219 0.999881 0.015409 0.000000
-0.329927 0.213223 0.154602 115 235 219 0.000000 0.000000 -1.000000
-0.333126 0.250302 0.154602 115 235 219 0.000000 0.000000 -1.000000
-0.324827 0.151499 0.166288 115 235 219 0.999881 0.015409 0.000000
-0.326347 0.250133 0.180257 115 235 219 0.999881 0.015409 0.000000
-0.353834 0.217668 0.191154 115 235 219 -0.999881 -0.015416 0.000000
-0.323579 0.070525 0.172347 115 235 219 0.999881 0.015409 0.000000
-0.354723 0.289295 0.186420 115 235 219 -0.998970 0.045378 0.000000
-0.326848 0.282164 0.175012 115 235 219 0.999877 0.015685 0.000000
-0.348805 0.181828 0.154602 115 235 219 0.000000 0.000000 -1.000000
-0.325301 0.182272 0.166679 115 235 219 0.999881 0.015409 0.000000
-0.332389 0.294860 0.196594 115 235 219 0.000000 0.000000 1.000000
-0.331553 0.271083 0.196594 115 235 219 0.000000 0.000000 1.000000
-0.334974 0.604246 0.196594 147 206 176 0.000000 0.000000 1.000000
-0.316602 0.512830 0.180151 147 206 176 0.998970 -0.045373 0.000000
-0.317407 0.495106 0.156188 147 206 176 0.998970 -0.045373 0.000000
-0.323354 0.561996 0.154602 147 206 176 0.000000 0.000000 -1.000000
-0.343414 0.537313 0.183075 147 206 176 -0.998961 0.045572 0.000000
-0.321416 0.406845 0.191239 147 206 176 0.998970 -0.045373 0.000000
-0.344187 0.441132 0.196594 147 206 176 0.000000 0.000000 1.000000
-0.346180 0.434730 0.196594 147 206 176 0.000000 0.000000 1.000000
-0.335058 0.380788 0.154602 147 206 176 0.000000 0.000000 -1.000000
-0.319186 0.455949 0.158635 147 206 176 0.998970 -0.045373 0.000000
-0.314474 0.559680 0.164514 147 206 176 0.998970 -0.045373 0.000000
-0.327440 0.621246 0.154602 147 206 176 0.000000 0.000000 -1.000000
-0.325609 0.362030 0.154602 147 206 176 0.000000 0.000000 -1.000000
-0.322620 0.562519 0.154602 147 206 176 0.000000 0.000000 -1.000000
-0.340803 0.594551 0.160845 147 206 176 -0.998961 0.045572 0.000000
-0.344241 0.519198 0.176455 147 206 176 -0.998961 0.045572 0.000000
-0.316242 0.559334 0.154602 147 206 176 0.000000 0.000000 -1.000000
-0.317707 0.488496 0.193791 147 206 176 0.998970 -0.045373 0.000000
-0.345420 0.366412 0.196594 147 206 176 0.000000 0.000000 1.000000
-0.330014 0.538679 0.154602 147 206 176 0.000000 0.000000 -1.000000
-0.325261 0.385234 0.196594 147 206 176 0.000000 0.000000 1.000000
-0.346066 0.479179 0.185582 147 206 176 -0.998961 0.045572 0.000000
-0.318850 0.463331 0.194145 147 206 176 0.998970 -0.045373 0.000000
-0.319781 0.442842 0.180423 147 206 176 0.998970 -0.045373 0.000000
-0.347968 0.437497 0.191469 147 206 176 -0.998961 0.045572 0.000000
-0.324388 0.341401 0.188443 147 206 176 0.998970 -0.045373 0.000000
-0.328082 0.510538 0.154602 147 206 176 0.000000 0.000000 -1.000000
-0.334834 0.428035 0.196594 147 206 176 0.000000 0.000000 1.000000
-0.321532 0.518708 0.154602 147 206 176 0.000000 0.000000 -1.000000
-0.341130 0.587390 0.186773 147 206 176 -0.998961 0.045572 0.000000
-0.324444 0.340187 0.166404 147 206 176 0.998970 -0.045373 0.000000
-0.313213 0.587444 0.177852 147 206 176 0.998970 -0.045373 0.000000
-0.332407 0.571944 0.196594 147 206 176 0.000000 0.000000 1.000000
-0.324096 0.347847 0.159165 147 206 176 0.998970 -0.045373 0.000000
-0.329373 0.437433 0.154602 147 206 176 0.000000 0.000000 -1.000000
-0.313872 0.594290 0.154602 147 206 176 0.000000 0.000000 -1.000000
-0.341955 0.569307 0.182590 147 206 176 -0.998961 0.045572 0.000000
-0.343611 0.533010 0.168447 147 206 176 -0.998961 0.045572 0.000000
-0.343592 0.356687 0.154602 147 206 176 0.000000 0.000000 -1.000000
-0.352518 0.337717 0.154602 147 206 176 0.000000 0.000000 -1.000000
-0.319352 0.452288 0.161560 147 206 176 0.998970 -0.045373 0.000000
-0.319579 0.498268 0.154602 147 206 176 0.000000 0.000000 -1.000000
-0.324460 0.339826 0.170897 147 206 176 0.998970 -0.045373 0.000000
-0.339211 0.502796 0.196594 147 206 176 0.000000 0.000000 1.000000
-0.342900 0.548586 0.156605 147 206 176 -0.998961 0.045572 0.000000
-0.347611 0.342523 0.154602 147 206 176 0.000000 0.000000 -1.000000
-0.323525 0.360411 0.162614 147 206 176 0.998970 -0.045373 0.000000
-0.338895 0.461488 0.154602 147 206 176 0.000000 0.000000 -1.000000
-0.315672 0.533296 0.175782 147 206 176 0.998970 -0.045373 0.000000
-0.344223 0.519589 0.171195 147 206 176 -0.998961 0.045572 0.000000
-0.318859 0.601934 0.154602 147 206 176 0.000000 0.000000 -1.000000
-0.341635 0.576324 0.173277 147 206 176 -0.998961 0.045572 0.000000
-0.328071 0.385713 0.196594 147 206 176 0.000000 0.000000 1.000000
-0.339276 0.628017 0.179607 147 206 176 -0.998961 0.045572 0.000000
-0.323560 0.359648 0.195092 147 206 176 0.998970 -0.045373 0.000000
-0.343396 0.537713 0.176685 147 206 176 -0.998961 0.045572 0.000000
-0.348099 0.434611 0.192555 147 206 176 -0.998961 0.045572 0.000000
-0.324652 0.382718 0.196594 147 206 176 0.000000 0.000000 1.000000
-0.335759 0.390608 0.196594 147 206 176 0.000000 0.000000 1.000000
-0.342443 0.377422 0.196594 147 206 176 0.000000 0.000000 1.000000
-0.321849 0.527451 0.154602 147 206 176 0.000000 0.000000 -1.000000
-0.320442 0.428279 0.157098 147 206 176 0.998970 -0.045373 0.000000
-0.352148 0.345862 0.161891 147 206 176 -0.998961 0.045572 0.000000
-0.322604 0.380697 0.175485 147 206 176 0.998970 -0.045373 0.000000
-0.344070 0.522943 0.185177 147 206 176 -0.998961 0.045572 0.000000
-0.319958 0.438934 0.185893 147 206 176 0.998970 -0.045373 0.000000
-0.335703 0.419060 0.196594 147 206 176 0.000000 0.000000 1.000000
-0.345225 0.497626 0.163410 147 206 176 -0.998961 0.045572 0.000000
-0.342191 0.564119 0.168306 147 206 176 -0.998961 0.045572 0.000000
-0.339414 0.379882 0.154602 147 206 176 0.000000 0.000000 -1.000000
-0.315590 0.535104 0.194064 147 206 176 0.998970 -0.045373 0.000000
-0.317400 0.495270 0.193518 147 206 176 0.998970 -0.045373 0.000000
-0.322396 0.443163 0.196594 147 206 176 0.000000 0.000000 1.000000
-0.344006 0.524338 0.159820 147 206 176 -0.998961 0.045572 0.000000
-0.342145 0.565131 0.191524 147 206 176 -0.998961 0.045572 0.000000
-0.332637 0.465802 0.154602 147 206 176 0.000000 0.000000 -1.000000
-0.328883 0.366440 0.154602 147 206 176 0.000000 0.000000 -1.000000
-0.341280 0.584090 0.182955 147 206 176 -0.998961 0.045572 0.000000
-0.341475 0.579811 0.166564 147 206 176 -0.998961 0.045572 0.000000
-0.338454 0.610585 0.196594 147 206 176 0.000000 0.000000 1.000000
-0.321668 0.401297 0.176236 147 206 176 0.998970 -0.045373 0.000000
-0.345012 0.341485 0.196594 147 206 176 0.000000 0.000000 1.000000
-0.321224 0.509249 0.154602 147 206 176 0.000000 0.000000 -1.000000
-0.311842 0.617638 0.170337 147 206 176 0.998970 -0.045373 0.000000
-0.313962 0.570957 0.157543 147 206 176 0.998970 -0.045373 0.000000
-0.322572 0.486212 0.196594 147 206 176 0.000000 0.000000 1.000000
-0.327268 0.516029 0.154602 147 206 176 0.000000 0.000000 -1.000000
-0.327275 0.513690 0.154602 147 206 176 0.000000 0.000000 -1.000000
-0.314797 0.552576 0.185490 147 206 176 0.998970 -0.045373 0.000000
-0.325066 0.527909 0.154602 147 206 176 0.000000 0.000000 -1.000000
-0.326006 0.556636 0.154602 147 206 176 0.000000 0.000000 -1.000000
-0.316063 0.524698 0.178040 147 206 176 0.998970 -0.045373 0.000000
-0.349803 0.397273 0.184541 147 206 176 -0.998961 0.045572 0.000000
-0.320243 0.432664 0.187000 147 206 176 0.998970 -0.045373 0.000000
-0.344564 0.496596 0.196594 147 206 176 0.000000 0.000000 1.000000
-0.337414 0.504656 0.196594 147 206 176 0.000000 0.000000 1.000000
-0.328551 0.447040 0.196594 147 206 176 0.000000 0.000000 1.000000
-0.320456 0.427988 0.165741 147 206 176 0.998970 -0.045373 0.000000
-0.340422 0.602910 0.176604 147 206 176 -0.998961 0.045572 0.000000
-0.324520 0.338509 0.194154 147 206 176 0.998970 -0.045373 0.000000
-0.342140 0.565249 0.167527 147 206 176 -0.998961 0.045572 0.000000
-0.346777 0.463601 0.167124 147 206 176 -0.998961 0.045572 0.000000
-0.337330 0.568273 0.196594 147 206 176 0.000000 0.000000 1.000000
-0.335595 0.481751 0.154602 147 206 176 0.000000 0.000000 -1.000000
-0.346047 0.479606 0.162588 147 206 176 -0.998961 0.045572 0.000000
-0.350993 0.371178 0.159386 147 206 176 -0.998961 0.045572 0.000000
-0.324738 0.333714 0.176484 147 206 176 0.998970 -0.045373 0.000000
-0.318193 0.477806 0.173031 147 206 176 0.998970 -0.045373 0.000000
-0.311241 0.630860 0.188305 147 206 176 0.998970 -0.045373 0.000000
-0.334984 0.360574 0.196594 147 206 176 0.000000 0.000000 1.000000
-0.312424 0.604819 0.181547 147 206 176 0.998970 -0.045373 0.000000
-0.316128 0.523268 0.159057 147 206 176 0.998970 -0.045373 0.000000
-0.346266 0.474797 0.165503 147 206 176 -0.998961 0.045572 0.000000
-0.351260 0.365320 0.174100 147 206 176 -0.998961 0.045572 0.000000
-0.343529 0.534805 0.195453 147 206 176 -0.998961 0.045572 0.000000
-0.339233 0.423553 0.154602 147 206 176 0.000000 0.000000 -1.000000
-0.318864 0.463040 0.164607 147 206 176 0.998970 -0.045373 0.000000
-0.347436 0.449158 0.156186 147 206 176 -0.998961 0.045572 0.000000
-0.344290 0.518112 0.177721 147 206 176 -0.998961 0.045572 0.000000
-0.321463 0.405798 0.159277 147 206 176 0.998970 -0.045373 0.000000
-0.343612 0.532976 0.194223 147 206 176 -0.998961 0.045572 0.000000
-0.323166 0.368316 0.174356 147 206 176 0.998970 -0.045373 0.000000
-0.351743 0.354751 0.181008 147 206 176 -0.998961 0.045572 0.000000
-0.334534 0.731965 0.167462 48 65 142 -0.998961 0.045572 0.000000
-0.330425 0.716485 0.154602 48 65 142 0.000000 0.000000 -1.000000
-0.333394 0.756955 0.194430 48 65 142 -0.998961 0.045572 0.000000
-0.314812 0.772489 0.154602 48 65 142 0.000000 0.000000 -1.000000
-0.328102 0.868696 0.177772 48 65 142 -0.999665 -0.025901 0.000000
-0.329042 0.850095 0.158680 48 65 142 -0.996448 0.084215 0.000000
-0.330423 0.822092 0.157268 48 65 142 -0.998961 0.045572 0.000000
-0.329414 0.878006 0.154714 48 65 142 -0.972857 -0.231408 0.000000
-0.328792 0.762869 0.154602 48 65 142 0.000000 0.000000 -1.000000
-0.335252 0.684842 0.196594 48 65 142 0.000000 0.000000 1.000000
-0.336127 0.697060 0.171494 48 65 142 -0.998961 0.045572 0.000000
-0.303983 0.790655 0.162263 48 65 142 0.998970 -0.045373 0.000000
-0.302180 0.830362 0.181852 48 65 142 0.998970 -0.045373 0.000000
-0.307718 0.708417 0.171947 48 65 142 0.998970 -0.045373 0.000000
-0.320187 0.703301 0.196594 48 65 142 0.000000 0.000000 1.000000
-0.331472 0.886606 0.177609 48 65 142 -0.977221 -0.212225 0.000000
-0.307874 0.783190 0.154602 48 65 142 0.000000 0.000000 -1.000000
-0.301564 0.843921 0.165742 48 65 142 0.998970 -0.045373 0.000000
-0.322664 0.815404 0.196594 48 65 142 0.000000 0.000000 1.000000
-0.314138 0.874525 0.154602 48 65 142 0.000000 0.000000 -1.000000
-0.317507 0.702845 0.154602 48 65 142 0.000000 0.000000 -1.000000
-0.322897 0.930674 0.196594 48 65 142 0.000000 0.000000 1.000000
-0.333134 0.894835 0.188178 48 65 142 -0.981370 -0.192126 0.000000
-0.334037 0.742873 0.177460 48 65 142 -0.998961 0.045572 0.000000
-0.343642 0.948510 0.184765 48 65 142 -0.981370 -0.192126 0.000000
-0.329529 0.650768 0.154602 48 65 142 0.000000 0.000000 -1.000000
-0.338080 0.654243 0.189855 48 65 142 -0.998961 0.045572 0.000000
-0.329651 0.839006 0.160647 48 65 142 -0.998961 0.045572 0.000000
-0.322139 0.696067 0.196594 48 65 142 0.000000 0.000000 1.000000
-0.303876 0.840764 0.154602 48 65 142 0.000000 0.000000 -1.000000
-0.333444 0.727528 0.154602 48 65 142 0.000000 0.000000 -1.000000
-0.328070 0.864523 0.172978 48 65 142 -0.999703 0.024383 0.000000
-0.333506 0.754504 0.193911 48 65 142 -0.998961 0.045572 0.000000
-0.317669 0.798657 0.196594 48 65 142 0.000000 0.000000 1.000000
-0.306236 0.897965 0.196594 48 65 142 0.000000 0.000000 1.000000
-0.321776 0.859383 0.196594 48 65 142 0.000000 0.000000 1.000000
-0.308326 0.834542 0.154602 48 65 142 0.000000 0.000000 -1.000000
-0.335734 0.705661 0.155832 48 65 142 -0.998961 0.045572 0.000000
-0.334920 0.903960 0.177013 48 65 142 -0.981370 -0.192126 0.000000
-0.336626 0.686108 0.159096 48 65 142 -0.998961 0.045572 0.000000
-0.329349 0.845579 0.170600 48 65 142 -0.998266 0.058870 0.000000
-0.307453 0.714255 0.164492 48 65 142 0.998970 -0.045373 0.000000
-0.304872 0.771090 0.188598 48 65 142 0.998970 -0.045373 0.000000
-0.334961 0.722623 0.191962 48 65 142 -0.998961 0.045572 0.000000
-0.331185 0.805384 0.177110 48 65 142 -0.998961 0.045572 0.000000
-0.306097 0.744110 0.157825 48 65 142 0.998970 -0.045373 0.000000
-0.330249 0.825904 0.156871 48 65 142 -0.998961 0.045572 0.000000
-0.301789 0.838972 0.159454 48 65 142 0.998970 -0.045373 0.000000
-0.304006 0.790153 0.172511 48 65 142 0.998970 -0.045373 0.000000
-0.307934 0.908541 0.162742 48 65 142 0.981742 0.190220 0.000000
-0.301505 0.875285 0.162414 48 65 142 0.986706 0.162516 0.000000
-0.334380 0.901204 0.164208 48 65 142 -0.981370 -0.192126 0.000000
-0.324213 0.732516 0.154602 48 65 142 0.000000 0.000000 -1.000000
-0.334335 0.946489 0.196594 48 65 142 0.000000 0.000000 1.000000
-0.300934 0.871018 0.164318 48 65 142 0.995137 0.098497 0.000000
-0.327273 0.663056 0.154602 48 65 142 0.000000 0.000000 -1.000000
-0.310349 0.650496 0.167548 48 65 142 0.998970 -0.045373 0.000000
-0.332115 0.784989 0.189280 48 65 142 -0.998961 0.045572 0.000000
-0.310720 0.658202 0.154602 48 65 142 0.000000 0.000000 -1.000000
-0.301954 0.835325 0.194339 48 65 142 0.998970 -0.045373 0.000000
-0.312770 0.744903 0.196594 48 65 142 0.000000 0.000000 1.000000
-0.330653 0.817051 0.177144 48 65 142 -0.998961 0.045572 0.000000
-0.313357 0.936528 0.195996 48 65 142 0.981742 0.190220 0.000000
-0.325004 0.901236 0.154602 48 65 142 0.000000 0.000000 -1.000000
-0.314573 0.842129 0.196594 48 65 142 0.000000 0.000000 1.000000
-0.328977 0.850862 0.160856 48 65 142 -0.996448 0.084215 0.000000
-0.305346 0.811547 0.154602 48 65 142 0.000000 0.000000 -1.000000
-0.321127 0.680482 0.196594 48 65 142 0.000000 0.000000 1.000000
-0.337189 0.673772 0.158809 48 65 142 -0.998961 0.045572 0.000000
-0.314629 0.943096 0.160788 48 65 142 0.981742 0.190220 0.000000
-0.332716 0.704716 0.196594 48 65 142 0.000000 0.000000 1.000000
-0.333105 0.763303 0.157631 48 65 142 -0.998961 0.045572 0.000000
-0.331194 0.799128 0.154602 48 65 142 0.000000 0.000000 -1.000000
-0.333452 0.755681 0.179192 48 65 142 -0.998961 0.045572 0.000000
-0.316122 0.800570 0.154602 48 65 142 0.000000 0.000000 -1.000000
-0.334248 0.738248 0.177104 48 65 142 -0.998961 0.045572 0.000000
-0.331456 0.886530 0.171694 48 65 142 -0.977221 -0.212225 0.000000
-0.309755 0.917937 0.175083 48 65 142 0.981742 0.190220 0.000000
-0.338093 0.653965 0.185682 48 65 142 -0.998961 0.045572 0.000000
-0.329084 0.849599 0.193204 48 65 142 -0.996448 0.084215 0.000000
-0.309262 0.915394 0.158882 48 65 142 0.981742 0.190220 0.000000
-0.306241 0.740939 0.190725 48 65 142 0.998970 -0.045373 0.000000
-0.305857 0.897821 0.160720 48 65 142 0.981742 0.190220 0.000000
-0.307986 0.702529 0.196074 48 65 142 0.998970 -0.045373 0.000000
-0.309545 0.903383 0.154602 48 65 142 0.000000 0.000000 -1.000000
-0.322884 0.908173 0.154602 48 65 142 0.000000 0.000000 -1.000000
-0.312212 0.862033 0.154602 48 65 142 0.000000 0.000000 -1.000000
-0.341364 0.936878 0.178506 48 65 142 -0.981370 -0.192126 0.000000
-0.304719 0.774452 0.176834 48 65 142 0.998970 -0.045373 0.000000
-0.302814 0.816394 0.176451 48 65 142 0.998970 -0.045373 0.000000
-0.320815 0.880970 0.154602 48 65 142 0.000000 0.000000 -1.000000
-0.306803 0.800382 0.154602 48 65 142 0.000000 0.000000 -1.000000
-0.306081 0.744464 0.174903 48 65 142 0.998970 -0.045373 0.000000
-0.336777 0.682808 0.180754 48 65 142 -0.998961 0.045572 0.000000
-0.310733 0.642046 0.169804 48 65 142 0.998970 -0.045373 0.000000
-0.330914 0.811316 0.190202 48 65 142 -0.998961 0.045572 0.000000
-0.305825 0.750097 0.190630 48 65 142 0.998970 -0.045373 0.000000
-0.334198 0.739333 0.186003 48 65 142 -0.998961 0.045572 0.000000
-0.310304 0.651493 0.163514 48 65 142 0.998970 -0.045373 0.000000
-0.343998 0.950333 0.185529 48 65 142 -0.981370 -0.192126 0.000000
-0.323361 0.738933 0.196594 48 65 142 0.000000 0.000000 1.000000
-0.336760 0.681295 0.154602 48 65 142 0.000000 0.000000 -1.000000
-0.326793 0.864081 0.154602 48 65 142 0.000000 0.000000 -1.000000
-0.310273 0.784072 0.154602 48 65 142 0.000000 0.000000 -1.000000
-0.328093 0.863565 0.183966 48 65 142 -0.999703 0.024383 0.000000
0.372000 -0.893079 -0.401063 179 60 54 0.682597 0.000000 0.730795
0.337027 -0.908830 -0.467885 179 60 54 0.000000 0.000000 -1.000000
0.374340 -0.949130 -0.405387 179 60 54 1.000000 0.000000 0.000000
0.356538 -0.898233 -0.467885 179 60 54 0.000000 0.000000 -1.000000
0.354350 -0.970097 -0.467885 179 60 54 0.000000 0.000000 -1.000000
0.374340 -0.966980 -0.448625 179 60 54 1.000000 0.000000 0.000000
0.374340 -0.963329 -0.455561 179 60 54 1.000000 0.000000 0.000000
0.320511 -1.000000 -0.442292 179 60 54 0.000000 -1.000000 0.000000
0.325849 -0.964224 -0.398009 179 60 54 0.000000 0.000000 1.000000
0.374340 -0.967485 -0.441817 179 60 54 1.000000 0.000000 0.000000
0.313414 -0.898244 -0.399161 179 60 54 -0.683637 0.000000 0.729822
0.314657 -0.950858 -0.467885 179 60 54 0.000000 0.000000 -1.000000
0.309050 -0.919396 -0.431837 179 60 54 -1.000000 0.000000 0.000000
0.374340 -0.960009 -0.408946 179 60 54 1.000000 0.000000 0.000000
0.322575 -0.915542 -0.467885 179 60 54 0.000000 0.000000 -1.000000
0.309050 -0.933274 -0.437108 179 60 54 -1.000000 0.000000 0.000000
0.309050 -0.914817 -0.459948 179 60 54 -1.000000 0.000000 0.000000
0.374340 -0.947787 -0.420523 179 60 54 1.000000 0.000000 0.000000
0.374340 -0.945878 -0.422765 179 60 54 1.000000 0.000000 0.000000
0.312474 -0.923194 -0.465852 179 60 54 -0.683637 0.000000 -0.729822
0.374340 -0.949084 -0.404339 179 60 54 1.000000 0.000000 0.000000
0.309050 -0.984298 -0.440033 179 60 54 -1.000000 0.000000 0.000000
0.326927 -0.913442 -0.398009 179 60 54 0.000000 0.000000 1.000000
0.374340 -0.917150 -0.424187 179 60 54 1.000000 0.000000 0.000000
0.309050 -0.965452 -0.445466 179 60 54 -1.000000 0.000000 0.000000
0.318916 -0.999156 -0.463585 179 60 54 0.000000 -0.744141 -0.668023
0.317340 -0.923964 -0.467885 179 60 54 0.000000 0.000000 -1.000000
0.333380 -0.964522 -0.398009 179 60 54 0.000000 0.000000 1.000000
0.309050 -0.940626 -0.421747 179 60 54 -1.000000 0.000000 0.000000
0.374340 -0.896315 -0.409060 179 60 54 1.000000 0.000000 0.000000
0.326141 -0.987498 -0.398009 179 60 54 0.000000 0.000000 1.000000
0.345660 -0.952332 -0.467885 179 60 54 0.000000 0.000000 -1.000000
0.374340 -0.898616 -0.431976 179 60 54 1.000000 0.000000 0.000000
0.374340 -0.971067 -0.408198 179 60 54 1.000000 0.000000 0.000000
0.355801 -0.897031 -0.467885 179 60 54 0.000000 0.000000 -1.000000
0.372061 -0.997207 -0.448460 179 60 54 0.642519 -0.766270 0.000000
0.374340 -0.906644 -0.440569 179 60 54 1.000000 0.000000 0.000000
0.309050 -0.971332 -0.409148 179 60 54 -1.000000 0.000000 0.000000
0.333624 -0.917860 -0.398009 179 60 54 0.000000 0.000000 1.000000
0.325985 -0.953151 -0.467885 179 60 54 0.000000 0.000000 -1.000000
0.354236 -0.900344 -0.467885 179 60 54 0.000000 0.000000 -1.000000
0.309050 -0.957626 -0.432911 179 60 54 -1.000000 0.000000 0.000000
0.312165 -0.921058 -0.400331 179 60 54 -0.683637 0.000000 0.729822
0.374340 -0.970564 -0.414375 179 60 54 1.000000 0.000000 0.000000
0.309050 -0.971504 -0.413101 179 60 54 -1.000000 0.000000 0.000000
0.359861 -0.893490 -0.467885 179 60 54 0.000000 0.000000 -1.000000
0.374340 -0.959882 -0.416943 179 60 54 1.000000 0.000000 0.000000
0.309050 -0.990060 -0.462278 179 60 54 -1.000000 0.000000 0.000000
0.370098 -0.944219 -0.399287 179 60 54 0.682597 0.000000 0.730795
0.365257 -0.927009 -0.398009 179 60 54 0.000000 0.000000 1.000000
0.309050 -0.965052 -0.414212 179 60 54 -1.000000 0.000000 0.000000
0.374340 -0.929286 -0.410805 179 60 54 1.000000 0.000000 0.000000
0.325789 -1.000000 -0.444403 179 60 54 0.000000 -1.000000 0.000000
0.374340 -0.923883 -0.458416 179 60 54 1.000000 0.000000 0.000000
0.374340 -0.957220 -0.434993 179 60 54 1.000000 0.000000 0.000000
0.309050 -0.975000 -0.409231 179 60 54 -1.000000 0.000000 0.000000
0.309050 -0.970003 -0.440651 179 60 54 -1.000000 0.000000 0.000000
0.374340 -0.936657 -0.427135 179 60 54 1.000000 0.000000 0.000000
0.339482 -0.953762 -0.467885 179 60 54 0.000000 0.000000 -1.000000
0.356802 -1.000000 -0.451324 179 60 54 0.000000 -1.000000 0.000000
0.338481 -0.982945 -0.467885 179 60 54 0.000000 0.000000 -1.000000
0.318537 -1.000000 -0.448222 179 60 54 0.000000 -1.000000 0.000000
0.365635 -0.936993 -0.398009 179 60 54 0.000000 0.000000 1.000000
0.374340 -0.961710 -0.435808 179 60 54 1.000000 0.000000 0.000000
0.367310 -0.995587 -0.467561 179 60 54 0.000000 -0.744141 -0.668023
0.374340 -0.969398 -0.437424 179 60 54 1.000000 0.000000 0.000000
0.374340 -0.894277 -0.426968 179 60 54 1.000000 0.000000 0.000000
0.340319 -0.936484 -0.398009 179 60 54 0.000000 0.000000 1.000000
0.323621 -0.930891 -0.467885 179 60 54 0.000000 0.000000 -1.000000
0.369577 -0.906933 -0.467094 179 60 54 0.682597 0.000000 -0.730795
0.374340 -0.926196 -0.430351 179 60 54 1.000000 0.000000 0.000000
0.309050 -0.948287 -0.460545 179 60 54 -1.000000 0.000000 0.000000
0.309050 -0.923223 -0.404216 179 60 54 -1.000000 0.000000 0.000000
0.309050 -0.959317 -0.431888 179 60 54 -1.000000 0.000000 0.000000
0.374340 -0.928565 -0.432281 179 60 54 1.000000 0.000000 0.000000
0.321325 -0.810729 -0.467885 185 197 205 0.000000 0.000000 -1.000000
0.325516 -0.883926 -0.411179 185 197 205 -0.642519 -0.766270 -0.000012
0.324726 -0.834608 -0.450349 185 197 205 0.000000 0.000000 -1.000000
0.345762 -0.787160 -0.405365 185 197 205 0.000000 0.000000 1.000000
0.336596 -0.797249 -0.367926 185 197 205 -1.000000 0.000000 0.000000
0.334074 -0.883015 -0.416861 185 197 205 0.000000 -0.744141 -0.668023
0.337654 -0.810015 -0.354104 185 197 205 0.000000 -0.283945 0.958841
0.313841 -0.833867 -0.415411 185 197 205 0.000000 0.000000 1.000000
0.374340 -0.812543 -0.440397 185 197 205 1.000000 0.000000 0.000000
0.345849 -0.855112 -0.467885 185 197 205 0.000000 0.000000 -1.000000
0.374340 -0.813810 -0.433599 185 197 205 1.000000 0.000000 0.000000
0.374340 -0.853100 -0.420299 185 197 205 1.000000 0.000000 0.000000
0.342179 -0.821442 -0.450349 185 197 205 0.000000 0.000000 -1.000000
0.336596 -0.861402 -0.405174 185 197 205 -1.000000 0.000000 0.000000
0.315428 -0.846310 -0.432706 185 197 205 0.000000 -1.000000 0.000000
0.319950 -0.889712 -0.467885 185 197 205 0.000000 0.000000 -1.000000
0.309050 -0.872052 -0.426848 185 197 205 -1.000000 0.000000 0.000000
0.336596 -0.829278 -0.364587 185 197 205 -1.000000 0.000000 0.000000
0.374340 -0.858740 -0.460969 185 197 205 1.000000 0.000000 0.000000
0.340124 -0.836270 -0.405365 185 197 205 0.000000 0.000000 1.000000
0.373637 -0.828516 -0.402592 185 197 205 0.682597 0.000000 0.730795
0.310392 -0.845153 -0.463902 185 197 205 -0.683637 0.000000 -0.729822
0.341976 -0.829896 -0.450349 185 197 205 0.000000 0.000000 -1.000000
0.333225 -0.808229 -0.398009 185 197 205 0.000000 0.000000 1.000000
0.310829 -0.841624 -0.450329 185 197 205 0.000000 -0.744268 -0.667882
0.309050 -0.836112 -0.414639 185 197 205 -1.000000 0.000000 0.000000
0.318323 -0.838591 -0.467885 185 197 205 0.000000 0.000000 -1.000000
0.309050 -0.827018 -0.434316 185 197 205 -1.000000 0.000000 0.000000
0.336596 -0.790931 -0.402610 185 197 205 -1.000000 0.000000 0.000000
0.371313 -0.839806 -0.400422 185 197 205 0.682597 0.000000 0.730795
0.348348 -0.843004 -0.365419 185 197 205 0.957972 0.083335 -0.274491
0.320323 -0.834593 -0.467885 185 197 205 0.000000 0.000000 -1.000000
0.308823 -0.841196 -0.450349 185 197 205 0.000000 0.000000 -1.000000
0.315792 -0.812806 -0.467885 185 197 205 0.000000 0.000000 -1.000000
0.327609 -0.795619 -0.467885 185 197 205 0.000000 0.000000 -1.000000
0.336596 -0.843873 -0.387591 185 197 205 -1.000000 0.000000 0.000000
0.343354 -0.842236 -0.448840 185 197 205 0.530520 -0.630895 -0.566145
0.374340 -0.834905 -0.435868 185 197 205 1.000000 0.000000 0.000000
0.337323 -0.851306 -0.366520 185 197 205 0.000000 -0.290419 0.956900
0.337744 -0.834682 -0.467885 185 197 205 0.000000 0.000000 -1.000000
0.322091 -0.796893 -0.398009 185 197 205 0.000000 0.000000 1.000000
0.374340 -0.806476 -0.406765 185 197 205 1.000000 0.000000 0.000000
0.374340 -0.802503 -0.408746 185 197 205 1.000000 0.000000 0.000000
0.332929 -0.836919 -0.450349 185 197 205 0.000000 0.000000 -1.000000
0.348475 -0.812242 -0.467885 185 197 205 0.000000 0.000000 -1.000000
0.345189 -0.867934 -0.418031 185 197 205 0.000000 0.000000 1.000000
0.332771 -0.842639 -0.416561 185 197 205 0.000000 -0.744141 0.668023
0.343555 -0.817349 -0.467885 185 197 205 0.000000 0.000000 -1.000000
0.356680 -0.860798 -0.416354 185 197 205 0.683637 0.000000 -0.729822
0.309050 -0.856282 -0.429616 185 197 205 -1.000000 0.000000 0.000000
0.316386 -0.814956 -0.442647 185 197 205 0.000000 1.000000 0.000000
0.310846 -0.849627 -0.464328 185 197 205 -0.683637 0.000000 -0.729822
0.309050 -0.795164 -0.413497 185 197 205 -1.000000 0.000000 0.000000
0.342521 -0.872052 -0.467885 185 197 205 0.000000 0.000000 -1.000000
0.374340 -0.887088 -0.458577 185 197 205 1.000000 0.000000 0.000000
0.374340 -0.822375 -0.422856 185 197 205 1.000000 0.000000 0.000000
0.306966 -0.846310 -0.425556 185 197 205 0.000000 -1.000000 0.000000
0.327705 -0.810930 -0.398009 185 197 205 0.000000 0.000000 1.000000
0.309050 -0.798619 -0.405218 185 197 205 -1.000000 0.000000 0.000000
0.345920 -0.826096 -0.391706 185 197 205 1.000000 0.000000 0.000000
0.360484 -0.868848 -0.405245 185 197 205 1.000000 0.000000 0.000000
0.345920 -0.792027 -0.389017 185 197 205 1.000000 0.000000 0.000000
0.307529 -0.845046 -0.419243 185 197 205 0.000000 -0.744141 0.668023
0.314235 -0.839872 -0.450349 185 197 205 0.000000 0.000000 -1.000000
0.345920 -0.840462 -0.363327 185 197 205 1.000000 0.000000 0.000000
0.336596 -0.810559 -0.370541 185 197 205 -1.000000 0.000000 0.000000
0.328995 -0.814872 -0.467885 185 197 205 0.000000 0.000000 -1.000000
0.309050 -0.867955 -0.436609 185 197 205 -1.000000 0.000000 0.000000
0.330612 -0.806168 -0.398009 185 197 205 0.000000 0.000000 1.000000
0.348546 -0.845000 -0.365334 185 197 205 0.957901 0.083396 -0.274719
0.342640 -0.819906 -0.405365 185 197 205 0.000000 0.000000 1.000000
0.345920 -0.824548 -0.374924 185 197 205 1.000000 0.000000 0.000000
0.329248 -0.846310 -0.430938 185 197 205 0.000000 -1.000000 0.000000
0.325612 -0.880752 -0.398009 185 197 205 0.000000 0.000000 1.000000
0.324672 -0.853563 -0.467885 185 197 205 0.000000 0.000000 -1.000000
0.343531 -0.869085 -0.418031 185 197 205 0.000000 0.000000 1.000000
0.349154 -0.814941 -0.398009 185 197 205 0.000000 0.000000 1.000000
0.309050 -0.883394 -0.418532 185 197 205 -1.000000 0.000000 0.000000
0.326556 -0.821018 -0.450349 185 197 205 0.000000 0.000000 -1.000000
0.374340 -0.785494 -0.422109 185 197 205 1.000000 0.000000 0.000000
0.345920 -0.803649 -0.369970 185 197 205 1.000000 0.000000 0.000000
0.309050 -0.846569 -0.425142 185 197 205 -1.000000 0.000000 0.000000
0.331836 -0.840628 -0.450349 185 197 205 0.000000 0.000000 -1.000000
0.348431 -0.818932 -0.398009 185 197 205 0.000000 0.000000 1.000000
0.340515 -0.868091 -0.418031 185 197 205 0.000000 0.000000 1.000000
0.357463 -0.884333 -0.467885 185 197 205 0.000000 0.000000 -1.000000
0.374340 -0.826217 -0.459335 185 197 205 1.000000 0.000000 0.000000
0.320648 -0.860335 -0.467885 185 197 205 0.000000 0.000000 -1.000000
0.322762 -0.861672 -0.467885 185 197 205 0.000000 0.000000 -1.000000
0.336596 -0.820929 -0.398791 185 197 205 -1.000000 0.000000 0.000000
0.374340 -0.800689 -0.407416 185 197 205 1.000000 0.000000 0.000000
0.373714 -0.788779 -0.463230 185 197 205 0.682597 0.000000 -0.730795
0.370611 -0.797775 -0.466128 185 197 205 0.682597 0.000000 -0.730795
0.309050 -0.861917 -0.443112 185 197 205 -1.000000 0.000000 0.000000
0.328094 -0.826697 -0.467885 185 197 205 0.000000 0.000000 -1.000000
0.345920 -0.784956 -0.362394 185 197 205 1.000000 0.000000 0.000000
0.338985 -0.843355 -0.448399 185 197 205 0.000000 -0.744268 -0.667882
0.362327 -0.866496 -0.467885 185 197 205 0.000000 0.000000 -1.000000
0.339260 -0.855314 -0.361184 185 197 205 0.000000 1.000000 0.000000
0.309050 -0.807709 -0.413360 185 197 205 -1.000000 0.000000 0.000000
0.352889 -0.855314 -0.407232 185 197 205 0.000000 1.000000 0.000000
0.309050 -0.791886 -0.414878 185 197 205 -1.000000 0.000000 0.000000
0.345920 -0.820540 -0.395690 185 197 205 1.000000 0.000000 0.000000
0.341204 -0.728050 -0.331242 133 160 20 0.000000 -0.248798 0.968555
0.374340 -0.726795 -0.440426 133 160 20 1.000000 0.000000 0.000000
0.343871 -0.766887 -0.341655 133 160 20 0.000000 -0.269632 0.962963
0.343372 -0.723600 -0.329326 133 160 20 -0.962440 -0.067514 0.262966
0.337997 -0.741282 -0.405365 133 160 20 0.000000 0.000000 1.000000
0.309050 -0.724617 -0.407591 133 160 20 -1.000000 0.000000 0.000000
0.309050 -0.774144 -0.461239 133 160 20 -1.000000 0.000000 0.000000
0.326326 -0.734345 -0.467885 133 160 20 0.000000 0.000000 -1.000000
0.347235 -0.694566 -0.325536 133 160 20 0.247527 0.213160 -0.945142
0.309050 -0.675306 -0.455702 133 160 20 -1.000000 0.000000 0.000000
0.374340 -0.683637 -0.461038 133 160 20 1.000000 0.000000 0.000000
0.336596 -0.679269 -0.389949 133 160 20 -1.000000 0.000000 0.000000
0.350983 -0.759476 -0.467885 133 160 20 0.000000 0.000000 -1.000000
0.346183 -0.705035 -0.398009 133 160 20 0.000000 0.000000 1.000000
0.323942 -0.692458 -0.398009 133 160 20 0.000000 0.000000 1.000000
0.345920 -0.763226 -0.390385 133 160 20 1.000000 0.000000 0.000000
0.374340 -0.686329 -0.443600 133 160 20 1.000000 0.000000 0.000000
0.345920 -0.677448 -0.366729 133 160 20 1.000000 0.000000 0.000000
0.333558 -0.719006 -0.467885 133 160 20 0.000000 0.000000 -1.000000
0.309050 -0.780759 -0.419896 133 160 20 -1.000000 0.000000 0.000000
0.373581 -0.748740 -0.402540 133 160 20 0.682597 0.000000 0.730795
0.345920 -0.697105 -0.325406 133 160 20 1.000000 0.000000 0.000000
0.374340 -0.722395 -0.453445 133 160 20 1.000000 0.000000 0.000000
0.336596 -0.702800 -0.338590 133 160 20 -1.000000 0.000000 0.000000
0.345920 -0.691487 -0.351354 133 160 20 1.000000 0.000000 0.000000
0.345920 -0.677570 -0.320294 133 160 20 1.000000 0.000000 0.000000
0.345920 -0.717709 -0.336935 133 160 20 1.000000 0.000000 0.000000
0.336596 -0.744205 -0.350235 133 160 20 -1.000000 0.000000 0.000000
0.309050 -0.774273 -0.461639 133 160 20 -1.000000 0.000000 0.000000
0.336596 -0.755770 -0.397520 133 160 20 -1.000000 0.000000 0.000000
0.309050 -0.775078 -0.408482 133 160 20 -1.000000 0.000000 0.000000
0.345501 -0.752818 -0.335219 133 160 20 -0.238900 -0.262371 0.934927
0.351830 -0.736242 -0.398009 133 160 20 0.000000 0.000000 1.000000
0.374340 -0.742048 -0.444929 133 160 20 1.000000 0.000000 0.000000
0.314456 -0.718747 -0.467709 133 160 20 -0.683637 0.000000 -0.729822
0.342163 -0.693998 -0.398009 133 160 20 0.000000 0.000000 1.000000
0.336596 -0.741577 -0.365860 133 160 20 -1.000000 0.000000 0.000000
0.336596 -0.766363 -0.350551 133 160 20 -1.000000 0.000000 0.000000
0.344963 -0.696627 -0.467885 133 160 20 0.000000 0.000000 -1.000000
0.337490 -0.677265 -0.398009 133 160 20 0.000000 0.000000 1.000000
0.336596 -0.760667 -0.355098 133 160 20 -1.000000 0.000000 0.000000
0.343289 -0.782380 -0.346675 133 160 20 -0.962628 0.073024 -0.260798
0.309050 -0.710222 -0.430029 133 160 20 -1.000000 0.000000 0.000000
0.336596 -0.709210 -0.343786 133 160 20 -1.000000 0.000000 0.000000
0.309050 -0.698840 -0.455266 133 160 20 -1.000000 0.000000 0.000000
0.309050 -0.723336 -0.418458 133 160 20 -1.000000 0.000000 0.000000
0.374340 -0.703292 -0.438875 133 160 20 1.000000 0.000000 0.000000
0.343263 -0.780425 -0.345067 133 160 20 -0.961811 -0.073867 0.263557
0.345146 -0.690226 -0.324700 133 160 20 -0.248675 0.213095 -0.944855
0.335089 -0.776158 -0.467885 133 160 20 0.000000 0.000000 -1.000000
0.336925 -0.738594 -0.398009 133 160 20 0.000000 0.000000 1.000000
0.345920 -0.779089 -0.400129 133 160 20 1.000000 0.000000 0.000000
0.333990 -0.779145 -0.467885 133 160 20 0.000000 0.000000 -1.000000
0.336596 -0.686785 -0.389512 133 160 20 -1.000000 0.000000 0.000000
0.366840 -0.703714 -0.398009 133 160 20 0.000000 0.000000 1.000000
0.309050 -0.758322 -0.428801 133 160 20 -1.000000 0.000000 0.000000
0.345920 -0.680975 -0.376655 133 160 20 1.000000 0.000000 0.000000
0.309050 -0.678095 -0.431094 133 160 20 -1.000000 0.000000 0.000000
0.345920 -0.690545 -0.325798 133 160 20 1.000000 0.000000 0.000000
0.345920 -0.690376 -0.373596 133 160 20 1.000000 0.000000 0.000000
0.339620 -0.750778 -0.467885 133 160 20 0.000000 0.000000 -1.000000
0.344505 -0.713443 -0.467885 133 160 20 0.000000 0.000000 -1.000000
0.345920 -0.713564 -0.398525 133 160 20 1.000000 0.000000 0.000000
0.309050 -0.749205 -0.427526 133 160 20 -1.000000 0.000000 0.000000
0.343985 -0.675357 -0.318767 133 160 20 0.000000 -0.220044 0.975490
0.323500 -0.753682 -0.398009 133 160 20 0.000000 0.000000 1.000000
0.336596 -0.759561 -0.340107 133 160 20 -1.000000 0.000000 0.000000
0.309050 -0.738627 -0.451630 133 160 20 -1.000000 0.000000 0.000000
0.341111 -0.774419 -0.405365 133 160 20 0.000000 0.000000 1.000000
0.311563 -0.683899 -0.400895 133 160 20 -0.683637 0.000000 0.729822
0.317273 -0.780178 -0.467885 133 160 20 0.000000 0.000000 -1.000000
0.345920 -0.732357 -0.353162 133 160 20 1.000000 0.000000 0.000000
0.327541 -0.743303 -0.398009 133 160 20 0.000000 0.000000 1.000000
0.345920 -0.685224 -0.358612 133 160 20 1.000000 0.000000 0.000000
0.336596 -0.768294 -0.396785 133 160 20 -1.000000 0.000000 0.000000
0.336596 -0.764587 -0.366596 133 160 20 -1.000000 0.000000 0.000000
0.309050 -0.714358 -0.413491 133 160 20 -1.000000 0.000000 0.000000
0.374340 -0.711915 -0.413126 133 160 20 1.000000 0.000000 0.000000
0.359439 -0.733591 -0.398009 133 160 20 0.000000 0.000000 1.000000
0.336596 -0.741217 -0.389829 133 160 20 -1.000000 0.000000 0.000000
0.345217 -0.751325 -0.339917 133 160 20 -0.248991 0.261020 -0.932669
0.369373 -0.740125 -0.398610 133 160 20 0.682597 0.000000 0.730795
0.336596 -0.686185 -0.397180 133 160 20 -1.000000 0.000000 0.000000
0.374340 -0.767755 -0.412497 133 160 20 1.000000 0.000000 0.000000
0.354239 -0.752970 -0.467885 133 160 20 0.000000 0.000000 -1.000000
0.336596 -0.778852 -0.397237 133 160 20 -1.000000 0.000000 0.000000
0.374129 -0.773255 -0.462842 133 160 20 0.682597 0.000000 -0.730795
0.345920 -0.760606 -0.361682 133 160 20 1.000000 0.000000 0.000000
0.342063 -0.746957 -0.336099 133 160 20 0.000000 -0.248798 0.968555
0.365508 -0.682527 -0.398009 133 160 20 0.000000 0.000000 1.000000
0.327618 -0.704072 -0.398009 133 160 20 0.000000 0.000000 1.000000
0.310040 -0.733085 -0.463573 133 160 20 -0.683637 0.000000 -0.729822
