ply
format ascii 1.0
element vertex 717
property float x
property float y
property float z
property uchar red
property uchar green
property uchar blue
property float nx
property float ny
property float nz
end_header
-0.150548 -0.130623 0.129537 226 68 52 0.707107 0.000000 0.707107
-0.158102 -0.123675 0.254439 226 68 52 0.000000 -1.000000 0.000000
-0.167446 -0.132044 0.040353 226 68 52 0.000000 -1.000000 0.000000
-0.199734 -0.009297 0.051055 226 68 52 0.000000 1.000000 0.000000
0.039450 -0.120565 0.053625 226 68 52 0.707107 0.000000 -0.707107
-0.183181 -0.123675 0.076089 226 68 52 0.000000 -1.000000 0.000000
-0.298663 -0.009297 0.168025 226 68 52 0.000000 1.000000 0.000000
-0.309891 -0.123675 0.382390 226 68 52 0.000000 -1.000000 0.000000
-0.302680 -0.125904 0.281667 226 68 52 0.707137 0.000037 0.707076
-0.017619 -0.101918 0.110905 226 68 52 0.000000 -1.000000 0.000000
-0.117404 -0.150516 0.247965 226 68 52 0.000000 -1.000000 0.000000
-0.181694 -0.144465 0.299481 226 68 52 0.000000 1.000000 0.000000
-0.038500 -0.101918 0.158460 226 68 52 0.000000 -1.000000 0.000000
-0.142928 -0.009297 0.397412 226 68 52 0.000000 1.000000 0.000000
-0.365985 -0.029690 0.134789 226 68 52 -0.975556 0.000000 -0.219752
-0.234514 -0.144465 0.217285 226 68 52 0.000000 1.000000 0.000000
-0.183549 -0.088386 0.014430 226 68 52 0.000000 1.000000 0.000000
0.004205 -0.108205 0.183704 226 68 52 0.000000 -1.000000 0.000000
-0.123234 -0.144465 0.231505 226 68 52 0.000000 1.000000 0.000000
-0.043593 -0.144465 0.033366 226 68 52 0.000000 1.000000 0.000000
-0.346279 -0.120241 0.056310 226 68 52 -0.566472 -0.822739 -0.047019
-0.334147 -0.123675 0.189504 226 68 52 0.000000 -1.000000 0.000000
-0.188623 -0.127265 0.073225 226 68 52 0.000000 0.000000 1.000000
0.004841 -0.123675 0.222238 226 68 52 0.000000 -1.000000 0.000000
0.017261 -0.132044 0.032727 226 68 52 0.000000 -1.000000 0.000000
-0.349607 -0.009297 0.218329 226 68 52 0.000000 1.000000 0.000000
-0.364343 -0.122388 0.167319 226 68 52 -0.298089 -0.952177 -0.067101
-0.086128 -0.123675 0.337731 226 68 52 0.000000 -1.000000 0.000000
-0.157154 -0.123675 0.302290 226 68 52 0.000000 -1.000000 0.000000
-0.247107 -0.009297 0.076942 226 68 52 0.000000 1.000000 0.000000
-0.287523 -0.096384 0.439093 226 68 52 -0.591065 0.000000 0.806624
-0.249055 -0.009297 0.420438 226 68 52 0.000000 1.000000 0.000000
-0.097426 -0.150516 0.191712 226 68 52 0.000000 -1.000000 0.000000
-0.143169 -0.123675 0.328240 226 68 52 0.000000 -1.000000 0.000000
-0.097126 -0.123675 0.140262 226 68 52 0.000000 -1.000000 0.000000
-0.189720 -0.132044 0.030096 226 68 52 0.000000 -1.000000 0.000000
-0.123627 -0.123574 0.102616 226 68 52 0.707107 0.000000 0.707107
-0.313010 -0.009297 0.149057 226 68 52 0.000000 1.000000 0.000000
-0.019126 -0.123675 0.217412 226 68 52 0.000000 -1.000000 0.000000
-0.349536 -0.098550 0.381732 226 68 52 -0.799967 0.000000 0.600044
-0.081216 -0.108205 0.235124 226 68 52 0.000000 -1.000000 0.000000
-0.242277 -0.112073 0.454379 226 68 52 -0.265266 -0.096178 0.959366
-0.041308 -0.101918 0.062416 226 68 52 0.000000 -1.000000 0.000000
-0.192320 -0.112371 0.355214 226 68 52 -0.237777 0.941766 0.237777
-0.262588 -0.123675 0.108728 226 68 52 0.000000 -1.000000 0.000000
-0.061603 -0.088386 0.048595 226 68 52 0.000000 1.000000 0.000000
-0.058193 -0.150516 0.071490 226 68 52 0.000000 -1.000000 0.000000
-0.163428 -0.108205 0.335244 226 68 52 0.000000 -1.000000 0.000000
0.069412 -0.123675 0.174174 226 68 52 0.000000 -1.000000 0.000000
-0.297303 -0.112724 0.431334 226 68 52 -0.558796 -0.324386 0.763231
-0.266559 -0.009297 0.313222 226 68 52 0.000000 1.000000 0.000000
-0.101498 -0.150516 0.239369 226 68 52 0.000000 -1.000000 0.000000
0.077863 -0.101918 0.114665 226 68 52 0.000000 -1.000000 0.000000
0.015941 -0.123675 0.391537 226 68 52 0.000000 -1.000000 0.000000
0.081394 -0.121944 0.104298 226 68 52 -0.707099 0.004802 0.707099
-0.278858 -0.009297 0.256764 226 68 52 0.000000 1.000000 0.000000
0.030314 -0.132044 0.046218 226 68 52 0.000000 -1.000000 0.000000
0.034050 -0.101918 0.056345 226 68 52 0.000000 -1.000000 0.000000
-0.138580 -0.101918 0.112211 226 68 52 0.000000 -1.000000 0.000000
-0.108225 -0.117682 0.073226 226 68 52 0.000016 -0.000275 -1.000000
-0.213508 -0.009297 0.013034 226 68 52 0.000000 1.000000 0.000000
0.081239 -0.144465 0.110935 226 68 52 0.000000 1.000000 0.000000
-0.030269 -0.124861 0.234616 226 68 52 0.707099 0.004802 0.707099
-0.103683 -0.009297 0.148620 226 68 52 0.000000 1.000000 0.000000
-0.342573 -0.054563 0.391016 226 68 52 -0.799967 0.000000 0.600044
-0.186808 -0.128700 0.165797 226 68 52 0.707107 0.000000 0.707107
0.025369 -0.123675 0.075172 226 68 52 0.000000 -1.000000 0.000000
-0.223871 -0.152008 0.300565 226 68 52 0.076541 -0.994124 -0.076540
-0.369372 -0.123675 0.299519 226 68 52 0.000000 -1.000000 0.000000
-0.307870 -0.009297 0.312906 226 68 52 0.000000 1.000000 0.000000
-0.071976 -0.009297 0.020804 226 68 52 0.000000 1.000000 0.000000
-0.302161 -0.132044 0.035948 226 68 52 0.000000 -1.000000 0.000000
-0.202297 -0.009297 0.282167 226 68 52 0.000000 1.000000 0.000000
-0.127810 -0.123637 0.427022 226 68 52 0.024811 -0.996020 0.085608
-0.250540 -0.101918 0.230299 226 68 52 0.000000 -1.000000 0.000000
-0.170581 -0.150516 0.176876 226 68 52 0.000000 -1.000000 0.000000
-0.244637 -0.017575 0.452695 226 68 52 -0.251912 0.325284 0.911444
-0.251920 -0.009297 0.370863 226 68 52 0.000000 1.000000 0.000000
-0.093074 -0.108205 0.198927 226 68 52 0.000000 -1.000000 0.000000
0.003287 -0.108205 0.123171 226 68 52 0.000000 -1.000000 0.000000
-0.261253 -0.024492 0.449484 226 68 52 -0.264874 0.096171 0.959475
-0.013204 -0.108205 0.142554 226 68 52 0.000000 -1.000000 0.000000
0.031945 -0.108205 0.053151 226 68 52 0.000000 -1.000000 0.000000
-0.367540 -0.123675 0.238691 226 68 52 0.000000 -1.000000 0.000000
-0.088421 -0.123675 0.144678 226 68 52 0.000000 -1.000000 0.000000
0.075910 -0.122677 0.090084 226 68 52 0.707107 0.000000 -0.707107
-0.157825 -0.123675 0.358318 226 68 52 0.000000 -1.000000 0.000000
-0.272008 -0.103606 0.255572 226 68 52 0.078857 -0.993762 -0.078855
0.001360 -0.144465 0.131219 226 68 52 0.000000 1.000000 0.000000
-0.132667 -0.144465 0.143802 226 68 52 0.000000 1.000000 0.000000
-0.223487 -0.132044 0.017991 226 68 52 0.000000 -1.000000 0.000000
-0.236560 -0.112850 0.312869 226 68 52 -0.237777 0.941766 0.237777
-0.126164 -0.101918 0.257608 226 68 52 0.000000 -1.000000 0.000000
-0.082997 -0.123675 0.054118 226 68 52 0.000000 -1.000000 0.000000
-0.118799 -0.101918 0.298657 226 68 52 0.000000 -1.000000 0.000000
-0.111012 -0.101918 0.224664 226 68 52 0.000000 -1.000000 0.000000
-0.268663 -0.128017 0.343369 226 68 52 -0.379301 0.843935 0.379346
-0.195190 -0.009297 0.317018 226 68 52 0.000000 1.000000 0.000000
-0.356642 -0.094188 0.087618 226 68 52 -0.981866 0.000000 -0.189577
-0.150850 -0.123675 0.161042 226 68 52 0.000000 -1.000000 0.000000
-0.383467 -0.043857 0.311150 226 68 52 -0.951086 0.000000 0.308926
-0.215745 -0.045133 0.457267 226 68 52 0.047434 0.000000 0.998874
-0.072447 -0.123675 0.059121 226 68 52 0.000000 -1.000000 0.000000
-0.041363 -0.009297 0.393885 226 68 52 0.000000 1.000000 0.000000
-0.375990 -0.011570 0.216657 226 68 52 -0.560832 0.823114 -0.089168
-0.225895 -0.144465 0.210755 226 68 52 0.000000 1.000000 0.000000
-0.226349 -0.109142 0.291015 226 68 52 -0.080572 0.993487 0.080572
-0.115353 -0.123675 0.401611 226 68 52 0.000000 -1.000000 0.000000
0.081678 -0.132044 0.072565 226 68 52 0.000000 -1.000000 0.000000
0.011318 -0.150516 0.090392 226 68 52 0.000000 -1.000000 0.000000
-0.165198 -0.146547 0.135289 226 68 52 -0.707099 0.004831 -0.707099
0.010241 -0.116838 0.024415 226 68 52 0.707107 0.000000 -0.707107
-0.154158 -0.123675 0.215309 226 68 52 0.000000 -1.000000 0.000000
-0.233304 -0.088386 0.014821 226 68 52 0.000000 1.000000 0.000000
0.020054 -0.144465 0.174933 226 68 52 0.000000 1.000000 0.000000
-0.270039 -0.123675 0.120072 226 68 52 0.000000 -1.000000 0.000000
0.008004 -0.144465 0.048375 226 68 52 0.000000 1.000000 0.000000
0.075843 -0.009297 0.365188 226 68 52 0.000000 1.000000 0.000000
-0.207521 -0.101918 0.281179 226 68 52 0.000000 -1.000000 0.000000
0.052161 -0.123675 0.167623 226 68 52 0.000000 -1.000000 0.000000
0.059954 -0.101918 0.022768 226 68 52 0.000000 -1.000000 0.000000
-0.155633 -0.123675 0.137668 226 68 52 0.000000 -1.000000 0.000000
0.010596 -0.123675 0.357603 226 68 52 0.000000 -1.000000 0.000000
-0.210659 -0.123675 0.265185 226 68 52 0.000000 -1.000000 0.000000
-0.216621 -0.009297 0.227873 226 68 52 0.000000 1.000000 0.000000
-0.100839 -0.144465 0.258054 226 68 52 0.000000 1.000000 0.000000
-0.256653 -0.108721 0.255510 226 68 52 -0.080572 0.993487 0.080572
-0.197730 -0.009297 0.113538 226 68 52 0.000000 1.000000 0.000000
-0.073702 -0.108205 0.084494 226 68 52 0.000000 -1.000000 0.000000
-0.011766 -0.108205 0.178616 226 68 52 0.000000 -1.000000 0.000000
-0.371815 -0.104852 0.160668 226 68 52 -0.975556 0.000000 -0.219752
-0.225020 -0.009297 0.395923 226 68 52 0.000000 1.000000 0.000000
-0.166866 -0.009297 0.174461 226 68 52 0.000000 1.000000 0.000000
-0.108522 -0.096143 0.073231 226 68 52 -0.000016 -0.001374 -0.999999
-0.181879 -0.101918 0.266589 226 68 52 0.000000 -1.000000 0.000000
-0.220129 -0.150516 0.242025 226 68 52 0.000000 -1.000000 0.000000
0.022097 -0.022288 0.408875 226 68 52 0.094492 0.094075 0.991071
-0.102662 -0.108205 0.251208 226 68 52 0.000000 -1.000000 0.000000
-0.111830 -0.150516 0.198190 226 68 52 0.000000 -1.000000 0.000000
-0.267459 -0.088386 0.045915 226 68 52 0.000000 1.000000 0.000000
0.064079 -0.101918 0.075680 226 68 52 0.000000 -1.000000 0.000000
-0.100944 -0.144465 0.281240 226 68 52 0.000000 1.000000 0.000000
0.076295 -0.083731 0.407586 226 68 52 -0.120917 0.000000 0.992663
-0.076149 -0.150516 0.141777 226 68 52 0.000000 -1.000000 0.000000
-0.332180 -0.123675 0.281776 226 68 52 0.000000 -1.000000 0.000000
0.041741 -0.108205 0.055177 226 68 52 0.000000 -1.000000 0.000000
-0.213704 -0.121639 0.450290 226 68 52 0.026981 -0.822864 0.567598
-0.301217 -0.136560 0.280205 226 68 52 0.707137 0.000037 0.707076
-0.333322 -0.009447 0.378863 226 68 52 -0.071514 0.995997 0.053624
-0.117370 -0.009297 0.025354 226 68 52 0.000000 1.000000 0.000000
-0.328593 -0.009297 0.329404 226 68 52 0.000000 1.000000 0.000000
-0.183832 -0.135555 0.388159 226 68 52 0.702523 0.007620 0.711621
-0.222409 -0.123675 0.080839 226 68 52 0.000000 -1.000000 0.000000
-0.208840 -0.123675 0.174339 226 68 52 0.000000 -1.000000 0.000000
-0.070699 -0.108205 0.163129 226 68 52 0.000000 -1.000000 0.000000
-0.136764 -0.009297 0.284375 226 68 52 0.000000 1.000000 0.000000
0.005192 -0.108205 0.097942 226 68 52 0.000000 -1.000000 0.000000
-0.343194 -0.088386 0.060298 226 68 52 0.000000 1.000000 0.000000
-0.309181 -0.123675 0.015825 226 68 52 0.000000 -1.000000 0.000000
-0.380158 -0.120377 0.305003 226 68 52 -0.540631 -0.822705 0.175711
-0.233943 -0.123675 0.172792 226 68 52 0.000000 -1.000000 0.000000
-0.266422 -0.132044 0.023645 226 68 52 0.000000 -1.000000 0.000000
-0.152259 -0.101918 0.350826 226 68 52 0.000000 -1.000000 0.000000
-0.287671 -0.142050 0.331742 226 68 52 0.500022 -0.707115 -0.499967
-0.354393 -0.018751 0.373611 226 68 52 -0.756344 0.326164 0.567063
-0.229373 -0.145156 0.199472 226 68 52 -0.707099 0.004831 -0.707099
-0.148127 -0.123675 0.389485 226 68 52 0.000000 -1.000000 0.000000
-0.102507 -0.041464 0.436294 226 68 52 0.278448 0.000000 0.960451
-0.227177 -0.123675 0.067938 226 68 52 0.000000 -1.000000 0.000000
-0.036163 -0.123675 0.172672 226 68 52 0.000000 -1.000000 0.000000
-0.225664 -0.142248 0.204653 226 68 52 0.707107 0.000000 0.707107
0.019631 -0.101918 0.051801 226 68 52 0.000000 -1.000000 0.000000
-0.196632 -0.123675 0.336174 226 68 52 0.000000 -1.000000 0.000000
-0.084635 -0.132084 0.063624 226 68 52 0.707107 0.000000 0.707107
0.007370 -0.144465 0.129673 226 68 52 0.000000 1.000000 0.000000
0.049177 -0.100743 0.406563 226 68 52 0.094898 0.000000 0.995487
-0.218686 -0.110529 0.315781 226 68 52 -0.080572 0.993487 0.080572
-0.384831 -0.015467 0.255361 226 68 52 -0.804402 0.593837 0.017164
-0.067261 -0.108205 0.158166 226 68 52 0.000000 -1.000000 0.000000
-0.099795 -0.150516 0.114780 226 68 52 0.000000 -1.000000 0.000000
-0.015279 -0.009297 0.103032 226 68 52 0.000000 1.000000 0.000000
-0.386882 -0.043698 0.274528 226 68 52 -0.999771 0.000000 0.021386
-0.002210 -0.101918 0.089549 226 68 52 0.000000 -1.000000 0.000000
-0.202313 -0.132044 0.051657 226 68 52 0.000000 -1.000000 0.000000
-0.146787 -0.144465 0.302847 226 68 52 0.000000 1.000000 0.000000
0.033215 -0.009297 0.034301 226 68 52 0.000000 1.000000 0.000000
-0.290982 -0.147918 0.269970 226 68 52 0.707163 0.000040 0.707051
-0.294101 -0.132044 0.057916 226 68 52 0.000000 -1.000000 0.000000
-0.248117 -0.123675 0.203426 226 68 52 0.000000 -1.000000 0.000000
-0.113908 -0.088386 0.047957 226 68 52 0.000000 1.000000 0.000000
-0.102497 -0.144465 0.220566 226 68 52 0.000000 1.000000 0.000000
-0.233022 -0.009297 0.101887 226 68 52 0.000000 1.000000 0.000000
-0.314182 -0.123675 0.315757 226 68 52 0.000000 -1.000000 0.000000
-0.104382 -0.047878 0.436839 226 68 52 0.278448 0.000000 0.960451
-0.332874 -0.123675 0.094608 226 68 52 0.000000 -1.000000 0.000000
-0.263119 -0.132044 0.024063 226 68 52 0.000000 -1.000000 0.000000
-0.379336 -0.060835 0.196092 226 68 52 -0.987593 0.000000 -0.157037
-0.125865 -0.127498 0.096086 226 68 52 -0.707099 0.004831 -0.707099
-0.015880 -0.123675 0.228112 226 68 52 0.000000 -1.000000 0.000000
0.024636 -0.144465 0.027836 226 68 52 0.000000 1.000000 0.000000
-0.084680 -0.009297 0.305268 226 68 52 0.000000 1.000000 0.000000
-0.095337 -0.009297 0.326589 226 68 52 0.000000 1.000000 0.000000
-0.374561 -0.104779 0.172860 226 68 52 -0.975556 0.000000 -0.219752
-0.065919 -0.108205 0.199335 226 68 52 0.000000 -1.000000 0.000000
-0.254754 -0.123675 0.351447 226 68 52 0.000000 -1.000000 0.000000
-0.118168 -0.123675 0.211057 226 68 52 0.000000 -1.000000 0.000000
-0.316714 -0.123675 0.349030 226 68 52 0.000000 -1.000000 0.000000
-0.023679 -0.009297 0.036571 226 68 52 0.000000 1.000000 0.000000
-0.051974 -0.009297 0.037582 226 68 52 0.000000 1.000000 0.000000
0.057001 -0.123675 0.164770 226 68 52 0.000000 -1.000000 0.000000
0.040251 -0.123675 0.250740 226 68 52 0.000000 -1.000000 0.000000
-0.287141 -0.009297 0.127583 226 68 52 0.000000 1.000000 0.000000
-0.009743 -0.009297 0.015306 226 68 52 0.000000 1.000000 0.000000
-0.267672 -0.123675 0.297216 226 68 52 0.000000 -1.000000 0.000000
0.050825 -0.009297 0.290723 226 68 52 0.000000 1.000000 0.000000
-0.009328 -0.009297 0.255763 226 68 52 0.000000 1.000000 0.000000
-0.131081 -0.144465 0.199623 226 68 52 0.000000 1.000000 0.000000
-0.221196 -0.108205 0.263832 226 68 52 0.000000 -1.000000 0.000000
-0.275245 -0.132044 0.016930 226 68 52 0.000000 -1.000000 0.000000
-0.382164 -0.085104 0.213876 226 68 52 -0.987593 0.000000 -0.157037
-0.086998 -0.144465 0.232623 226 68 52 0.000000 1.000000 0.000000
0.060441 -0.123092 0.135159 226 68 52 -0.707107 0.000000 -0.707107
-0.184591 -0.144465 0.219345 226 68 52 0.000000 1.000000 0.000000
-0.304889 -0.120340 0.073225 226 68 52 0.000000 0.000000 1.000000
-0.288887 -0.009297 0.416227 226 68 52 0.000000 1.000000 0.000000
-0.059897 -0.126133 0.030128 226 68 52 -0.707099 0.004831 -0.707099
-0.161718 -0.015484 0.448902 226 68 52 0.182939 0.593069 0.784094
-0.069252 -0.009297 0.313603 226 68 52 0.000000 1.000000 0.000000
-0.348568 -0.107153 0.025236 226 68 52 -0.996590 0.000000 -0.082511
-0.381239 -0.012993 0.236526 226 68 52 -0.560625 0.823260 -0.089118
-0.323611 -0.009297 0.388155 226 68 52 0.000000 1.000000 0.000000
-0.228094 -0.123675 0.081049 226 68 52 0.000000 -1.000000 0.000000
-0.137743 -0.108205 0.121819 226 68 52 0.000000 -1.000000 0.000000
-0.039703 -0.144465 0.132752 226 68 52 0.000000 1.000000 0.000000
0.063821 -0.143396 0.077996 226 68 52 0.707107 0.000000 -0.707107
-0.113833 -0.123421 0.425482 226 68 52 0.024811 -0.996020 0.085608
-0.197428 -0.144465 0.279035 226 68 52 0.000000 1.000000 0.000000
-0.055756 -0.150516 0.050612 226 68 52 0.000000 -1.000000 0.000000
-0.135972 -0.104760 0.445412 226 68 52 0.227108 0.000000 0.973870
-0.246966 -0.110691 0.320630 226 68 52 0.237769 -0.941770 -0.237773
0.028995 -0.042187 0.408486 226 68 52 0.094898 0.000000 0.995487
-0.257645 -0.053272 0.450544 226 68 52 -0.266108 0.000000 0.963943
-0.272252 -0.123675 0.387831 226 68 52 0.000000 -1.000000 0.000000
-0.057455 -0.144465 0.145760 226 68 52 0.000000 1.000000 0.000000
-0.189566 -0.093484 0.456024 226 68 52 0.047434 0.000000 0.998874
0.042179 -0.009297 0.219860 226 68 52 0.000000 1.000000 0.000000
0.025396 -0.108205 0.047434 226 68 52 0.000000 -1.000000 0.000000
-0.162857 -0.116963 0.367122 226 68 52 0.703536 0.009064 0.710602
-0.007781 -0.082993 0.412098 226 68 52 0.229802 0.000000 0.973237
-0.114563 -0.009297 0.303453 226 68 52 0.000000 1.000000 0.000000
-0.158730 -0.108205 0.227349 226 68 52 0.000000 -1.000000 0.000000
-0.183662 -0.134311 0.387978 226 68 52 0.702523 0.007620 0.711621
0.023724 -0.009297 0.116217 226 68 52 0.000000 1.000000 0.000000
0.051586 -0.009297 0.225935 226 68 52 0.000000 1.000000 0.000000
-0.300517 -0.123675 0.350173 226 68 52 0.000000 -1.000000 0.000000
-0.093441 -0.132044 0.050892 226 68 52 0.000000 -1.000000 0.000000
-0.177907 -0.088386 0.024240 226 68 52 0.000000 1.000000 0.000000
-0.102507 -0.123675 0.137026 226 68 52 0.000000 -1.000000 0.000000
-0.348447 -0.042970 0.023770 226 68 52 -0.996590 0.000000 -0.082511
-0.191602 -0.118920 0.170591 226 68 52 0.707107 0.000000 0.707107
-0.014332 -0.009297 0.019915 226 68 52 0.000000 1.000000 0.000000
-0.207200 -0.009297 0.077409 226 68 52 0.000000 1.000000 0.000000
-0.230799 -0.009297 0.277591 226 68 52 0.000000 1.000000 0.000000
0.073529 -0.009297 0.149094 226 68 52 0.000000 1.000000 0.000000
-0.017104 -0.123447 0.400104 226 68 52 0.020532 -0.996002 0.086942
-0.383923 -0.035885 0.224932 226 68 52 -0.987593 0.000000 -0.157037
-0.144267 -0.132044 0.013131 226 68 52 0.000000 -1.000000 0.000000
-0.160035 -0.144465 0.196428 226 68 52 0.000000 1.000000 0.000000
0.055792 -0.115918 0.404351 226 68 52 0.089743 -0.325531 0.941263
0.016690 -0.150516 0.022387 226 68 52 0.000000 -1.000000 0.000000
0.063430 -0.009297 0.259106 226 68 52 0.000000 1.000000 0.000000
-0.033953 -0.059726 0.418278 226 68 52 0.229802 0.000000 0.973237
-0.088802 -0.123675 0.371713 226 68 52 0.000000 -1.000000 0.000000
0.003505 -0.009297 0.196730 226 68 52 0.000000 1.000000 0.000000
-0.168846 -0.088386 0.064975 226 68 52 0.000000 1.000000 0.000000
-0.144085 -0.119769 0.114359 226 68 52 -0.707099 0.004831 -0.707099
-0.254379 -0.118481 0.233368 226 68 52 0.707107 0.000000 0.707107
-0.218262 -0.144465 0.286827 226 68 52 0.000000 1.000000 0.000000
-0.181236 -0.088386 0.036402 226 68 52 0.000000 1.000000 0.000000
0.008946 -0.150516 0.092898 226 68 52 0.000000 -1.000000 0.000000
-0.006705 -0.123675 0.030551 226 68 52 0.000000 -1.000000 0.000000
0.079575 -0.150516 0.048380 226 68 52 0.000000 -1.000000 0.000000
0.042716 -0.108205 0.080580 226 68 52 0.000000 -1.000000 0.000000
-0.315146 -0.009297 0.243530 226 68 52 0.000000 1.000000 0.000000
-0.348352 -0.123235 0.105067 226 68 52 -0.087655 -0.996007 -0.016929
-0.152461 -0.123675 0.336660 226 68 52 0.000000 -1.000000 0.000000
-0.130460 -0.150016 0.100528 226 68 52 -0.707099 0.004831 -0.707099
-0.147518 -0.143757 0.126506 226 68 52 0.707107 0.000000 0.707107
-0.070854 -0.121911 0.419552 226 68 52 0.157937 -0.823392 0.545052
-0.303078 -0.009297 0.339677 226 68 52 0.000000 1.000000 0.000000
-0.275678 -0.009297 0.250896 226 68 52 0.000000 1.000000 0.000000
-0.315430 -0.125648 0.291335 226 68 52 -0.379218 0.844027 0.379225
-0.282953 -0.140824 0.261934 226 68 52 -0.707399 -0.000096 -0.706815
-0.144873 -0.119092 0.349181 226 68 52 0.707099 0.004802 0.707099
-0.242144 -0.009297 0.058513 226 68 52 0.000000 1.000000 0.000000
-0.128859 -0.104544 0.443752 226 68 52 0.227108 0.000000 0.973870
-0.277023 -0.009297 0.305670 226 68 52 0.000000 1.000000 0.000000
-0.303615 -0.123675 0.185889 226 68 52 0.000000 -1.000000 0.000000
0.064130 -0.009297 0.233943 226 68 52 0.000000 1.000000 0.000000
-0.095822 -0.009297 0.079913 226 68 52 0.000000 1.000000 0.000000
-0.072676 -0.132044 0.022911 226 68 52 0.000000 -1.000000 0.000000
-0.065713 -0.100727 0.425777 226 68 52 0.229802 0.000000 0.973237
-0.326213 -0.070579 0.410742 226 68 52 -0.591065 0.000000 0.806624
-0.127709 -0.144465 0.319885 226 68 52 0.000000 1.000000 0.000000
-0.042983 -0.144465 0.136823 226 68 52 0.000000 1.000000 0.000000
-0.179460 -0.009297 0.414041 226 68 52 0.000000 1.000000 0.000000
-0.012366 -0.123675 0.095547 226 68 52 0.000000 -1.000000 0.000000
0.060153 -0.150516 0.096950 226 68 52 0.000000 -1.000000 0.000000
-0.060779 -0.123675 0.352820 226 68 52 0.000000 -1.000000 0.000000
-0.182591 -0.101918 0.319078 226 68 52 0.000000 -1.000000 0.000000
-0.115324 -0.101918 0.175253 226 68 52 0.000000 -1.000000 0.000000
0.028861 -0.009297 0.346852 226 68 52 0.000000 1.000000 0.000000
-0.177800 -0.132044 0.056737 226 68 52 0.000000 -1.000000 0.000000
-0.054912 -0.123675 0.033543 226 68 52 0.000000 -1.000000 0.000000
-0.051876 -0.009297 0.246387 226 68 52 0.000000 1.000000 0.000000
-0.230265 -0.123675 0.419577 226 68 52 0.000000 -1.000000 0.000000
-0.239899 -0.059823 0.455443 226 68 52 -0.266108 0.000000 0.963943
-0.303332 -0.077402 0.427508 226 68 52 -0.591065 0.000000 0.806624
0.038073 -0.009297 0.059322 226 68 52 0.000000 1.000000 0.000000
-0.005202 -0.108205 0.156863 226 68 52 0.000000 -1.000000 0.000000
-0.285463 -0.123675 0.176742 226 68 52 0.000000 -1.000000 0.000000
-0.279795 -0.009297 0.047750 226 68 52 0.000000 1.000000 0.000000
0.018490 -0.108205 0.028525 226 68 52 0.000000 -1.000000 0.000000
-0.002154 -0.042810 0.411456 226 68 52 0.094898 0.000000 0.995487
-0.291778 -0.042383 0.435975 226 68 52 -0.591065 0.000000 0.806624
-0.310749 -0.042729 0.422074 226 68 52 -0.591065 0.000000 0.806624
-0.034985 -0.088386 0.047334 226 68 52 0.000000 1.000000 0.000000
-0.014115 -0.150516 0.088277 226 68 52 0.000000 -1.000000 0.000000
-0.139151 -0.088386 0.068479 226 68 52 0.000000 1.000000 0.000000
0.057314 -0.101918 0.109277 226 68 52 0.000000 -1.000000 0.000000
-0.387158 -0.107947 0.261163 226 68 52 -0.995479 -0.092566 0.021295
-0.288590 -0.123675 0.178664 226 68 52 0.000000 -1.000000 0.000000
-0.344269 -0.010035 0.078698 226 68 52 -0.299737 0.952264 -0.057888
-0.231887 -0.093989 0.073229 226 68 52 -0.000016 -0.001374 -0.999999
-0.011226 -0.123675 0.088189 226 68 52 0.000000 -1.000000 0.000000
-0.050542 -0.123675 0.114259 226 68 52 0.000000 -1.000000 0.000000
0.058417 -0.101918 0.054050 226 68 52 0.000000 -1.000000 0.000000
-0.346744 -0.009297 0.221020 226 68 52 0.000000 1.000000 0.000000
-0.197860 -0.123675 0.222802 226 68 52 0.000000 -1.000000 0.000000
-0.271788 -0.109642 0.251733 226 68 52 -0.080572 0.993487 0.080572
-0.282677 -0.123675 0.059260 226 68 52 0.000000 -1.000000 0.000000
-0.288666 -0.123675 0.352470 226 68 52 0.000000 -1.000000 0.000000
0.044221 -0.108205 0.126259 226 68 52 0.000000 -1.000000 0.000000
-0.382492 -0.043361 0.215942 226 68 52 -0.987593 0.000000 -0.157037
0.073109 -0.123675 0.044402 226 68 52 0.000000 -1.000000 0.000000
-0.175630 -0.103430 0.349734 226 68 52 0.078884 -0.993757 -0.078893
-0.097316 -0.110994 0.073227 226 68 52 0.000078 0.001100 -0.999999
0.071167 -0.123675 0.243000 226 68 52 0.000000 -1.000000 0.000000
0.038647 -0.108205 0.020243 226 68 52 0.000000 -1.000000 0.000000
-0.361419 -0.009297 0.288156 226 68 52 0.000000 1.000000 0.000000
-0.279405 -0.009297 0.116341 226 68 52 0.000000 1.000000 0.000000
0.009099 -0.108205 0.130915 226 68 52 0.000000 -1.000000 0.000000
-0.062648 -0.123675 0.244671 226 68 52 0.000000 -1.000000 0.000000
-0.087404 -0.123675 0.026969 226 68 52 0.000000 -1.000000 0.000000
-0.338631 -0.132044 0.061592 226 68 52 0.000000 -1.000000 0.000000
-0.205594 -0.108205 0.281553 226 68 52 0.000000 -1.000000 0.000000
-0.164909 -0.054847 0.452159 226 68 52 0.227108 0.000000 0.973870
0.057461 -0.009297 0.249539 226 68 52 0.000000 1.000000 0.000000
-0.080581 -0.108205 0.061389 226 68 52 0.000000 -1.000000 0.000000
-0.269410 -0.009297 0.017320 226 68 52 0.000000 1.000000 0.000000
-0.357988 -0.091589 0.094588 226 68 52 -0.981866 0.000000 -0.189577
-0.026344 -0.123675 0.159052 226 68 52 0.000000 -1.000000 0.000000
-0.057023 -0.088386 0.025145 226 68 52 0.000000 1.000000 0.000000
-0.209753 -0.108205 0.272459 226 68 52 0.000000 -1.000000 0.000000
-0.231934 -0.150516 0.238199 226 68 52 0.000000 -1.000000 0.000000
-0.017100 -0.144465 0.042700 226 68 52 0.000000 1.000000 0.000000
-0.248643 -0.112445 0.325901 226 68 52 0.237769 -0.941770 -0.237773
-0.384505 -0.111390 0.230737 226 68 52 -0.983204 -0.094179 -0.156332
-0.013164 -0.009297 0.242840 226 68 52 0.000000 1.000000 0.000000
-0.216687 -0.123675 0.399400 226 68 52 0.000000 -1.000000 0.000000
-0.154861 -0.142672 0.359399 226 68 52 0.712589 0.004944 0.701564
-0.248867 -0.118858 0.342786 226 68 52 -0.379218 0.844027 0.379225
-0.177933 -0.113162 0.372733 226 68 52 -0.237777 0.941766 0.237777
-0.272470 -0.127027 0.320599 226 68 52 0.379436 -0.843835 -0.379436
-0.009192 -0.132044 0.042036 226 68 52 0.000000 -1.000000 0.000000
0.045281 -0.149569 0.068371 226 68 52 -0.707099 0.004802 0.707099
-0.071791 -0.123675 0.303591 226 68 52 0.000000 -1.000000 0.000000
-0.018588 -0.108205 0.191835 226 68 52 0.000000 -1.000000 0.000000
-0.170258 -0.009297 0.253277 226 68 52 0.000000 1.000000 0.000000
-0.074030 -0.009297 0.069980 226 68 52 0.000000 1.000000 0.000000
0.049218 -0.101918 0.102221 226 68 52 0.000000 -1.000000 0.000000
-0.115955 -0.009297 0.039158 226 68 52 0.000000 1.000000 0.000000
0.059936 -0.123675 0.359313 226 68 52 0.000000 -1.000000 0.000000
-0.113503 -0.150516 0.277159 226 68 52 0.000000 -1.000000 0.000000
-0.251824 -0.123675 0.196141 226 68 52 0.000000 -1.000000 0.000000
0.041778 -0.117229 0.153822 226 68 52 -0.707107 0.000000 -0.707107
-0.042395 -0.101918 0.192049 226 68 52 0.000000 -1.000000 0.000000
-0.326503 -0.009297 0.116079 226 68 52 0.000000 1.000000 0.000000
-0.042027 -0.108205 0.107438 226 68 52 0.000000 -1.000000 0.000000
0.082066 -0.101918 0.097106 226 68 52 0.000000 -1.000000 0.000000
-0.314632 -0.009297 0.286532 226 68 52 0.000000 1.000000 0.000000
-0.230633 -0.009297 0.318030 226 68 52 0.000000 1.000000 0.000000
-0.162324 -0.123675 0.280776 226 68 52 0.000000 -1.000000 0.000000
0.053483 -0.149186 0.151029 226 68 52 0.707099 0.004802 0.707099
0.008943 -0.108205 0.121518 226 68 52 0.000000 -1.000000 0.000000
-0.272334 -0.088386 0.073123 226 68 52 0.000000 1.000000 0.000000
-0.107800 -0.123675 0.074194 226 68 52 0.000000 -1.000000 0.000000
-0.052476 -0.150516 0.223014 226 68 52 0.000000 -1.000000 0.000000
-0.041782 -0.144465 0.219529 226 68 52 0.000000 1.000000 0.000000
-0.313211 -0.009297 0.178848 226 68 52 0.000000 1.000000 0.000000
0.025013 -0.088386 0.062428 226 68 52 0.000000 1.000000 0.000000
-0.057493 -0.108205 0.156331 226 68 52 0.000000 -1.000000 0.000000
0.038260 -0.112983 0.157339 226 68 52 -0.707107 0.000000 -0.707107
-0.382097 -0.098585 0.315371 226 68 52 -0.951086 0.000000 0.308926
-0.217484 -0.009297 0.397674 226 68 52 0.000000 1.000000 0.000000
0.070544 -0.127292 0.073230 226 68 52 -0.000031 -0.000275 1.000000
-0.056104 -0.123675 0.393223 226 68 52 0.000000 -1.000000 0.000000
0.022743 -0.123675 0.307099 226 68 52 0.000000 -1.000000 0.000000
-0.316818 -0.009297 0.287558 226 68 52 0.000000 1.000000 0.000000
-0.307472 -0.088386 0.033334 226 68 52 0.000000 1.000000 0.000000
-0.088452 -0.073013 0.432220 226 68 52 0.278448 0.000000 0.960451
-0.036662 -0.101918 0.047054 226 68 52 0.000000 -1.000000 0.000000
-0.052672 -0.123675 0.172419 226 68 52 0.000000 -1.000000 0.000000
-0.158030 -0.108205 0.320819 226 68 52 0.000000 -1.000000 0.000000
-0.194089 -0.101918 0.243165 226 68 52 0.000000 -1.000000 0.000000
-0.069249 -0.104250 0.039630 226 68 52 -0.707099 0.004831 -0.707099
-0.367391 -0.107459 0.357930 226 68 52 -0.799967 0.000000 0.600044
-0.240957 -0.123675 0.192301 226 68 52 0.000000 -1.000000 0.000000
-0.033804 -0.101918 0.100247 226 68 52 0.000000 -1.000000 0.000000
-0.063961 -0.123675 0.244557 226 68 52 0.000000 -1.000000 0.000000
-0.153961 -0.101918 0.178101 226 68 52 0.000000 -1.000000 0.000000
-0.006623 -0.009297 0.327175 226 68 52 0.000000 1.000000 0.000000
-0.013566 -0.123675 0.308473 226 68 52 0.000000 -1.000000 0.000000
-0.088828 -0.132044 0.056323 226 68 52 0.000000 -1.000000 0.000000
-0.082566 -0.123675 0.300052 226 68 52 0.000000 -1.000000 0.000000
-0.085816 -0.009297 0.177405 226 68 52 0.000000 1.000000 0.000000
-0.169545 -0.150516 0.278419 226 68 52 0.000000 -1.000000 0.000000
-0.155311 -0.101918 0.245605 226 68 52 0.000000 -1.000000 0.000000
-0.016036 -0.123675 0.220630 226 68 52 0.000000 -1.000000 0.000000
0.012459 -0.009297 0.080095 226 68 52 0.000000 1.000000 0.000000
-0.097122 -0.009297 0.391530 226 68 52 0.000000 1.000000 0.000000
-0.220317 -0.129367 0.073225 226 68 52 -0.000016 0.001101 0.999999
-0.020081 -0.009297 0.382117 226 68 52 0.000000 1.000000 0.000000
-0.034780 -0.144465 0.125709 226 68 52 0.000000 1.000000 0.000000
0.052383 -0.123675 0.374528 226 68 52 0.000000 -1.000000 0.000000
0.000107 -0.088386 0.041201 226 68 52 0.000000 1.000000 0.000000
-0.150111 -0.144465 0.254935 226 68 52 0.000000 1.000000 0.000000
-0.088678 -0.150516 0.246718 226 68 52 0.000000 -1.000000 0.000000
-0.081215 -0.111871 0.429728 226 68 52 0.276983 -0.095764 0.956091
-0.058455 -0.149650 0.262969 226 68 52 0.707099 0.004802 0.707099
0.034713 -0.009297 0.113930 226 68 52 0.000000 1.000000 0.000000
-0.045409 -0.144099 0.249886 226 68 52 0.707099 0.004802 0.707099
-0.281529 -0.082656 0.443485 226 68 52 -0.591065 0.000000 0.806624
0.039997 -0.009297 0.239474 226 68 52 0.000000 1.000000 0.000000
0.031881 -0.088386 0.049007 226 68 52 0.000000 1.000000 0.000000
0.065127 -0.123675 0.164550 226 68 52 0.000000 -1.000000 0.000000
-0.181240 -0.120812 0.376833 226 68 52 -0.707283 -0.000125 -0.706931
-0.043610 -0.123675 0.302451 226 68 52 0.000000 -1.000000 0.000000
-0.161925 -0.101918 0.340017 226 68 52 0.000000 -1.000000 0.000000
-0.028503 -0.101918 0.202209 226 68 52 0.000000 -1.000000 0.000000
-0.184863 -0.102298 0.326232 226 68 52 0.078857 -0.993762 -0.078855
-0.247988 -0.009297 0.104278 226 68 52 0.000000 1.000000 0.000000
0.010649 -0.123675 0.291760 226 68 52 0.000000 -1.000000 0.000000
-0.135486 -0.122202 0.436904 226 68 52 0.069442 -0.952165 0.297588
0.061121 -0.144465 0.128885 226 68 52 0.000000 1.000000 0.000000
-0.241071 -0.009297 0.332870 226 68 52 0.000000 1.000000 0.000000
-0.340215 -0.009297 0.235677 226 68 52 0.000000 1.000000 0.000000
-0.002561 -0.101918 0.115895 226 68 52 0.000000 -1.000000 0.000000
0.064201 -0.119399 0.131398 226 68 52 -0.707107 0.000000 -0.707107
-0.296612 -0.121534 0.284242 226 68 52 0.379436 -0.843835 -0.379436
-0.002299 -0.108205 0.075092 226 68 52 0.000000 -1.000000 0.000000
-0.049865 -0.150516 0.143290 226 68 52 0.000000 -1.000000 0.000000
0.059709 -0.150516 0.125006 226 68 52 0.000000 -1.000000 0.000000
-0.366049 -0.009630 0.193100 226 68 52 -0.088072 0.996016 -0.014010
-0.060360 -0.108205 0.252533 226 68 52 0.000000 -1.000000 0.000000
-0.053358 -0.144465 0.102321 226 68 52 0.000000 1.000000 0.000000
-0.052326 -0.108205 0.171576 226 68 52 0.000000 -1.000000 0.000000
-0.074156 -0.009297 0.105859 226 68 52 0.000000 1.000000 0.000000
-0.210530 -0.144465 0.251983 226 68 52 0.000000 1.000000 0.000000
-0.039503 -0.123675 0.182988 226 68 52 0.000000 -1.000000 0.000000
-0.105361 -0.150516 0.154162 226 68 52 0.000000 -1.000000 0.000000
-0.028282 -0.104046 0.232486 226 68 52 0.707099 0.004802 0.707099
-0.191578 -0.102322 0.319827 226 68 52 0.078857 -0.993762 -0.078855
-0.129475 -0.087952 0.443896 226 68 52 0.227108 0.000000 0.973870
0.045071 -0.009297 0.230773 226 68 52 0.000000 1.000000 0.000000
-0.046468 -0.101918 0.207648 226 68 52 0.000000 -1.000000 0.000000
-0.116967 -0.109884 0.095956 226 68 52 0.707107 0.000000 0.707107
0.073074 -0.101918 0.086757 226 68 52 0.000000 -1.000000 0.000000
-0.074998 -0.108205 0.174247 226 68 52 0.000000 -1.000000 0.000000
-0.188487 -0.009297 0.344531 226 68 52 0.000000 1.000000 0.000000
-0.123987 -0.101918 0.222256 226 68 52 0.000000 -1.000000 0.000000
-0.105828 -0.108205 0.241806 226 68 52 0.000000 -1.000000 0.000000
-0.018448 -0.123675 0.118284 226 68 52 0.000000 -1.000000 0.000000
-0.117493 -0.144465 0.243333 226 68 52 0.000000 1.000000 0.000000
0.067091 -0.009297 0.297467 226 68 52 0.000000 1.000000 0.000000
-0.129513 -0.123675 0.249029 226 68 52 0.000000 -1.000000 0.000000
-0.126340 -0.108205 0.226862 226 68 52 0.000000 -1.000000 0.000000
0.045464 -0.121329 0.400462 226 68 52 0.053929 -0.822965 0.565527
0.042901 -0.101918 0.042821 226 68 52 0.000000 -1.000000 0.000000
-0.316214 -0.123675 0.262357 226 68 52 0.000000 -1.000000 0.000000
0.071025 -0.009297 0.033327 226 68 52 0.000000 1.000000 0.000000
-0.123380 -0.108580 0.327615 226 68 52 0.707099 0.004802 0.707099
-0.054268 -0.132044 0.016641 226 68 52 0.000000 -1.000000 0.000000
-0.293309 -0.067810 0.434853 226 68 52 -0.591065 0.000000 0.806624
-0.080591 -0.150516 0.095689 226 68 52 0.000000 -1.000000 0.000000
-0.352839 -0.062764 0.377330 226 68 52 -0.799967 0.000000 0.600044
-0.092606 -0.128121 0.288205 226 68 52 -0.707107 0.000000 -0.707107
-0.185098 -0.009297 0.148028 226 68 52 0.000000 1.000000 0.000000
0.068836 -0.101918 0.135065 226 68 52 0.000000 -1.000000 0.000000
-0.178912 -0.108205 0.192860 226 68 52 0.000000 -1.000000 0.000000
-0.386658 -0.092704 0.242139 226 68 52 -0.987593 0.000000 -0.157037
-0.097126 -0.123675 0.289879 226 68 52 0.000000 -1.000000 0.000000
-0.099400 -0.128937 0.303773 226 68 52 0.707099 0.004802 0.707099
0.073806 -0.009297 0.338096 226 68 52 0.000000 1.000000 0.000000
-0.189735 -0.102873 0.328619 226 68 52 0.078884 -0.993757 -0.078893
0.011810 -0.108205 0.013523 226 68 52 0.000000 -1.000000 0.000000
-0.113945 -0.101918 0.243410 226 68 52 0.000000 -1.000000 0.000000
-0.139985 -0.123675 0.359746 226 68 52 0.000000 -1.000000 0.000000
-0.195864 -0.144465 0.268536 226 68 52 0.000000 1.000000 0.000000
-0.004036 -0.009297 0.372395 226 68 52 0.000000 1.000000 0.000000
-0.341937 -0.088386 0.067193 226 68 52 0.000000 1.000000 0.000000
-0.167633 -0.009297 0.114724 226 68 52 0.000000 1.000000 0.000000
-0.193475 -0.088386 0.058287 226 68 52 0.000000 1.000000 0.000000
-0.203466 -0.123675 0.242507 226 68 52 0.000000 -1.000000 0.000000
-0.207736 -0.115664 0.376804 226 68 52 -0.379218 0.844027 0.379225
-0.308931 -0.068916 0.423406 226 68 52 -0.591065 0.000000 0.806624
-0.105377 -0.123675 0.205371 226 68 52 0.000000 -1.000000 0.000000
0.050987 -0.135774 0.144613 226 68 52 -0.707107 0.000000 -0.707107
0.075214 -0.009297 0.246341 226 68 52 0.000000 1.000000 0.000000
0.036786 -0.123675 0.165619 226 68 52 0.000000 -1.000000 0.000000
-0.234632 -0.118015 0.335254 226 68 52 -0.237777 0.941766 0.237777
-0.261029 -0.009297 0.167614 226 68 52 0.000000 1.000000 0.000000
-0.067865 -0.108205 0.233812 226 68 52 0.000000 -1.000000 0.000000
0.074373 -0.009297 0.072214 226 68 52 0.000000 1.000000 0.000000
0.070084 -0.123675 0.368041 226 68 52 0.000000 -1.000000 0.000000
-0.125559 -0.101918 0.200990 226 68 52 0.000000 -1.000000 0.000000
-0.010933 -0.108205 0.108036 226 68 52 0.000000 -1.000000 0.000000
-0.361945 -0.066762 0.115082 226 68 52 -0.981866 0.000000 -0.189577
0.032059 -0.009297 0.382318 226 68 52 0.000000 1.000000 0.000000
0.075097 -0.101918 0.087190 226 68 52 0.000000 -1.000000 0.000000
-0.380244 -0.097602 0.201801 226 68 52 -0.987593 0.000000 -0.157037
-0.266548 -0.123675 0.025582 226 68 52 0.000000 -1.000000 0.000000
-0.341432 -0.123675 0.343856 226 68 52 0.000000 -1.000000 0.000000
0.074459 -0.110418 0.097284 226 68 52 -0.707099 0.004802 0.707099
-0.118109 -0.101918 0.102399 226 68 52 0.000000 -1.000000 0.000000
-0.146330 -0.101918 0.183105 226 68 52 0.000000 -1.000000 0.000000
-0.012723 -0.088386 0.023120 226 68 52 0.000000 1.000000 0.000000
-0.098779 -0.123675 0.275988 226 68 52 0.000000 -1.000000 0.000000
-0.377533 -0.122046 0.304556 226 68 52 -0.290640 -0.952162 0.094426
-0.027966 -0.150516 0.166091 226 68 52 0.000000 -1.000000 0.000000
-0.054718 -0.081076 0.423181 226 68 52 0.229802 0.000000 0.973237
-0.047866 -0.144465 0.029955 226 68 52 0.000000 1.000000 0.000000
-0.310114 -0.009297 0.179430 226 68 52 0.000000 1.000000 0.000000
-0.204147 -0.123675 0.035023 226 68 52 0.000000 -1.000000 0.000000
-0.074380 -0.108205 0.259557 226 68 52 0.000000 -1.000000 0.000000
-0.276269 -0.009297 0.414882 226 68 52 0.000000 1.000000 0.000000
-0.267915 -0.009297 0.088160 226 68 52 0.000000 1.000000 0.000000
-0.179142 -0.108205 0.245081 226 68 52 0.000000 -1.000000 0.000000
-0.122732 -0.123675 0.229439 226 68 52 0.000000 -1.000000 0.000000
-0.199868 -0.009297 0.036099 226 68 52 0.000000 1.000000 0.000000
-0.059280 -0.123675 0.134547 226 68 52 0.000000 -1.000000 0.000000
-0.082757 -0.011328 0.423405 226 68 52 0.158260 0.822591 0.546166
0.002620 -0.009297 0.326695 226 68 52 0.000000 1.000000 0.000000
-0.040300 -0.138827 0.244741 226 68 52 0.707099 0.004802 0.707099
0.049474 -0.117209 0.073231 226 68 52 0.000078 0.001100 -0.999999
0.047198 -0.121759 0.073230 226 68 52 0.000016 -0.000275 -1.000000
-0.104690 -0.101918 0.286034 226 68 52 0.000000 -1.000000 0.000000
-0.109523 -0.148528 0.079601 226 68 52 -0.707099 0.004831 -0.707099
-0.325288 -0.029848 0.411419 226 68 52 -0.591065 0.000000 0.806624
-0.323498 -0.009297 0.070954 226 68 52 0.000000 1.000000 0.000000
-0.211780 -0.144465 0.217383 226 68 52 0.000000 1.000000 0.000000
-0.362777 -0.071355 0.364081 226 68 52 -0.799967 0.000000 0.600044
-0.241276 -0.009297 0.357571 226 68 52 0.000000 1.000000 0.000000
-0.090205 -0.123675 0.329861 226 68 52 0.000000 -1.000000 0.000000
-0.251511 -0.009297 0.024407 226 68 52 0.000000 1.000000 0.000000
-0.141953 -0.108205 0.138731 226 68 52 0.000000 -1.000000 0.000000
-0.176339 -0.123675 0.414880 226 68 52 0.000000 -1.000000 0.000000
-0.159541 -0.144236 0.129648 226 68 52 -0.707099 0.004831 -0.707099
-0.177731 -0.150516 0.290441 226 68 52 0.000000 -1.000000 0.000000
-0.071551 -0.132044 0.018130 226 68 52 0.000000 -1.000000 0.000000
0.038388 -0.144465 0.089948 226 68 52 0.000000 1.000000 0.000000
-0.150703 -0.009297 0.101839 226 68 52 0.000000 1.000000 0.000000
-0.142556 -0.150516 0.165724 226 68 52 0.000000 -1.000000 0.000000
-0.024321 -0.123675 0.216947 226 68 52 0.000000 -1.000000 0.000000
-0.013273 -0.108205 0.101463 226 68 52 0.000000 -1.000000 0.000000
-0.124863 -0.113235 0.329130 226 68 52 0.707099 0.004802 0.707099
-0.181587 -0.123675 0.434755 226 68 52 0.000000 -1.000000 0.000000
-0.320593 -0.123675 0.365311 226 68 52 0.000000 -1.000000 0.000000
-0.073188 -0.123675 0.110450 226 68 52 0.000000 -1.000000 0.000000
0.031422 -0.144465 0.109387 226 68 52 0.000000 1.000000 0.000000
-0.086866 -0.147869 0.291369 226 68 52 0.707099 0.004802 0.707099
-0.129897 -0.101918 0.122513 226 68 52 0.000000 -1.000000 0.000000
-0.129197 -0.116073 0.099496 226 68 52 -0.707099 0.004831 -0.707099
-0.257389 -0.123675 0.399886 226 68 52 0.000000 -1.000000 0.000000
-0.175757 -0.150516 0.314662 226 68 52 0.000000 -1.000000 0.000000
-0.263704 -0.009297 0.116958 226 68 52 0.000000 1.000000 0.000000
-0.178989 -0.101918 0.151275 226 68 52 0.000000 -1.000000 0.000000
-0.071316 -0.144465 0.092785 226 68 52 0.000000 1.000000 0.000000
0.015092 -0.101918 0.037251 226 68 52 0.000000 -1.000000 0.000000
-0.090419 -0.150516 0.239433 226 68 52 0.000000 -1.000000 0.000000
-0.011795 -0.150516 0.057879 226 68 52 0.000000 -1.000000 0.000000
0.025181 -0.132044 0.017807 226 68 52 0.000000 -1.000000 0.000000
-0.141381 -0.108205 0.266096 226 68 52 0.000000 -1.000000 0.000000
-0.113524 -0.123675 0.357186 226 68 52 0.000000 -1.000000 0.000000
-0.357927 -0.123440 0.161563 226 68 52 -0.086998 -0.996016 -0.019590
-0.079660 -0.065651 0.429672 226 68 52 0.278448 0.000000 0.960451
-0.077947 -0.088386 0.070932 226 68 52 0.000000 1.000000 0.000000
-0.137992 -0.123675 0.141649 226 68 52 0.000000 -1.000000 0.000000
-0.070415 -0.135708 0.040580 226 68 52 -0.707099 0.004831 -0.707099
0.059643 -0.089262 0.405565 226 68 52 0.094898 0.000000 0.995487
-0.012289 -0.123675 0.173668 226 68 52 0.000000 -1.000000 0.000000
-0.172550 -0.108205 0.313410 226 68 52 0.000000 -1.000000 0.000000
-0.045325 -0.123675 0.151317 226 68 52 0.000000 -1.000000 0.000000
-0.035350 -0.123675 0.253066 226 68 52 0.000000 -1.000000 0.000000
-0.374783 -0.053263 0.173847 226 68 52 -0.975556 0.000000 -0.219752
-0.272914 -0.123675 0.173512 226 68 52 0.000000 -1.000000 0.000000
-0.182128 -0.144465 0.254284 226 68 52 0.000000 1.000000 0.000000
-0.233259 -0.009297 0.247532 226 68 52 0.000000 1.000000 0.000000
-0.365472 -0.040789 0.132513 226 68 52 -0.975556 0.000000 -0.219752
-0.252265 -0.132044 0.027577 226 68 52 0.000000 -1.000000 0.000000
-0.210002 -0.123675 0.119378 226 68 52 0.000000 -1.000000 0.000000
-0.100191 -0.028275 0.435623 226 68 52 0.278448 0.000000 0.960451
-0.258290 -0.127029 0.228515 226 68 52 -0.707099 0.004831 -0.707099
-0.063284 -0.150516 0.263688 226 68 52 0.000000 -1.000000 0.000000
-0.357396 -0.085586 0.091524 226 68 52 -0.981866 0.000000 -0.189577
-0.384231 -0.076493 0.308802 226 68 52 -0.951086 0.000000 0.308926
-0.069344 -0.144465 0.139809 226 68 52 0.000000 1.000000 0.000000
0.044472 -0.009297 0.100218 226 68 52 0.000000 1.000000 0.000000
0.004514 -0.150516 0.193060 226 68 52 0.000000 -1.000000 0.000000
-0.258967 -0.123675 0.090662 226 68 52 0.000000 -1.000000 0.000000
-0.373941 -0.123392 0.262187 226 68 52 -0.089195 -0.996012 0.001907
-0.177474 -0.125114 0.373067 226 68 52 -0.707283 -0.000125 -0.706931
0.034632 -0.102808 0.169565 226 68 52 0.707099 0.004802 0.707099
-0.203428 -0.123675 0.328203 226 68 52 0.000000 -1.000000 0.000000
-0.133570 -0.049960 0.444851 226 68 52 0.227108 0.000000 0.973870
-0.345424 -0.009297 0.164144 226 68 52 0.000000 1.000000 0.000000
0.021154 -0.009297 0.337231 226 68 52 0.000000 1.000000 0.000000
0.005486 -0.143833 0.190113 226 68 52 -0.707107 0.000000 -0.707107
-0.023055 -0.132044 0.044476 226 68 52 0.000000 -1.000000 0.000000
0.017478 -0.123675 0.128598 226 68 52 0.000000 -1.000000 0.000000
-0.324933 -0.088386 0.042229 226 68 52 0.000000 1.000000 0.000000
-0.235607 -0.128424 0.205822 226 68 52 -0.707099 0.004831 -0.707099
0.003237 -0.115174 0.192363 226 68 52 -0.707107 0.000000 -0.707107
0.011403 -0.108205 0.094180 226 68 52 0.000000 -1.000000 0.000000
-0.058307 -0.122068 0.416065 226 68 52 0.070055 -0.952373 0.296778
-0.114731 -0.015397 0.437221 226 68 52 0.224296 0.592564 0.773666
-0.267330 -0.151021 0.244284 226 68 52 0.076541 -0.994124 -0.076540
-0.311830 -0.139895 0.290819 226 68 52 0.707059 -0.000058 0.707155
-0.381248 -0.109614 0.317440 226 68 52 -0.946967 -0.092219 0.307815
-0.101100 -0.144465 0.257750 226 68 52 0.000000 1.000000 0.000000
-0.110898 -0.123675 0.371193 226 68 52 0.000000 -1.000000 0.000000
-0.150118 -0.144465 0.205469 226 68 52 0.000000 1.000000 0.000000
-0.292747 -0.009297 0.103578 226 68 52 0.000000 1.000000 0.000000
-0.006064 -0.123675 0.081310 226 68 52 0.000000 -1.000000 0.000000
-0.188696 -0.060552 0.455983 226 68 52 0.047434 0.000000 0.998874
-0.149843 -0.101918 0.348579 226 68 52 0.000000 -1.000000 0.000000
-0.124051 -0.123675 0.316006 226 68 52 0.000000 -1.000000 0.000000
-0.072109 -0.123675 0.068556 226 68 52 0.000000 -1.000000 0.000000
-0.228369 -0.009297 0.180342 226 68 52 0.000000 1.000000 0.000000
-0.079363 -0.009297 0.387889 226 68 52 0.000000 1.000000 0.000000
-0.083400 -0.123675 0.398905 226 68 52 0.000000 -1.000000 0.000000
0.046471 -0.026155 0.406821 226 68 52 0.094898 0.000000 0.995487
-0.002444 -0.144465 0.050403 226 68 52 0.000000 1.000000 0.000000
-0.083866 -0.009297 0.284739 226 68 52 0.000000 1.000000 0.000000
0.059520 -0.130798 0.136080 226 68 52 -0.707107 0.000000 -0.707107
0.018066 -0.103837 0.040846 226 68 52 -0.707099 0.004802 0.707099
-0.033050 -0.108205 0.175222 226 68 52 0.000000 -1.000000 0.000000
-0.108917 -0.150516 0.166834 226 68 52 0.000000 -1.000000 0.000000
-0.128697 -0.123675 0.071817 226 68 52 0.000000 -1.000000 0.000000
-0.295501 -0.123675 0.359281 226 68 52 0.000000 -1.000000 0.000000
0.077517 -0.009297 0.320121 226 68 52 0.000000 1.000000 0.000000
0.065013 -0.132044 0.068171 226 68 52 0.000000 -1.000000 0.000000
-0.037973 -0.108205 0.043399 226 68 52 0.000000 -1.000000 0.000000
-0.140116 -0.096615 0.446378 226 68 52 0.227108 0.000000 0.973870
-0.371349 -0.026503 0.348462 226 68 52 -0.951086 0.000000 0.308926
-0.170849 -0.123675 0.332509 226 68 52 0.000000 -1.000000 0.000000
0.052334 -0.123675 0.281312 226 68 52 0.000000 -1.000000 0.000000
-0.044306 -0.123675 0.385517 226 68 52 0.000000 -1.000000 0.000000
-0.111052 -0.144465 0.142685 226 68 52 0.000000 1.000000 0.000000
-0.297141 -0.123675 0.072214 226 68 52 0.000000 -1.000000 0.000000
0.057539 -0.101918 0.025364 226 68 52 0.000000 -1.000000 0.000000
-0.299880 -0.123675 0.210583 226 68 52 0.000000 -1.000000 0.000000
-0.231735 -0.123675 0.229190 226 68 52 0.000000 -1.000000 0.000000
-0.167099 -0.144465 0.181765 226 68 52 0.000000 1.000000 0.000000
-0.286904 -0.138900 0.340761 226 68 52 -0.500189 0.706797 0.500249
-0.039611 -0.130905 0.018600 226 68 52 0.707107 0.000000 0.707107
-0.252014 -0.123675 0.204720 226 68 52 0.000000 -1.000000 0.000000
-0.052639 -0.009297 0.177880 226 68 52 0.000000 1.000000 0.000000
-0.097150 -0.123675 0.115464 226 68 52 0.000000 -1.000000 0.000000
-0.021141 -0.108205 0.027070 226 68 52 0.000000 -1.000000 0.000000
0.056366 -0.139537 0.139233 226 68 52 -0.707107 0.000000 -0.707107
-0.032356 -0.141890 0.227956 226 68 52 -0.707107 0.000000 -0.707107
0.032214 -0.144465 0.103873 226 68 52 0.000000 1.000000 0.000000
-0.326232 -0.088386 0.036305 226 68 52 0.000000 1.000000 0.000000
-0.043826 -0.123675 0.258660 226 68 52 0.000000 -1.000000 0.000000
-0.329006 -0.123675 0.013907 226 68 52 0.000000 -1.000000 0.000000
-0.006351 -0.108205 0.145386 226 68 52 0.000000 -1.000000 0.000000
0.040810 -0.123675 0.369970 226 68 52 0.000000 -1.000000 0.000000
-0.100239 -0.009297 0.100233 226 68 52 0.000000 1.000000 0.000000
-0.168546 -0.150516 0.280872 226 68 52 0.000000 -1.000000 0.000000
-0.058931 -0.149821 0.263446 226 68 52 0.707099 0.004802 0.707099
-0.370864 -0.046601 0.156448 226 68 52 -0.975556 0.000000 -0.219752
-0.016098 -0.150516 0.083164 226 68 52 0.000000 -1.000000 0.000000
-0.236063 -0.088386 0.030607 226 68 52 0.000000 1.000000 0.000000
-0.118981 -0.108205 0.171397 226 68 52 0.000000 -1.000000 0.000000
-0.357238 -0.100878 0.090707 226 68 52 -0.981866 0.000000 -0.189577
0.047753 -0.104651 0.406699 226 68 52 0.094898 0.000000 0.995487
-0.326195 -0.009297 0.045615 226 68 52 0.000000 1.000000 0.000000
-0.170335 -0.091259 0.453426 226 68 52 0.227108 0.000000 0.973870
-0.030959 -0.123675 0.083530 226 68 52 0.000000 -1.000000 0.000000
-0.214870 -0.009297 0.390132 226 68 52 0.000000 1.000000 0.000000
-0.123370 -0.132044 0.060599 226 68 52 0.000000 -1.000000 0.000000
-0.139193 -0.009297 0.247571 226 68 52 0.000000 1.000000 0.000000
-0.105874 -0.150516 0.268309 226 68 52 0.000000 -1.000000 0.000000
-0.149147 -0.009297 0.329223 226 68 52 0.000000 1.000000 0.000000
-0.386919 -0.090150 0.272813 226 68 52 -0.999771 0.000000 0.021386
-0.082777 -0.067271 0.430575 226 68 52 0.278448 0.000000 0.960451
-0.071054 -0.088386 0.049066 226 68 52 0.000000 1.000000 0.000000
0.012972 -0.088386 0.067765 226 68 52 0.000000 1.000000 0.000000
0.069553 -0.009297 0.297661 226 68 52 0.000000 1.000000 0.000000
-0.014277 -0.117005 0.073227 226 68 52 0.000016 -0.000275 -1.000000
0.008388 -0.123675 0.050760 226 68 52 0.000000 -1.000000 0.000000
-0.009997 -0.010874 0.404569 226 68 52 0.070086 0.952373 0.296773
-0.118156 -0.009297 0.388415 226 68 52 0.000000 1.000000 0.000000
0.074737 -0.009297 0.148764 226 68 52 0.000000 1.000000 0.000000
-0.203842 -0.123675 0.182424 226 68 52 0.000000 -1.000000 0.000000
-0.335941 -0.009992 0.382199 226 68 52 -0.244335 0.952209 0.183298
