ply
format ascii 1.0
element vertex 700
property float x
property float y
property float z
property uchar red
property uchar green
property uchar blue
property float nx
property float ny
property float nz
end_header
-0.438640 0.252660 -0.374400 211 70 180 -0.097781 -0.022952 -0.994943
-0.394953 0.218433 -0.316531 211 70 180 0.986667 0.162754 0.000403
-0.407256 0.293130 -0.361519 211 70 180 0.986667 0.162754 0.000403
-0.421354 0.274658 -0.303471 211 70 180 -0.005226 0.021793 0.999749
-0.460187 0.193541 -0.318652 211 70 180 -0.994234 -0.107231 -0.001029
-0.466363 0.251182 -0.357730 211 70 180 -0.994234 -0.107231 -0.001029
-0.446217 0.280964 -0.303738 211 70 180 -0.005226 0.021793 0.999749
-0.454945 0.145156 -0.340973 211 70 180 -0.994234 -0.107231 -0.001029
-0.470505 0.289629 -0.363095 211 70 180 -0.994234 -0.107231 -0.001029
-0.431450 0.231098 -0.374609 211 70 180 -0.097781 -0.022952 -0.994943
-0.401833 0.142768 -0.300494 211 70 180 -0.005226 0.021793 0.999749
-0.442805 0.244176 -0.373795 211 70 180 -0.097781 -0.022952 -0.994943
-0.370624 0.071074 -0.372312 211 70 180 0.986667 0.162754 0.000403
-0.439860 0.197384 -0.373005 211 70 180 -0.097781 -0.022952 -0.994943
-0.389175 0.183370 -0.303868 211 70 180 0.986666 0.162757 0.000436
-0.395223 0.220209 -0.374405 211 70 180 0.986667 0.162754 0.000403
-0.417548 0.295165 -0.377454 211 70 180 -0.097781 -0.022952 -0.994943
-0.383881 0.151331 -0.327345 211 70 180 0.986667 0.162754 0.000403
-0.443313 0.291588 -0.303954 211 70 180 -0.005226 0.021793 0.999749
-0.427764 0.245349 -0.302865 211 70 180 -0.005226 0.021793 0.999749
-0.393884 0.212066 -0.363897 211 70 180 0.986667 0.162754 0.000403
-0.407580 0.117369 -0.374331 211 70 180 -0.097781 -0.022952 -0.994943
-0.393945 0.200931 -0.377599 211 70 180 -0.097781 -0.022952 -0.994943
-0.447364 0.074736 -0.327890 211 70 180 -0.994234 -0.107231 -0.001029
-0.430159 0.279482 -0.375852 211 70 180 -0.097781 -0.022952 -0.994943
-0.393233 0.208072 -0.345402 211 70 180 0.986667 0.162754 0.000403
-0.464225 0.239538 -0.370913 211 70 180 -0.260418 -0.036084 -0.964821
-0.455167 0.254497 -0.372818 211 70 180 -0.097781 -0.022952 -0.994943
-0.406348 0.091868 -0.373864 211 70 180 -0.097781 -0.022952 -0.994943
-0.429465 0.192260 -0.293516 211 70 180 -0.988526 -0.151045 0.001190
-0.422764 0.094390 -0.372309 211 70 180 -0.097781 -0.022952 -0.994943
-0.377002 0.099635 -0.299424 211 70 180 -0.005226 0.021793 0.999749
-0.385385 0.160399 -0.305165 211 70 180 0.986666 0.162757 0.000436
-0.459523 0.187822 -0.364159 211 70 180 -0.994234 -0.107231 -0.001029
-0.464010 0.229015 -0.321985 211 70 180 -0.994234 -0.107231 -0.001029
-0.469952 0.284144 -0.325916 211 70 180 -0.994234 -0.107231 -0.001029
-0.458291 0.175958 -0.318523 211 70 180 -0.994234 -0.107231 -0.001029
-0.453305 0.129968 -0.343326 211 70 180 -0.994234 -0.107231 -0.001029
-0.435851 0.234008 -0.299013 211 70 180 -0.988526 -0.151045 0.001190
-0.423663 0.300448 -0.376973 211 70 180 -0.097781 -0.022952 -0.994943
-0.372003 0.079327 -0.328386 211 70 180 0.986667 0.162754 0.000403
-0.453964 0.203275 -0.371755 211 70 180 -0.097781 -0.022952 -0.994943
-0.413056 0.276514 -0.377465 211 70 180 -0.097781 -0.022952 -0.994943
-0.463048 0.220363 -0.350029 211 70 180 -0.994234 -0.107231 -0.001029
-0.461968 0.209904 -0.303361 211 70 180 -0.994233 -0.107235 -0.001084
-0.382751 0.144565 -0.358989 211 70 180 0.986667 0.162754 0.000403
-0.401034 0.158297 -0.375918 211 70 180 -0.097781 -0.022952 -0.994943
-0.383770 0.150597 -0.302388 211 70 180 0.986666 0.162757 0.000436
-0.413371 0.088321 -0.373092 211 70 180 -0.097781 -0.022952 -0.994943
-0.459459 0.186980 -0.338985 211 70 180 -0.994234 -0.107231 -0.001029
-0.382187 0.076125 -0.375875 211 70 180 -0.097781 -0.022952 -0.994943
-0.412501 0.121294 -0.300082 211 70 180 -0.005226 0.021793 0.999749
-0.394862 0.075319 -0.374611 211 70 180 -0.097781 -0.022952 -0.994943
-0.379435 0.124321 -0.303328 211 70 180 0.986666 0.162757 0.000436
-0.435815 0.233869 -0.286925 211 70 180 -0.988528 -0.151035 0.001216
-0.462039 0.210765 -0.323673 211 70 180 -0.994234 -0.107231 -0.001029
-0.464097 0.242847 -0.371071 211 70 180 -0.260418 -0.036084 -0.964821
-0.370556 0.070598 -0.346158 211 70 180 0.986667 0.162754 0.000403
-0.373185 0.086612 -0.375299 211 70 180 0.986667 0.162754 0.000403
-0.422474 0.270459 -0.303385 211 70 180 -0.005226 0.021793 0.999749
-0.417234 0.157408 -0.300893 211 70 180 -0.005226 0.021793 0.999749
-0.405448 0.224642 -0.377015 211 70 180 -0.097781 -0.022952 -0.994943
-0.390854 0.193623 -0.334427 211 70 180 0.986667 0.162754 0.000403
-0.404609 0.140430 -0.300457 211 70 180 -0.005226 0.021793 0.999749
-0.412993 0.107936 -0.299793 211 70 180 -0.005226 0.021793 0.999749
-0.456922 0.163452 -0.338551 211 70 180 -0.994234 -0.107231 -0.001029
-0.394222 0.214012 -0.322254 211 70 180 0.986667 0.162754 0.000403
-0.462581 0.216119 -0.359245 211 70 180 -0.994234 -0.107231 -0.001029
-0.377159 0.110610 -0.338757 211 70 180 0.986667 0.162754 0.000403
-0.375205 0.098713 -0.316282 211 70 180 0.986667 0.162754 0.000403
-0.463793 0.227364 -0.360086 211 70 180 -0.994234 -0.107231 -0.001029
-0.435766 0.199945 -0.373466 211 70 180 -0.097781 -0.022952 -0.994943
-0.462434 0.453064 -0.307575 91 53 20 -0.005226 0.021793 0.999749
-0.452955 0.389248 -0.306134 91 53 20 -0.005226 0.021793 0.999749
-0.413323 0.329901 -0.358456 91 53 20 0.986667 0.162754 0.000403
-0.495442 0.520873 -0.365944 91 53 20 -0.994234 -0.107231 -0.001029
-0.473676 0.318555 -0.313285 91 53 20 -0.994233 -0.107235 -0.001084
-0.440133 0.415848 -0.378018 91 53 20 -0.097781 -0.022952 -0.994943
-0.444900 0.521263 -0.332700 91 53 20 0.986666 0.162757 0.000436
-0.484050 0.415280 -0.369777 91 53 20 -0.994234 -0.107231 -0.001029
-0.428375 0.421040 -0.315812 91 53 20 0.986666 0.162757 0.000436
-0.464035 0.456616 -0.376608 91 53 20 -0.097781 -0.022952 -0.994943
-0.432625 0.438947 -0.379288 91 53 20 -0.097781 -0.022952 -0.994943
-0.411668 0.319807 -0.336439 91 53 20 0.986667 0.162754 0.000403
-0.474761 0.470742 -0.375880 91 53 20 -0.097781 -0.022952 -0.994943
-0.448503 0.334065 -0.304907 91 53 20 -0.005226 0.021793 0.999749
-0.429972 0.366065 -0.305509 91 53 20 -0.005226 0.021793 0.999749
-0.491838 0.487006 -0.319991 91 53 20 -0.994233 -0.107235 -0.001084
-0.459067 0.303017 -0.373554 91 53 20 -0.097781 -0.022952 -0.994943
-0.468936 0.378775 -0.305989 91 53 20 -0.005226 0.021793 0.999749
-0.414038 0.334163 -0.329953 91 53 20 0.986667 0.162754 0.000403
-0.439815 0.490421 -0.326111 91 53 20 0.986666 0.162757 0.000436
-0.476579 0.459049 -0.375432 91 53 20 -0.097781 -0.022952 -0.994943
-0.415386 0.342402 -0.356074 91 53 20 0.986667 0.162754 0.000403
-0.479474 0.372753 -0.359218 91 53 20 -0.994234 -0.107231 -0.001029
-0.481593 0.392151 -0.332614 91 53 20 -0.994234 -0.107231 -0.001029
-0.432244 0.369675 -0.377728 91 53 20 -0.097781 -0.022952 -0.994943
-0.444050 0.516112 -0.333329 91 53 20 0.986666 0.162757 0.000436
-0.427133 0.411264 -0.306479 91 53 20 -0.005226 0.021793 0.999749
-0.426250 0.405181 -0.306342 91 53 20 -0.005226 0.021793 0.999749
-0.439607 0.327028 -0.376020 91 53 20 -0.097781 -0.022952 -0.994943
-0.454584 0.340622 -0.305083 91 53 20 -0.005226 0.021793 0.999749
-0.447530 0.402074 -0.376972 91 53 20 -0.097781 -0.022952 -0.994943
-0.424044 0.394823 -0.330152 91 53 20 0.986667 0.162754 0.000403
-0.478605 0.364584 -0.347063 91 53 20 -0.994234 -0.107231 -0.001029
-0.408812 0.302432 -0.308858 91 53 20 0.986666 0.162757 0.000436
-0.438642 0.483378 -0.353033 91 53 20 0.986667 0.162754 0.000403
-0.492685 0.494991 -0.332623 91 53 20 -0.994233 -0.107235 -0.001084
-0.435942 0.385367 -0.305961 91 53 20 -0.005226 0.021793 0.999749
-0.441118 0.331045 -0.304803 91 53 20 -0.005226 0.021793 0.999749
-0.411081 0.316205 -0.317585 91 53 20 0.986666 0.162757 0.000436
-0.471047 0.516184 -0.377294 91 53 20 -0.097781 -0.022952 -0.994943
-0.472985 0.312280 -0.327202 91 53 20 -0.994234 -0.107231 -0.001029
-0.456931 0.495684 -0.378209 91 53 20 -0.097781 -0.022952 -0.994943
-0.416428 0.348608 -0.313030 91 53 20 0.986666 0.162757 0.000436
-0.493265 0.500705 -0.367702 91 53 20 -0.994234 -0.107231 -0.001029
-0.486646 0.438936 -0.326495 91 53 20 -0.994233 -0.107235 -0.001084
-0.437741 0.477976 -0.379131 91 53 20 0.986667 0.162754 0.000403
-0.480415 0.381352 -0.345381 91 53 20 -0.994234 -0.107231 -0.001029
-0.413809 0.332807 -0.342477 91 53 20 0.986667 0.162754 0.000403
-0.445792 0.323312 -0.304659 91 53 20 -0.005226 0.021793 0.999749
-0.439328 0.487530 -0.350870 91 53 20 0.986667 0.162754 0.000403
-0.483913 0.413929 -0.361361 91 53 20 -0.994234 -0.107231 -0.001029
-0.481496 0.391313 -0.339477 91 53 20 -0.994234 -0.107231 -0.001029
-0.439964 0.491400 -0.356363 91 53 20 0.986667 0.162754 0.000403
-0.434969 0.332911 -0.376611 91 53 20 -0.097781 -0.022952 -0.994943
-0.487450 0.446416 -0.328755 91 53 20 -0.994233 -0.107235 -0.001084
-0.411539 0.319075 -0.355222 91 53 20 0.986667 0.162754 0.000403
-0.434708 0.400769 -0.306290 91 53 20 -0.005226 0.021793 0.999749
-0.461417 0.331531 -0.373980 91 53 20 -0.097781 -0.022952 -0.994943
-0.488689 0.457994 -0.338832 91 53 20 -0.994234 -0.107231 -0.001029
-0.494363 0.510413 -0.319496 91 53 20 -0.994233 -0.107235 -0.001084
-0.480791 0.492343 -0.375786 91 53 20 -0.097781 -0.022952 -0.994943
-0.459054 0.494048 -0.377962 91 53 20 -0.097781 -0.022952 -0.994943
-0.492001 0.488812 -0.349284 91 53 20 -0.994234 -0.107231 -0.001029
-0.482264 0.398473 -0.344070 91 53 20 -0.994234 -0.107231 -0.001029
-0.480551 0.382256 -0.309507 91 53 20 -0.994233 -0.107235 -0.001084
-0.487776 0.452399 -0.307698 91 53 20 -0.005801 0.021745 0.999747
-0.471933 0.302875 -0.363414 91 53 20 -0.994234 -0.107231 -0.001029
-0.437816 0.478425 -0.377129 91 53 20 0.986667 0.162754 0.000403
-0.423785 0.393220 -0.318170 91 53 20 0.986666 0.162757 0.000436
-0.472737 0.312034 -0.304557 91 53 20 -0.005801 0.021745 0.999747
-0.445339 0.523867 -0.312131 91 53 20 0.986666 0.162757 0.000436
-0.443926 0.515360 -0.333083 91 53 20 0.986666 0.162757 0.000436
-0.436884 0.412642 -0.378263 91 53 20 -0.097781 -0.022952 -0.994943
-0.493748 0.505076 -0.355760 91 53 20 -0.994234 -0.107231 -0.001029
-0.444914 0.521420 -0.362016 91 53 20 0.986667 0.162754 0.000403
-0.445738 0.365161 -0.305571 91 53 20 -0.005226 0.021793 0.999749
-0.451890 0.336425 -0.375030 91 53 20 -0.097781 -0.022952 -0.994943
-0.443507 0.460797 -0.307644 91 53 20 -0.005226 0.021793 0.999749
-0.420138 0.371252 -0.373452 91 53 20 0.986667 0.162754 0.000403
-0.482171 0.397705 -0.354120 91 53 20 -0.994234 -0.107231 -0.001029
-0.494828 0.515055 -0.352094 91 53 20 -0.994234 -0.107231 -0.001029
-0.478929 0.367641 -0.353209 91 53 20 -0.994234 -0.107231 -0.001029
-0.469232 0.430138 -0.307110 91 53 20 -0.005226 0.021793 0.999749
-0.439900 0.490925 -0.322358 91 53 20 0.986666 0.162757 0.000436
-0.437597 0.409871 -0.306503 91 53 20 -0.005226 0.021793 0.999749
-0.423087 0.389076 -0.354351 91 53 20 0.986667 0.162754 0.000403
-0.462623 0.411330 -0.306666 91 53 20 -0.005226 0.021793 0.999749
-0.418237 0.347343 -0.305039 91 53 20 -0.005226 0.021793 0.999749
-0.427189 0.381534 -0.305831 91 53 20 -0.005226 0.021793 0.999749
-0.434690 0.376888 -0.377654 91 53 20 -0.097781 -0.022952 -0.994943
-0.471825 0.418237 -0.306865 91 53 20 -0.005226 0.021793 0.999749
-0.461806 0.403291 -0.306487 91 53 20 -0.005226 0.021793 0.999749
-0.447495 0.482848 -0.308146 91 53 20 -0.005226 0.021793 0.999749
-0.482524 0.485271 -0.308382 91 53 20 -0.005801 0.021745 0.999747
-0.463841 0.511276 -0.308851 91 53 20 -0.005226 0.021793 0.999749
-0.454865 0.373365 -0.305798 91 53 20 -0.005226 0.021793 0.999749
-0.483277 0.407972 -0.354596 91 53 20 -0.994234 -0.107231 -0.001029
-0.408697 0.301826 -0.346623 91 53 20 0.986667 0.162754 0.000403
-0.474252 0.324347 -0.359687 91 53 20 -0.994234 -0.107231 -0.001029
-0.447159 0.388855 -0.306095 91 53 20 -0.005226 0.021793 0.999749
-0.446927 0.470657 -0.378614 91 53 20 -0.097781 -0.022952 -0.994943
-0.439782 0.490196 -0.316354 91 53 20 0.986666 0.162757 0.000436
-0.475252 0.333532 -0.350766 91 53 20 -0.994234 -0.107231 -0.001029
-0.446135 0.514550 -0.379705 91 53 20 -0.097781 -0.022952 -0.994943
-0.474405 0.395978 -0.374015 91 53 20 -0.260418 -0.036084 -0.964821
-0.445223 0.523163 -0.311314 91 53 20 0.986666 0.162757 0.000436
-0.477602 0.355041 -0.322398 91 53 20 -0.994233 -0.107235 -0.001084
-0.412753 0.326307 -0.305801 91 53 20 0.986666 0.162757 0.000436
-0.422111 0.383209 -0.370671 91 53 20 0.986667 0.162754 0.000403
-0.474578 0.326873 -0.309008 91 53 20 -0.994233 -0.107235 -0.001084
-0.490276 0.472502 -0.317486 91 53 20 -0.994233 -0.107235 -0.001084
-0.422911 0.345451 -0.305023 91 53 20 -0.005226 0.021793 0.999749
-0.482732 0.403036 -0.367616 91 53 20 -0.994234 -0.107231 -0.001029
-0.438836 0.484539 -0.347838 91 53 20 0.986667 0.162754 0.000403
-0.474756 0.328531 -0.309455 91 53 20 -0.994233 -0.107235 -0.001084
-0.453336 0.510928 -0.378913 91 53 20 -0.097781 -0.022952 -0.994943
-0.444429 0.379262 -0.305872 91 53 20 -0.005226 0.021793 0.999749
-0.488821 0.459315 -0.348345 91 53 20 -0.994234 -0.107231 -0.001029
-0.428351 0.365641 -0.305491 91 53 20 -0.005226 0.021793 0.999749
-0.445379 0.524208 -0.348641 91 53 20 0.986667 0.162754 0.000403
-0.461764 0.495606 -0.308498 91 53 20 -0.005226 0.021793 0.999749
-0.426738 0.411200 -0.349304 91 53 20 0.986667 0.162754 0.000403
-0.438232 0.480853 -0.337691 91 53 20 0.986667 0.162754 0.000403
-0.446962 0.533746 -0.324985 91 53 20 0.986666 0.162757 0.000436
-0.422936 0.313560 -0.377348 91 53 20 -0.097781 -0.022952 -0.994943
-0.437132 0.474130 -0.318344 91 53 20 0.986666 0.162757 0.000436
-0.470978 0.346167 -0.305290 91 53 20 -0.005801 0.021745 0.999747
-0.422449 0.385193 -0.345869 91 53 20 0.986667 0.162754 0.000403
-0.421770 0.351115 -0.305140 91 53 20 -0.005226 0.021793 0.999749
-0.413567 0.331307 -0.329954 91 53 20 0.986667 0.162754 0.000403
-0.422051 0.382683 -0.308394 91 53 20 0.986666 0.162757 0.000436
-0.481264 0.388951 -0.317886 91 53 20 -0.994233 -0.107235 -0.001084
-0.469390 0.385092 -0.374433 91 53 20 -0.097781 -0.022952 -0.994943
-0.486058 0.433852 -0.364243 91 53 20 -0.994234 -0.107231 -0.001029
-0.411884 0.321117 -0.336517 91 53 20 0.986667 0.162754 0.000403
-0.486301 0.435952 -0.348259 91 53 20 -0.994234 -0.107231 -0.001029
-0.426388 0.383255 -0.305865 91 53 20 -0.005226 0.021793 0.999749
-0.476393 0.436694 -0.374935 91 53 20 -0.097781 -0.022952 -0.994943
-0.467210 0.656579 -0.358060 196 201 36 0.986667 0.162754 0.000403
-0.501163 0.573419 -0.315047 196 201 36 -0.994233 -0.107235 -0.001084
-0.473696 0.695876 -0.349990 196 201 36 0.986666 0.162757 0.000436
-0.510172 0.657038 -0.324689 196 201 36 -0.994233 -0.107235 -0.001084
-0.458322 0.602734 -0.373362 196 201 36 0.986667 0.162754 0.000403
-0.467727 0.659703 -0.353979 196 201 36 0.986667 0.162754 0.000403
-0.511152 0.666528 -0.365613 196 201 36 -0.994234 -0.107231 -0.001029
-0.513044 0.716098 -0.313580 196 201 36 -0.005801 0.021745 0.999747
-0.469669 0.613262 -0.311104 196 201 36 -0.005226 0.021793 0.999749
-0.476678 0.713966 -0.354391 196 201 36 0.986666 0.162757 0.000436
-0.467121 0.621149 -0.311263 196 201 36 -0.005226 0.021793 0.999749
-0.497433 0.539401 -0.372841 196 201 36 -0.994234 -0.107231 -0.001029
-0.483261 0.593820 -0.377885 196 201 36 -0.097781 -0.022952 -0.994943
-0.502249 0.583766 -0.342935 196 201 36 -0.994233 -0.107235 -0.001084
-0.468543 0.664548 -0.315773 196 201 36 0.986666 0.162757 0.000436
-0.515125 0.703359 -0.365222 196 201 36 -0.994234 -0.107231 -0.001029
-0.513265 0.685689 -0.322025 196 201 36 -0.994233 -0.107235 -0.001084
-0.517447 0.724618 -0.337696 196 201 36 -0.994233 -0.107235 -0.001084
-0.520544 0.764030 -0.375326 196 201 36 -0.260418 -0.036084 -0.964821
-0.456698 0.592851 -0.359641 196 201 36 0.986667 0.162754 0.000403
-0.494080 0.628414 -0.311564 196 201 36 -0.005801 0.021745 0.999747
-0.480704 0.654672 -0.312065 196 201 36 -0.005226 0.021793 0.999749
-0.488589 0.749079 -0.314164 196 201 36 -0.005226 0.021793 0.999749
-0.449452 0.548818 -0.318343 196 201 36 0.986666 0.162757 0.000436
-0.498351 0.547886 -0.370544 196 201 36 -0.994234 -0.107231 -0.001029
-0.474105 0.698270 -0.318378 196 201 36 0.986666 0.162757 0.000436
-0.489042 0.635613 -0.378281 196 201 36 -0.097781 -0.022952 -0.994943
-0.484998 0.749905 -0.381314 196 201 36 -0.097781 -0.022952 -0.994943
-0.493924 0.660583 -0.312263 196 201 36 -0.005226 0.021793 0.999749
-0.483194 0.595928 -0.377940 196 201 36 -0.097781 -0.022952 -0.994943
-0.515102 0.702880 -0.337923 196 201 36 -0.994233 -0.107235 -0.001084
-0.499865 0.561372 -0.314045 196 201 36 -0.994233 -0.107235 -0.001084
-0.501800 0.579303 -0.313857 196 201 36 -0.994233 -0.107235 -0.001084
-0.457754 0.536637 -0.309372 196 201 36 -0.005226 0.021793 0.999749
-0.448941 0.545707 -0.310828 196 201 36 0.986666 0.162757 0.000436
-0.505798 0.712357 -0.313457 196 201 36 -0.005801 0.021745 0.999747
-0.476850 0.678476 -0.380467 196 201 36 -0.097781 -0.022952 -0.994943
-0.478487 0.595562 -0.310764 196 201 36 -0.005226 0.021793 0.999749
-0.500507 0.628218 -0.375655 196 201 36 -0.260418 -0.036084 -0.964821
-0.473677 0.551572 -0.377852 196 201 36 -0.097781 -0.022952 -0.994943
-0.493451 0.766121 -0.380858 196 201 36 -0.097781 -0.022952 -0.994943
-0.463532 0.558359 -0.309875 196 201 36 -0.005226 0.021793 0.999749
-0.471672 0.636138 -0.380000 196 201 36 -0.097781 -0.022952 -0.994943
-0.463391 0.608026 -0.380165 196 201 36 -0.097781 -0.022952 -0.994943
-0.487278 0.581408 -0.377204 196 201 36 -0.097781 -0.022952 -0.994943
-0.500180 0.576673 -0.373816 196 201 36 -0.260418 -0.036084 -0.964821
-0.496599 0.697762 -0.313087 196 201 36 -0.005226 0.021793 0.999749
-0.494160 0.741496 -0.314028 196 201 36 -0.005226 0.021793 0.999749
-0.475045 0.704129 -0.378167 196 201 36 0.986667 0.162754 0.000403
-0.510446 0.659532 -0.319861 196 201 36 -0.994233 -0.107235 -0.001084
-0.449591 0.549687 -0.329764 196 201 36 0.986666 0.162757 0.000436
-0.484527 0.745638 -0.381262 196 201 36 -0.097781 -0.022952 -0.994943
-0.498873 0.552552 -0.352349 196 201 36 -0.994234 -0.107231 -0.001029
-0.508390 0.640528 -0.325959 196 201 36 -0.994233 -0.107235 -0.001084
-0.448815 0.535437 -0.309299 196 201 36 -0.005226 0.021793 0.999749
-0.463903 0.636437 -0.322989 196 201 36 0.986666 0.162757 0.000436
-0.493964 0.650910 -0.312053 196 201 36 -0.005226 0.021793 0.999749
-0.502970 0.683849 -0.377072 196 201 36 -0.260418 -0.036084 -0.964821
-0.448521 0.543273 -0.353987 196 201 36 0.986667 0.162754 0.000403
-0.476946 0.567114 -0.310136 196 201 36 -0.005226 0.021793 0.999749
-0.504331 0.603026 -0.339148 196 201 36 -0.994233 -0.107235 -0.001084
-0.471127 0.680235 -0.325369 196 201 36 0.986666 0.162757 0.000436
-0.506092 0.753358 -0.378829 196 201 36 -0.260418 -0.036084 -0.964821
-0.461843 0.540693 -0.378764 196 201 36 -0.097781 -0.022952 -0.994943
-0.479853 0.733244 -0.366733 196 201 36 0.986667 0.162754 0.000403
-0.469182 0.668421 -0.317179 196 201 36 0.986666 0.162757 0.000436
-0.501888 0.580320 -0.333773 196 201 36 -0.994233 -0.107235 -0.001084
-0.475582 0.707241 -0.325369 196 201 36 0.986666 0.162757 0.000436
-0.501080 0.629531 -0.375550 196 201 36 -0.260418 -0.036084 -0.964821
-0.478965 0.713699 -0.381072 196 201 36 -0.097781 -0.022952 -0.994943
-0.480700 0.738325 -0.344008 196 201 36 0.986666 0.162757 0.000436
-0.507907 0.636484 -0.369004 196 201 36 -0.994234 -0.107231 -0.001029
-0.514948 0.701370 -0.329679 196 201 36 -0.994233 -0.107235 -0.001084
-0.521618 0.763579 -0.366684 196 201 36 -0.994234 -0.107231 -0.001029
-0.504821 0.607590 -0.340661 196 201 36 -0.994233 -0.107235 -0.001084
-0.479743 0.676599 -0.380140 196 201 36 -0.097781 -0.022952 -0.994943
-0.464149 0.637936 -0.325724 196 201 36 0.986666 0.162757 0.000436
-0.471365 0.535498 -0.377709 196 201 36 -0.097781 -0.022952 -0.994943
-0.497297 0.693777 -0.313004 196 201 36 -0.005226 0.021793 0.999749
-0.483851 0.571390 -0.377310 196 201 36 -0.097781 -0.022952 -0.994943
-0.484954 0.649742 -0.379008 196 201 36 -0.097781 -0.022952 -0.994943
-0.513484 0.688083 -0.358291 196 201 36 -0.994234 -0.107231 -0.001029
-0.458526 0.598564 -0.380425 196 201 36 -0.097781 -0.022952 -0.994943
-0.511377 0.668640 -0.367613 196 201 36 -0.994234 -0.107231 -0.001029
-0.480342 0.669389 -0.312384 196 201 36 -0.005226 0.021793 0.999749
-0.471183 0.680592 -0.331542 196 201 36 0.986666 0.162757 0.000436
-0.507816 0.705527 -0.313320 196 201 36 -0.005801 0.021745 0.999747
-0.498002 0.544273 -0.330936 196 201 36 -0.994233 -0.107235 -0.001084
-0.481056 0.706718 -0.313201 196 201 36 -0.005226 0.021793 0.999749
-0.460049 0.613206 -0.372848 196 201 36 0.986667 0.162754 0.000403
-0.449820 0.536347 -0.309324 196 201 36 -0.005226 0.021793 0.999749
-0.457033 0.594763 -0.312925 196 201 36 0.986666 0.162757 0.000436
-0.452754 0.568906 -0.344988 196 201 36 0.986667 0.162754 0.000403
-0.458101 0.601312 -0.341559 196 201 36 0.986666 0.162757 0.000436
-0.462778 0.629714 -0.361162 196 201 36 0.986667 0.162754 0.000403
-0.517115 0.721777 -0.361527 196 201 36 -0.994234 -0.107231 -0.001029
-0.450575 0.555689 -0.341864 196 201 36 0.986666 0.162757 0.000436
-0.512105 0.675375 -0.366581 196 201 36 -0.994234 -0.107231 -0.001029
-0.494670 0.686806 -0.312839 196 201 36 -0.005226 0.021793 0.999749
-0.472455 0.688288 -0.324895 196 201 36 0.986666 0.162757 0.000436
-0.511153 0.732092 -0.376667 196 201 36 -0.260418 -0.036084 -0.964821
-0.465164 0.572730 -0.379177 196 201 36 -0.097781 -0.022952 -0.994943
-0.515242 0.704332 -0.353246 196 201 36 -0.994234 -0.107231 -0.001029
-0.492627 0.693890 -0.312982 196 201 36 -0.005226 0.021793 0.999749
-0.468552 0.664641 -0.329170 196 201 36 0.986666 0.162757 0.000436
-0.511158 0.680311 -0.374729 196 201 36 -0.260418 -0.036084 -0.964821
-0.495408 0.570551 -0.374875 196 201 36 -0.260418 -0.036084 -0.964821
-0.498861 0.552125 -0.319707 196 201 36 -0.994233 -0.107235 -0.001084
-0.485779 0.674717 -0.379503 196 201 36 -0.097781 -0.022952 -0.994943
-0.502635 0.587220 -0.330856 196 201 36 -0.994233 -0.107235 -0.001084
-0.509921 0.654920 -0.345844 196 201 36 -0.994233 -0.107235 -0.001084
-0.510019 0.655764 -0.339201 196 201 36 -0.994233 -0.107235 -0.001084
-0.507422 0.654283 -0.374764 196 201 36 -0.260418 -0.036084 -0.964821
-0.497860 0.765517 -0.314571 196 201 36 -0.005226 0.021793 0.999749
-0.503489 0.595319 -0.349257 196 201 36 -0.994234 -0.107231 -0.001029
-0.464809 0.578138 -0.310313 196 201 36 -0.005226 0.021793 0.999749
-0.465821 0.632470 -0.311504 196 201 36 -0.005226 0.021793 0.999749
-0.481017 0.581476 -0.310471 196 201 36 -0.005226 0.021793 0.999749
-0.506798 0.625661 -0.315193 196 201 36 -0.994233 -0.107235 -0.001084
-0.470227 0.674768 -0.321424 196 201 36 0.986666 0.162757 0.000436
-0.477268 0.717526 -0.348096 196 201 36 0.986666 0.162757 0.000436
-0.503725 0.597643 -0.363026 196 201 36 -0.994234 -0.107231 -0.001029
-0.481446 0.662778 -0.379654 196 201 36 -0.097781 -0.022952 -0.994943
-0.509306 0.649451 -0.369906 196 201 36 -0.994234 -0.107231 -0.001029
-0.479011 0.728102 -0.351317 196 201 36 0.986666 0.162757 0.000436
-0.502113 0.582544 -0.347858 196 201 36 -0.994234 -0.107231 -0.001029
-0.513625 0.704727 -0.313336 196 201 36 -0.005801 0.021745 0.999747
-0.479547 0.699196 -0.380680 196 201 36 -0.097781 -0.022952 -0.994943
-0.482924 0.746834 -0.314086 196 201 36 -0.005226 0.021793 0.999749
-0.502341 0.584543 -0.335772 196 201 36 -0.994233 -0.107235 -0.001084
-0.492741 0.749193 -0.380537 196 201 36 -0.097781 -0.022952 -0.994943
-0.511198 0.923194 -0.341195 139 10 35 0.986666 0.162757 0.000436
-0.513546 0.881288 -0.317176 139 10 35 -0.005226 0.021793 0.999749
-0.491715 0.805185 -0.377754 139 10 35 0.986667 0.162754 0.000403
-0.540692 0.940018 -0.325290 139 10 35 -0.994233 -0.107235 -0.001084
-0.505128 0.839212 -0.381396 139 10 35 -0.097781 -0.022952 -0.994943
-0.496797 0.835883 -0.337946 139 10 35 0.986666 0.162757 0.000436
-0.523640 0.915794 -0.317532 139 10 35 -0.001410 0.017064 0.999853
-0.504176 0.866830 -0.316670 139 10 35 0.001329 -0.017045 -0.999854
-0.516300 0.872201 -0.316778 139 10 35 0.001329 -0.017045 -0.999854
-0.521377 0.984916 -0.346927 139 10 35 0.986666 0.162757 0.000436
-0.528456 0.978111 -0.381198 139 10 35 -0.260418 -0.036084 -0.964821
-0.541924 0.996055 -0.326390 139 10 35 0.225741 -0.974116 0.011782
-0.502158 0.799505 -0.315334 139 10 35 -0.005226 0.021793 0.999749
-0.521365 0.907580 -0.317389 139 10 35 -0.001410 0.017064 0.999853
-0.513265 0.935817 -0.374752 139 10 35 0.986666 0.162757 0.000436
-0.500772 0.828868 -0.381586 139 10 35 -0.097781 -0.022952 -0.994943
-0.498589 0.846753 -0.337518 139 10 35 0.986666 0.162757 0.000436
-0.510150 0.910277 -0.382542 139 10 35 -0.097781 -0.022952 -0.994943
-0.536173 0.898574 -0.370809 139 10 35 -0.994234 -0.107231 -0.001029
-0.500187 0.856433 -0.336282 139 10 35 0.986666 0.162757 0.000436
-0.523772 0.961669 -0.381847 139 10 35 -0.260418 -0.036084 -0.964821
-0.541672 0.984166 -0.377857 139 10 35 -0.260418 -0.036084 -0.964821
-0.526870 0.947479 -0.318694 139 10 35 -0.005801 0.021745 0.999747
-0.507009 0.897910 -0.380454 139 10 35 0.986667 0.162754 0.000403
-0.527027 0.813814 -0.374200 139 10 35 -0.994234 -0.107231 -0.001029
-0.486105 0.771142 -0.364730 139 10 35 0.986667 0.162754 0.000403
-0.514711 0.922669 -0.382379 139 10 35 -0.097781 -0.022952 -0.994943
-0.521067 0.982992 -0.327322 139 10 35 0.986666 0.162757 0.000436
-0.543516 0.966155 -0.321244 139 10 35 -0.994233 -0.107235 -0.001084
-0.512049 0.928323 -0.329173 139 10 35 0.986666 0.162757 0.000436
-0.518459 0.967241 -0.351086 139 10 35 0.986666 0.162757 0.000436
-0.513013 0.926975 -0.382646 139 10 35 -0.097781 -0.022952 -0.994943
-0.509261 0.884337 -0.382031 139 10 35 -0.097781 -0.022952 -0.994943
-0.545012 0.980373 -0.355141 139 10 35 -0.994233 -0.107235 -0.001084
-0.517997 0.909456 -0.317416 139 10 35 -0.001410 0.017064 0.999853
-0.491731 0.805128 -0.319600 139 10 35 0.986666 0.162757 0.000436
-0.532348 0.862668 -0.327018 139 10 35 -0.994233 -0.107235 -0.001084
-0.526562 0.809274 -0.351164 139 10 35 -0.994233 -0.107235 -0.001084
-0.516485 0.889505 -0.317372 139 10 35 -0.005801 0.021745 0.999747
-0.501484 0.833953 -0.316081 139 10 35 -0.005226 0.021793 0.999749
-0.539100 0.925213 -0.321367 139 10 35 -0.994233 -0.107235 -0.001084
-0.513413 0.936631 -0.343430 139 10 35 0.986666 0.162757 0.000436
-0.540304 0.936562 -0.339360 139 10 35 -0.994233 -0.107235 -0.001084
-0.491500 0.803871 -0.375130 139 10 35 0.986667 0.162754 0.000403
-0.511375 0.784047 -0.315048 139 10 35 -0.005801 0.021745 0.999747
-0.544370 0.974149 -0.328746 139 10 35 -0.994233 -0.107235 -0.001084
-0.542115 0.953671 -0.371232 139 10 35 -0.994233 -0.107235 -0.001084
-0.522201 0.769659 -0.314798 139 10 35 -0.005801 0.021745 0.999747
-0.521102 0.983313 -0.368810 139 10 35 0.986666 0.162757 0.000436
-0.537523 0.996915 -0.339684 139 10 35 0.225741 -0.974116 0.011782
-0.543107 0.962394 -0.324599 139 10 35 -0.994233 -0.107235 -0.001084
-0.491794 0.805506 -0.319212 139 10 35 0.986666 0.162757 0.000436
-0.511855 0.794172 -0.378799 139 10 35 -0.260418 -0.036084 -0.964821
-0.539302 0.927362 -0.348229 139 10 35 -0.994233 -0.107235 -0.001084
-0.523044 0.995055 -0.359041 139 10 35 0.986666 0.162757 0.000436
-0.534448 0.934710 -0.377958 139 10 35 -0.260418 -0.036084 -0.964821
-0.508937 0.909463 -0.332105 139 10 35 0.986666 0.162757 0.000436
-0.485440 0.767121 -0.368184 139 10 35 0.986667 0.162754 0.000403
-0.534988 0.887335 -0.346259 139 10 35 -0.994233 -0.107235 -0.001084
-0.505434 0.888359 -0.379775 139 10 35 0.986667 0.162754 0.000403
-0.518334 0.951297 -0.382684 139 10 35 -0.097781 -0.022952 -0.994943
-0.539877 0.932936 -0.372672 139 10 35 -0.994234 -0.107231 -0.001029
-0.498487 0.845415 -0.316298 139 10 35 -0.001329 0.017045 0.999854
-0.538975 0.924308 -0.345987 139 10 35 -0.994233 -0.107235 -0.001084
-0.534417 0.997350 -0.363279 139 10 35 0.225892 -0.974082 0.011719
-0.543515 0.966420 -0.348575 139 10 35 -0.994233 -0.107235 -0.001084
-0.525821 0.976371 -0.381843 139 10 35 -0.260418 -0.036084 -0.964821
-0.524501 1.000000 -0.334141 139 10 35 -0.225892 0.974082 -0.011719
-0.534252 0.880752 -0.369616 139 10 35 -0.994234 -0.107231 -0.001029
-0.503142 0.830494 -0.381390 139 10 35 -0.097781 -0.022952 -0.994943
-0.522457 0.783004 -0.375520 139 10 35 -0.260418 -0.036084 -0.964821
-0.520322 0.978536 -0.350619 139 10 35 0.986666 0.162757 0.000436
-0.497251 0.838749 -0.380991 139 10 35 0.986667 0.162754 0.000403
-0.524162 0.794577 -0.375492 139 10 35 -0.260418 -0.036084 -0.964821
-0.512687 0.932163 -0.318579 139 10 35 0.986666 0.162757 0.000436
-0.526472 0.808175 -0.325216 139 10 35 -0.994233 -0.107235 -0.001084
-0.505342 0.887671 -0.331740 139 10 35 0.986666 0.162757 0.000436
-0.493878 0.818206 -0.342596 139 10 35 0.986666 0.162757 0.000436
-0.492081 0.807396 -0.374194 139 10 35 0.986667 0.162754 0.000403
-0.493009 0.812924 -0.338784 139 10 35 0.986666 0.162757 0.000436
-0.524247 0.787661 -0.337116 139 10 35 -0.994233 -0.107235 -0.001084
-0.485868 0.769623 -0.332726 139 10 35 0.986666 0.162757 0.000436
-0.529911 0.840203 -0.340275 139 10 35 -0.994233 -0.107235 -0.001084
-0.496378 0.833438 -0.374079 139 10 35 0.986667 0.162754 0.000403
-0.541983 0.952050 -0.332519 139 10 35 -0.994233 -0.107235 -0.001084
-0.516766 0.956934 -0.334792 139 10 35 0.986666 0.162757 0.000436
-0.497178 0.838292 -0.374071 139 10 35 0.986667 0.162754 0.000403
-0.497043 0.837345 -0.326954 139 10 35 0.986666 0.162757 0.000436
-0.521740 0.987164 -0.365084 139 10 35 0.986666 0.162757 0.000436
-0.544965 0.979939 -0.356151 139 10 35 -0.994233 -0.107235 -0.001084
-0.517566 0.855630 -0.379556 139 10 35 -0.260418 -0.036084 -0.964821
-0.500735 0.859818 -0.358412 139 10 35 0.986666 0.162757 0.000436
-0.534934 0.886843 -0.347178 139 10 35 -0.994233 -0.107235 -0.001084
-0.529127 0.998814 -0.343535 139 10 35 -0.225892 0.974082 -0.011719
-0.494912 0.824449 -0.333488 139 10 35 0.986666 0.162757 0.000436
-0.540038 0.969963 -0.377767 139 10 35 -0.260418 -0.036084 -0.964821
-0.495010 0.780539 -0.314883 139 10 35 -0.005226 0.021793 0.999749
-0.540316 0.936547 -0.327242 139 10 35 -0.994233 -0.107235 -0.001084
-0.540544 0.946788 -0.376763 139 10 35 -0.260418 -0.036084 -0.964821
-0.522479 0.899317 -0.379864 139 10 35 -0.260418 -0.036084 -0.964821
-0.500437 0.814265 -0.315647 139 10 35 -0.005226 0.021793 0.999749
-0.512197 0.825705 -0.315959 139 10 35 -0.005801 0.021745 0.999747
-0.513896 0.935293 -0.318356 139 10 35 -0.005226 0.021793 0.999749
-0.530746 0.848090 -0.353811 139 10 35 -0.994233 -0.107235 -0.001084
-0.491342 0.802920 -0.378219 139 10 35 0.986667 0.162754 0.000403
-0.500632 0.859184 -0.355417 139 10 35 0.986666 0.162757 0.000436
-0.524651 0.812993 -0.315755 139 10 35 -0.005801 0.021745 0.999747
-0.512270 0.929761 -0.365774 139 10 35 0.986666 0.162757 0.000436
-0.535264 0.890139 -0.370921 139 10 35 -0.994234 -0.107231 -0.001029
-0.524731 0.792042 -0.326229 139 10 35 -0.994233 -0.107235 -0.001084
-0.507177 0.875297 -0.317012 139 10 35 -0.005226 0.021793 0.999749
-0.497095 0.837657 -0.324035 139 10 35 0.986666 0.162757 0.000436
-0.506658 0.895638 -0.326093 139 10 35 0.986666 0.162757 0.000436
-0.543776 0.968775 -0.341722 139 10 35 -0.994233 -0.107235 -0.001084
-0.525999 0.804151 -0.361354 139 10 35 -0.994234 -0.107231 -0.001029
-0.532814 0.980772 -0.380121 139 10 35 -0.260418 -0.036084 -0.964821
-0.439410 -0.935096 0.375447 43 123 133 -0.099499 0.003245 0.995032
-0.401354 -0.853688 0.314185 43 123 133 0.000000 -0.032590 -0.999469
-0.432217 -0.862993 0.375931 43 123 133 -0.099499 0.003245 0.995032
-0.442548 -0.873565 0.352024 43 123 133 -1.000000 0.000000 0.000000
-0.442548 -0.892844 0.336417 43 123 133 -1.000000 0.000000 0.000000
-0.378180 -0.947440 0.356611 43 123 133 0.999469 -0.032590 0.000000
-0.442548 -0.993393 0.330827 43 123 133 -1.000000 0.000000 0.000000
-0.375821 -0.875118 0.315115 43 123 133 0.999469 -0.032590 0.000000
-0.376390 -0.892561 0.366517 43 123 133 0.999469 -0.032590 0.000000
-0.378937 -0.970647 0.342369 43 123 133 0.999469 -0.032590 0.000000
-0.398827 -1.000000 0.350434 43 123 133 0.000000 1.000000 0.000000
-0.407552 -1.000000 0.341008 43 123 133 0.000000 1.000000 0.000000
-0.419218 -1.000000 0.333993 43 123 133 0.000000 -1.000000 0.000000
-0.442548 -0.954465 0.343083 43 123 133 -1.000000 0.000000 0.000000
-0.393527 -0.937093 0.316904 43 123 133 0.000000 -0.032590 -0.999469
-0.442548 -0.947833 0.335047 43 123 133 -1.000000 0.000000 0.000000
-0.392060 -0.974857 0.380312 43 123 133 -0.099499 0.003245 0.995032
-0.387088 -0.950096 0.317328 43 123 133 0.000000 -0.032590 -0.999469
-0.379773 -0.996297 0.361905 43 123 133 0.999469 -0.032590 0.000000
-0.419718 -0.892933 0.315464 43 123 133 0.000000 -0.032590 -0.999469
-0.421934 -0.878395 0.377009 43 123 133 -0.099499 0.003245 0.995032
-0.440204 -0.877710 0.375181 43 123 133 -0.099499 0.003245 0.995032
-0.411698 -0.891564 0.378077 43 123 133 -0.099499 0.003245 0.995032
-0.415159 -1.000000 0.320728 43 123 133 0.000000 1.000000 0.000000
-0.375801 -0.874493 0.325971 43 123 133 0.999469 -0.032590 0.000000
-0.431254 -0.856596 0.376007 43 123 133 -0.099499 0.003245 0.995032
-0.406208 -0.967992 0.317911 43 123 133 0.000000 -0.032590 -0.999469
-0.413453 -0.904478 0.377943 43 123 133 -0.099499 0.003245 0.995032
-0.379243 -0.888470 0.381312 43 123 133 -0.099500 0.003244 0.995032
-0.442548 -0.897504 0.349594 43 123 133 -1.000000 0.000000 0.000000
-0.441728 -0.930779 0.316698 43 123 133 0.000000 -0.032590 -0.999469
-0.416744 -1.000000 0.324963 43 123 133 0.000000 1.000000 0.000000
-0.442548 -0.888402 0.318319 43 123 133 -1.000000 0.000000 0.000000
-0.442548 -0.904177 0.327551 43 123 133 -1.000000 0.000000 0.000000
-0.436767 -0.889587 0.375563 43 123 133 -0.099499 0.003245 0.995032
-0.393651 -0.952588 0.380080 43 123 133 -0.099499 0.003245 0.995032
-0.418224 -0.918362 0.377512 43 123 133 -0.099499 0.003245 0.995032
-0.395386 -0.846699 0.313957 43 123 133 0.000000 -0.032590 -0.999469
-0.428753 -0.991267 0.318671 43 123 133 0.000000 -0.032590 -0.999469
-0.399123 -0.878325 0.314988 43 123 133 0.000000 -0.032590 -0.999469
-0.378995 -0.972449 0.338756 43 123 133 0.999469 -0.032590 0.000000
-0.419060 -1.000000 0.358447 43 123 133 0.000000 1.000000 0.000000
-0.407139 -0.932042 0.378665 43 123 133 -0.099499 0.003245 0.995032
-0.385862 -0.888373 0.315316 43 123 133 0.000000 -0.032590 -0.999469
-0.394471 -0.879654 0.315031 43 123 133 0.000000 -0.032590 -0.999469
-0.379874 -0.999409 0.333795 43 123 133 0.999469 -0.032590 0.000000
-0.399820 -0.849440 0.379127 43 123 133 -0.099499 0.003245 0.995032
-0.430669 -0.914069 0.316153 43 123 133 0.000000 -0.032590 -0.999469
-0.439811 -0.990769 0.318655 43 123 133 0.000000 -0.032590 -0.999469
-0.398901 -0.886640 0.315259 43 123 133 0.000000 -0.032590 -0.999469
-0.442548 -0.973978 0.329857 43 123 133 -1.000000 0.000000 0.000000
-0.403713 -0.904179 0.378916 43 123 133 -0.099499 0.003245 0.995032
-0.375048 -0.851416 0.337361 43 123 133 0.999469 -0.032590 0.000000
-0.384422 -0.981193 0.318343 43 123 133 0.000000 -0.032590 -0.999469
-0.380404 -0.888177 0.381195 43 123 133 -0.099500 0.003244 0.995032
-0.428625 -0.858455 0.376275 43 123 133 -0.099499 0.003245 0.995032
-0.423030 -0.953960 0.377147 43 123 133 -0.099499 0.003245 0.995032
-0.434676 -0.940175 0.375937 43 123 133 -0.099499 0.003245 0.995032
-0.407559 -0.859637 0.314379 43 123 133 0.000000 -0.032590 -0.999469
-0.442548 -0.962537 0.331337 43 123 133 -1.000000 0.000000 0.000000
-0.377498 -0.926537 0.359070 43 123 133 0.999469 -0.032590 0.000000
-0.442548 -0.976486 0.320367 43 123 133 -1.000000 0.000000 0.000000
-0.418530 -0.880356 0.377357 43 123 133 -0.099499 0.003245 0.995032
-0.442548 -0.977646 0.364881 43 123 133 -1.000000 0.000000 0.000000
-0.415834 -0.948144 0.377848 43 123 133 -0.099499 0.003245 0.995032
-0.401285 -0.921462 0.379215 43 123 133 -0.099499 0.003245 0.995032
-0.424438 -0.848141 0.314004 43 123 133 0.000000 -0.032590 -0.999469
-0.442548 -0.957188 0.327000 43 123 133 -1.000000 0.000000 0.000000
-0.386633 -0.956202 0.380794 43 123 133 -0.099499 0.003245 0.995032
-0.404125 -0.847388 0.313980 43 123 133 0.000000 -0.032590 -0.999469
-0.423429 -0.856888 0.376790 43 123 133 -0.099499 0.003245 0.995032
-0.378920 -0.970135 0.372654 43 123 133 0.999469 -0.032590 0.000000
-0.378549 -0.958749 0.371387 43 123 133 0.999469 -0.032590 0.000000
-0.412499 -0.879010 0.315010 43 123 133 0.000000 -0.032590 -0.999469
-0.386123 -0.920465 0.316362 43 123 133 0.000000 -0.032590 -0.999469
-0.377596 -0.929514 0.350089 43 123 133 0.999469 -0.032590 0.000000
-0.384148 -1.000000 0.328341 43 123 133 0.000000 -1.000000 0.000000
-0.401607 -0.904376 0.379127 43 123 133 -0.099499 0.003245 0.995032
-0.435225 -0.884998 0.315206 43 123 133 0.000000 -0.032590 -0.999469
-0.410542 -0.925486 0.378303 43 123 133 -0.099499 0.003245 0.995032
-0.387786 -0.856708 0.380354 43 123 133 -0.099500 0.003244 0.995032
-0.379966 -0.999216 0.381600 43 123 133 -0.099500 0.003244 0.995032
-0.378012 -0.942288 0.329857 43 123 133 0.999469 -0.032590 0.000000
-0.381913 -1.000000 0.330978 43 123 133 0.000000 -1.000000 0.000000
-0.386235 -1.000000 0.339764 43 123 133 0.000000 -1.000000 0.000000
-0.377173 -0.916552 0.358740 43 123 133 0.999469 -0.032590 0.000000
-0.412562 -0.897238 0.315605 43 123 133 0.000000 -0.032590 -0.999469
-0.390189 -0.933283 0.316780 43 123 133 0.000000 -0.032590 -0.999469
-0.442548 -0.931074 0.366472 43 123 133 -1.000000 0.000000 0.000000
-0.414400 -0.936585 0.316888 43 123 133 0.000000 -0.032590 -0.999469
-0.407447 -0.997430 0.378847 43 123 133 -0.099499 0.003245 0.995032
-0.375860 -0.876300 0.350233 43 123 133 0.999469 -0.032590 0.000000
-0.428154 -0.868760 0.314676 43 123 133 0.000000 -0.032590 -0.999469
-0.440510 -0.935432 0.375338 43 123 133 -0.099499 0.003245 0.995032
-0.442548 -0.942905 0.338356 43 123 133 -1.000000 0.000000 0.000000
-0.408801 -1.000000 0.367949 43 123 133 0.000000 1.000000 0.000000
-0.442548 -0.962202 0.318025 43 123 133 -1.000000 0.000000 0.000000
-0.411448 -0.894315 0.315509 43 123 133 0.000000 -0.032590 -0.999469
-0.413375 -1.000000 0.358967 43 123 133 0.000000 -1.000000 0.000000
-0.407682 -1.000000 0.360872 43 123 133 0.000000 -1.000000 0.000000
-0.375769 -0.873530 0.377232 43 123 133 0.999469 -0.032590 0.000000
-0.376659 -0.900834 0.359780 43 123 133 0.999469 -0.032590 0.000000
-0.442548 -0.866941 0.364735 43 123 133 -1.000000 0.000000 0.000000
-0.425459 -0.984541 0.318452 43 123 133 0.000000 -0.032590 -0.999469
-0.436557 -0.863562 0.314507 43 123 133 0.000000 -0.032590 -0.999469
-0.437517 -1.000000 0.368044 43 123 133 0.000000 -1.000000 0.000000
-0.378637 -0.961447 0.371122 43 123 133 0.999469 -0.032590 0.000000
-0.372071 -0.760079 0.339430 211 219 108 0.999469 -0.032590 0.000000
-0.442548 -0.714131 0.321640 211 219 108 -1.000000 0.000000 0.000000
-0.371907 -0.755052 0.358867 211 219 108 0.999469 -0.032590 0.000000
-0.442548 -0.747781 0.354164 211 219 108 -1.000000 0.000000 0.000000
-0.442548 -0.706099 0.340716 211 219 108 -1.000000 0.000000 0.000000
-0.442482 -0.717143 0.309732 211 219 108 0.000000 -0.032590 -0.999469
-0.371823 -0.752499 0.320938 211 219 108 0.999469 -0.032590 0.000000
-0.383047 -0.781833 0.311842 211 219 108 0.000000 -0.032590 -0.999469
-0.424931 -0.753442 0.310916 211 219 108 0.000000 -0.032590 -0.999469
-0.383538 -0.738754 0.380394 211 219 108 -0.099500 0.003244 0.995032
-0.371492 -0.707201 0.309408 211 219 108 0.000000 -0.032590 -0.999469
-0.404740 -0.690036 0.378115 211 219 108 -0.099500 0.003244 0.995032
-0.400058 -0.761915 0.311192 211 219 108 0.000000 -0.032590 -0.999469
-0.442548 -0.826419 0.352435 211 219 108 -1.000000 0.000000 0.000000
-0.373944 -0.817540 0.320233 211 219 108 0.999469 -0.032590 0.000000
-0.370114 -0.700089 0.320959 211 219 108 0.999469 -0.032590 0.000000
-0.371921 -0.755497 0.367626 211 219 108 0.999469 -0.032590 0.000000
-0.374424 -0.832263 0.364800 211 219 108 0.999469 -0.032590 0.000000
-0.406887 -0.810704 0.378294 211 219 108 -0.099499 0.003245 0.995032
-0.390602 -0.789072 0.312078 211 219 108 0.000000 -0.032590 -0.999469
-0.379749 -0.816826 0.381027 211 219 108 -0.099500 0.003244 0.995032
-0.415330 -0.759533 0.377283 211 219 108 -0.099499 0.003245 0.995032
-0.442548 -0.710876 0.326909 211 219 108 -1.000000 0.000000 0.000000
-0.442548 -0.773513 0.329993 211 219 108 -1.000000 0.000000 0.000000
-0.432936 -0.783961 0.311912 211 219 108 0.000000 -0.032590 -0.999469
-0.427349 -0.831108 0.376314 211 219 108 -0.099499 0.003245 0.995032
-0.405196 -0.834011 0.313543 211 219 108 0.000000 -0.032590 -0.999469
-0.399511 -0.782023 0.311848 211 219 108 0.000000 -0.032590 -0.999469
-0.442548 -0.723958 0.365779 211 219 108 -1.000000 0.000000 0.000000
-0.423432 -0.742758 0.310567 211 219 108 0.000000 -0.032590 -0.999469
-0.372128 -0.761845 0.353004 211 219 108 0.999469 -0.032590 0.000000
-0.424344 -0.705509 0.309353 211 219 108 0.000000 -0.032590 -0.999469
-0.442548 -0.808609 0.334787 211 219 108 -1.000000 0.000000 0.000000
-0.374521 -0.734080 0.310284 211 219 108 0.000000 -0.032590 -0.999469
-0.415759 -0.789674 0.377339 211 219 108 -0.099499 0.003245 0.995032
-0.442548 -0.778312 0.322445 211 219 108 -1.000000 0.000000 0.000000
-0.442548 -0.747845 0.347385 211 219 108 -1.000000 0.000000 0.000000
-0.374298 -0.828400 0.379317 211 219 108 0.999469 -0.032590 0.000000
-0.404808 -0.831949 0.313476 211 219 108 0.000000 -0.032590 -0.999469
-0.405254 -0.800939 0.378426 211 219 108 -0.099500 0.003244 0.995032
-0.442548 -0.749585 0.332116 211 219 108 -1.000000 0.000000 0.000000
-0.383419 -0.843699 0.380748 211 219 108 -0.099500 0.003244 0.995032
-0.411509 -0.757485 0.377659 211 219 108 -0.099500 0.003244 0.995032
-0.413042 -0.782163 0.377586 211 219 108 -0.099499 0.003245 0.995032
-0.384625 -0.836277 0.313617 211 219 108 0.000000 -0.032590 -0.999469
-0.442548 -0.791761 0.314096 211 219 108 -1.000000 0.000000 0.000000
-0.392954 -0.763113 0.311231 211 219 108 0.000000 -0.032590 -0.999469
-0.370608 -0.715214 0.322647 211 219 108 0.999469 -0.032590 0.000000
-0.373474 -0.803116 0.355409 211 219 108 0.999469 -0.032590 0.000000
-0.430936 -0.768243 0.375750 211 219 108 -0.099499 0.003245 0.995032
-0.442548 -0.775372 0.342698 211 219 108 -1.000000 0.000000 0.000000
-0.371032 -0.728221 0.341248 211 219 108 0.999469 -0.032590 0.000000
-0.419711 -0.694304 0.308988 211 219 108 0.000000 -0.032590 -0.999469
-0.442548 -0.741551 0.311096 211 219 108 -1.000000 0.000000 0.000000
-0.408267 -0.805574 0.312616 211 219 108 0.000000 -0.032590 -0.999469
-0.370644 -0.716337 0.358180 211 219 108 0.999469 -0.032590 0.000000
-0.370917 -0.724692 0.379533 211 219 108 0.999469 -0.032590 0.000000
-0.373694 -0.809876 0.317363 211 219 108 0.999469 -0.032590 0.000000
-0.382474 -0.780114 0.380635 211 219 108 -0.099500 0.003244 0.995032
-0.442548 -0.783283 0.337812 211 219 108 -1.000000 0.000000 0.000000
-0.442548 -0.842502 0.331052 211 219 108 -1.000000 0.000000 0.000000
-0.412331 -0.801359 0.312479 211 219 108 0.000000 -0.032590 -0.999469
-0.413011 -0.820353 0.313098 211 219 108 0.000000 -0.032590 -0.999469
-0.388625 -0.727086 0.310056 211 219 108 0.000000 -0.032590 -0.999469
-0.428127 -0.800661 0.312456 211 219 108 0.000000 -0.032590 -0.999469
-0.371704 -0.748851 0.334599 211 219 108 0.999469 -0.032590 0.000000
-0.419727 -0.826596 0.313302 211 219 108 0.000000 -0.032590 -0.999469
-0.442548 -0.714003 0.352866 211 219 108 -1.000000 0.000000 0.000000
-0.442548 -0.701226 0.348045 211 219 108 -1.000000 0.000000 0.000000
-0.370685 -0.717570 0.371430 211 219 108 0.999469 -0.032590 0.000000
-0.417829 -0.785988 0.311978 211 219 108 0.000000 -0.032590 -0.999469
-0.370597 -0.714895 0.318902 211 219 108 0.999469 -0.032590 0.000000
-0.438906 -0.829843 0.375154 211 219 108 -0.099499 0.003245 0.995032
-0.370354 -0.707463 0.318429 211 219 108 0.999469 -0.032590 0.000000
-0.428099 -0.766750 0.376029 211 219 108 -0.099499 0.003245 0.995032
-0.442548 -0.712789 0.330203 211 219 108 -1.000000 0.000000 0.000000
-0.442548 -0.689398 0.353510 211 219 108 -1.000000 0.000000 0.000000
-0.415014 -0.834836 0.377560 211 219 108 -0.099499 0.003245 0.995032
-0.431657 -0.771552 0.311507 211 219 108 0.000000 -0.032590 -0.999469
-0.371356 -0.738158 0.351004 211 219 108 0.999469 -0.032590 0.000000
-0.373308 -0.798049 0.353251 211 219 108 0.999469 -0.032590 0.000000
-0.442548 -0.828954 0.362477 211 219 108 -1.000000 0.000000 0.000000
-0.411119 -0.821215 0.377905 211 219 108 -0.099499 0.003245 0.995032
-0.370533 -0.712911 0.353706 211 219 108 0.999469 -0.032590 0.000000
-0.442548 -0.717213 0.374415 211 219 108 -1.000000 0.000000 0.000000
-0.435701 -0.816133 0.312961 211 219 108 0.000000 -0.032590 -0.999469
-0.442548 -0.729250 0.328700 211 219 108 -1.000000 0.000000 0.000000
-0.374300 -0.789731 0.381484 211 219 108 -0.099500 0.003244 0.995032
-0.442548 -0.751487 0.343024 211 219 108 -1.000000 0.000000 0.000000
-0.377813 -0.745704 0.380989 211 219 108 -0.099500 0.003244 0.995032
-0.372884 -0.785036 0.318172 211 219 108 0.999469 -0.032590 0.000000
-0.372951 -0.787080 0.361687 211 219 108 0.999469 -0.032590 0.000000
-0.365924 -0.571567 0.374843 226 211 146 0.999469 -0.032590 0.000000
-0.365574 -0.560852 0.365053 226 211 146 0.999469 -0.032590 0.000000
-0.442548 -0.645419 0.364252 226 211 146 -1.000000 0.000000 0.000000
-0.370846 -0.575387 0.305111 226 211 146 0.000000 -0.032590 -0.999469
-0.368995 -0.665772 0.316797 226 211 146 0.999469 -0.032590 0.000000
-0.427232 -0.660807 0.375770 226 211 146 -0.099499 0.003245 0.995032
-0.433581 -0.638977 0.375064 226 211 146 -0.099499 0.003245 0.995032
-0.397210 -0.560247 0.378445 226 211 146 -0.099500 0.003244 0.995032
-0.368721 -0.657379 0.329057 226 211 146 0.999469 -0.032590 0.000000
-0.414793 -0.641824 0.376952 226 211 146 -0.099500 0.003244 0.995032
-0.411690 -0.643770 0.307340 226 211 146 0.000000 -0.032590 -0.999469
-0.368824 -0.660521 0.337559 226 211 146 0.999469 -0.032590 0.000000
-0.442548 -0.662827 0.356657 226 211 146 -1.000000 0.000000 0.000000
-0.383079 -0.550495 0.379826 226 211 146 -0.099500 0.003244 0.995032
-0.435913 -0.610011 0.374737 226 211 146 -0.099499 0.003245 0.995032
-0.409713 -0.614084 0.306372 226 211 146 0.000000 -0.032590 -0.999469
-0.366647 -0.593746 0.378514 226 211 146 0.999469 -0.032590 0.000000
-0.407566 -0.598972 0.305880 226 211 146 0.000000 -0.032590 -0.999469
-0.441018 -0.677166 0.308429 226 211 146 0.000000 -0.032590 -0.999469
-0.376762 -0.647170 0.380773 226 211 146 -0.099500 0.003244 0.995032
-0.441452 -0.541126 0.373958 226 211 146 -0.099499 0.003245 0.995032
-0.368240 -0.642632 0.351871 226 211 146 0.999469 -0.032590 0.000000
-0.366297 -0.583031 0.310168 226 211 146 0.999469 -0.032590 0.000000
-0.429201 -0.539516 0.375178 226 211 146 -0.099500 0.003244 0.995032
-0.379251 -0.647070 0.307448 226 211 146 0.000000 -0.032590 -0.999469
-0.367033 -0.605597 0.368748 226 211 146 0.999469 -0.032590 0.000000
-0.365604 -0.561755 0.334954 226 211 146 0.999469 -0.032590 0.000000
-0.412354 -0.667237 0.308105 226 211 146 0.000000 -0.032590 -0.999469
-0.411363 -0.542086 0.304024 226 211 146 0.000000 -0.032590 -0.999469
-0.393520 -0.650432 0.379108 226 211 146 -0.099500 0.003244 0.995032
-0.369383 -0.677674 0.310735 226 211 146 0.999469 -0.032590 0.000000
-0.442548 -0.683359 0.338382 226 211 146 -1.000000 0.000000 0.000000
-0.364788 -0.536749 0.324703 226 211 146 0.999469 -0.032590 0.000000
-0.442548 -0.648069 0.327546 226 211 146 -1.000000 0.000000 0.000000
-0.364828 -0.537976 0.335909 226 211 146 0.999469 -0.032590 0.000000
-0.442548 -0.582805 0.306861 226 211 146 -1.000000 0.000000 0.000000
-0.391615 -0.605662 0.379153 226 211 146 -0.099500 0.003244 0.995032
-0.442548 -0.556971 0.344489 226 211 146 -1.000000 0.000000 0.000000
-0.378974 -0.654595 0.307693 226 211 146 0.000000 -0.032590 -0.999469
-0.365607 -0.561849 0.373263 226 211 146 0.999469 -0.032590 0.000000
-0.404391 -0.547522 0.377686 226 211 146 -0.099500 0.003244 0.995032
-0.384449 -0.676845 0.308418 226 211 146 0.000000 -0.032590 -0.999469
-0.368807 -0.660005 0.330289 226 211 146 0.999469 -0.032590 0.000000
-0.395333 -0.549501 0.378598 226 211 146 -0.099500 0.003244 0.995032
