ply
format ascii 1.0
element vertex 704
property float x
property float y
property float z
property uchar red
property uchar green
property uchar blue
property float nx
property float ny
property float nz
end_header
-0.329579 1.000000 -0.196069 42 218 199 0.000000 1.000000 0.000000
-0.345587 0.865311 -0.401502 42 218 199 -0.789549 0.000000 -0.613688
-0.260938 1.000000 -0.326701 42 218 199 0.000000 1.000000 0.000000
-0.361029 0.776788 -0.381636 42 218 199 -0.789549 0.000000 -0.613688
-0.266251 0.770956 -0.365896 42 218 199 0.000000 -1.000000 0.000000
-0.216733 0.923746 -0.206463 42 218 199 0.912895 0.000000 0.408194
-0.454999 1.000000 -0.179056 42 218 199 0.000000 1.000000 0.000000
-0.448577 0.877779 -0.205898 42 218 199 -0.955241 0.000000 -0.295828
-0.270382 1.000000 -0.290155 42 218 199 0.000000 1.000000 0.000000
-0.340778 0.891799 -0.407691 42 218 199 -0.789576 -0.000015 -0.613652
-0.381979 0.942337 -0.349173 42 218 199 -0.857403 0.000000 -0.514646
-0.117753 0.788230 -0.344153 42 218 199 0.789539 0.000000 0.613700
-0.198995 0.770956 -0.381422 42 218 199 0.000000 -1.000000 0.000000
-0.216946 0.770956 -0.412701 42 218 199 0.000000 -1.000000 0.000000
-0.416277 1.000000 -0.249174 42 218 199 0.000000 1.000000 0.000000
-0.287068 1.000000 -0.297543 42 218 199 0.000000 1.000000 0.000000
-0.283661 0.972314 -0.481179 42 218 199 -0.789563 0.000000 -0.613669
-0.403966 0.796182 -0.312543 42 218 199 -0.857403 0.000000 -0.514646
-0.319101 0.880577 -0.435581 42 218 199 -0.789576 -0.000015 -0.613652
-0.194558 0.899137 -0.243494 42 218 199 0.857408 0.000000 0.514637
-0.230945 0.841055 -0.174679 42 218 199 0.912895 0.000000 0.408194
-0.240671 1.000000 -0.215975 42 218 199 0.000000 1.000000 0.000000
-0.209979 0.770956 -0.446621 42 218 199 0.000000 -1.000000 0.000000
-0.444964 0.989380 -0.217567 42 218 199 -0.955241 0.000000 -0.295828
-0.264822 0.770956 -0.463913 42 218 199 0.000000 -1.000000 0.000000
-0.309385 1.000000 -0.280897 42 218 199 0.000000 1.000000 0.000000
-0.428799 0.837120 -0.259107 42 218 199 -0.912904 0.000000 -0.408175
-0.230903 0.770956 -0.371674 42 218 199 0.000000 -1.000000 0.000000
-0.124717 1.000000 -0.390819 42 218 199 0.000000 1.000000 0.000000
-0.327570 0.770956 -0.245394 42 218 199 0.000000 -1.000000 0.000000
-0.202692 1.000000 -0.413431 42 218 199 0.000000 1.000000 0.000000
-0.267794 0.960339 -0.501594 42 218 199 -0.789563 0.000000 -0.613669
-0.355667 0.770956 -0.332089 42 218 199 0.000000 -1.000000 0.000000
-0.132215 0.806194 -0.398067 42 218 199 0.613672 0.000000 -0.789561
-0.125955 0.953896 -0.393202 42 218 199 0.613672 0.000000 -0.789561
-0.162019 0.980316 -0.421232 42 218 199 0.613672 0.000000 -0.789561
-0.308860 0.823397 -0.448757 42 218 199 -0.789576 -0.000015 -0.613652
-0.298960 1.000000 -0.209439 42 218 199 0.000000 1.000000 0.000000
-0.185522 0.789698 -0.439499 42 218 199 0.613672 0.000000 -0.789561
-0.233289 0.770956 -0.464493 42 218 199 0.000000 -1.000000 0.000000
-0.335880 0.773816 -0.413991 42 218 199 -0.789549 0.000000 -0.613688
-0.352788 0.770956 -0.359177 42 218 199 0.000000 -1.000000 0.000000
-0.129685 0.885499 -0.396101 42 218 199 0.613672 0.000000 -0.789561
-0.278952 1.000000 -0.197113 42 218 199 0.000000 1.000000 0.000000
-0.293762 1.000000 -0.200273 42 218 199 0.000000 1.000000 0.000000
-0.293305 0.871247 -0.468771 42 218 199 -0.789563 0.000000 -0.613669
-0.252375 0.995243 -0.491459 42 218 199 0.613672 0.000000 -0.789561
-0.217785 0.770956 -0.311046 42 218 199 0.000000 -1.000000 0.000000
-0.377173 0.864821 -0.357180 42 218 199 -0.857403 0.000000 -0.514646
-0.427149 0.770956 -0.228413 42 218 199 0.000000 -1.000000 0.000000
-0.153424 0.853767 -0.298258 42 218 199 0.789568 -0.000017 0.613663
-0.150022 0.779522 -0.302638 42 218 199 0.789568 -0.000017 0.613663
-0.316720 0.770956 -0.252527 42 218 199 0.000000 -1.000000 0.000000
-0.404962 0.897638 -0.310882 42 218 199 -0.857403 0.000000 -0.514646
-0.281330 0.904787 -0.484178 42 218 199 -0.789563 0.000000 -0.613669
-0.274056 0.920206 -0.493538 42 218 199 -0.789563 0.000000 -0.613669
-0.145731 0.941987 -0.308155 42 218 199 0.789552 0.000000 0.613684
-0.314196 0.792483 -0.441890 42 218 199 -0.789576 -0.000015 -0.613652
-0.228930 0.802615 -0.179185 42 218 199 0.912895 0.000000 0.408194
-0.236445 0.934600 -0.479078 42 218 199 0.613672 0.000000 -0.789561
-0.204638 0.770956 -0.231996 42 218 199 0.000000 -1.000000 0.000000
-0.265354 0.868096 -0.501547 42 218 199 0.613672 0.000000 -0.789561
-0.307145 0.821912 -0.450963 42 218 199 -0.789576 -0.000015 -0.613652
-0.302896 0.770956 -0.174339 42 218 199 0.000000 -1.000000 0.000000
-0.211893 0.770956 -0.374639 42 218 199 0.000000 -1.000000 0.000000
-0.210056 0.807759 -0.217673 42 218 199 0.857408 0.000000 0.514637
-0.381387 0.770956 -0.328500 42 218 199 0.000000 -1.000000 0.000000
-0.111977 0.992140 -0.351583 42 218 199 0.789552 0.000000 0.613684
-0.370147 0.770956 -0.330156 42 218 199 0.000000 -1.000000 0.000000
-0.278595 0.770956 -0.279615 42 218 199 0.000000 -1.000000 0.000000
-0.394354 0.876385 -0.328556 42 218 199 -0.857403 0.000000 -0.514646
-0.174384 0.771510 -0.430842 42 218 199 0.613672 0.000000 -0.789561
-0.334920 0.992049 -0.415228 42 218 199 -0.789563 0.000000 -0.613669
-0.192254 0.859662 -0.247332 42 218 199 0.857408 0.000000 0.514637
-0.309628 1.000000 -0.350746 42 218 199 0.000000 1.000000 0.000000
-0.234341 1.000000 -0.343038 42 218 199 0.000000 1.000000 0.000000
-0.150480 0.932706 -0.412263 42 218 199 0.613672 0.000000 -0.789561
-0.141922 0.831241 -0.313057 42 218 199 0.789568 -0.000017 0.613663
-0.298711 0.842740 -0.461815 42 218 199 -0.789576 -0.000015 -0.613652
-0.160725 0.945505 -0.288864 42 218 199 0.789552 0.000000 0.613684
-0.263428 0.841399 -0.500050 42 218 199 0.613672 0.000000 -0.789561
-0.132600 0.966778 -0.325050 42 218 199 0.789552 0.000000 0.613684
-0.451300 0.946390 -0.197107 42 218 199 -0.955241 0.000000 -0.295828
-0.291296 0.770956 -0.457877 42 218 199 0.000000 -1.000000 0.000000
-0.316083 1.000000 -0.298754 42 218 199 0.000000 1.000000 0.000000
-0.403222 0.914271 -0.313782 42 218 199 -0.857403 0.000000 -0.514646
-0.376928 0.770956 -0.355502 42 218 199 0.000000 -1.000000 0.000000
-0.142583 0.770956 -0.337409 42 218 199 0.000000 -1.000000 0.000000
-0.154681 0.872070 -0.296641 42 218 199 0.789552 0.000000 0.613684
-0.221991 1.000000 -0.370401 42 218 199 0.000000 1.000000 0.000000
-0.264862 1.000000 -0.167930 42 218 199 0.000000 1.000000 0.000000
-0.184641 0.998084 -0.258095 42 218 199 0.789552 0.000000 0.613684
-0.212657 0.856803 -0.460589 42 218 199 0.613672 0.000000 -0.789561
-0.258016 0.835221 -0.495843 42 218 199 0.613672 0.000000 -0.789561
-0.458240 0.903147 -0.174697 42 218 199 -0.955241 0.000000 -0.295828
-0.455761 0.903214 -0.182702 42 218 199 -0.955241 0.000000 -0.295828
-0.265981 0.770956 -0.179147 42 218 199 0.000000 -1.000000 0.000000
-0.340836 0.946216 -0.407617 42 218 199 -0.789563 0.000000 -0.613669
-0.111178 0.935475 -0.381716 42 218 199 0.613672 0.000000 -0.789561
-0.165327 1.000000 -0.302797 42 218 199 0.000000 1.000000 0.000000
-0.413150 0.852783 -0.294107 42 218 199 -0.912904 0.000000 -0.408175
-0.435119 0.985792 -0.244974 42 218 199 -0.912904 0.000000 -0.408175
-0.181108 0.802366 -0.262640 42 218 199 0.789552 0.000000 0.613684
-0.225302 0.938255 -0.470417 42 218 199 0.613672 0.000000 -0.789561
-0.445353 0.902930 -0.216309 42 218 199 -0.955241 0.000000 -0.295828
-0.430415 0.928294 -0.255494 42 218 199 -0.912904 0.000000 -0.408175
-0.129235 0.832646 -0.329381 42 218 199 0.789539 0.000000 0.613700
-0.403054 0.781935 -0.314062 42 218 199 -0.857403 0.000000 -0.514646
-0.135905 0.859543 -0.320799 42 218 199 0.789568 -0.000017 0.613663
-0.277349 0.786191 -0.489300 42 218 199 -0.789576 -0.000015 -0.613652
-0.390179 0.822346 -0.335512 42 218 199 -0.857403 0.000000 -0.514646
-0.117449 0.888393 -0.344544 42 218 199 0.789539 0.000000 0.613700
-0.190050 0.885811 -0.443018 42 218 199 0.613672 0.000000 -0.789561
-0.327597 1.000000 -0.366061 42 218 199 0.000000 1.000000 0.000000
-0.117077 0.938558 -0.386301 42 218 199 0.613672 0.000000 -0.789561
-0.298402 0.985496 -0.462213 42 218 199 -0.789563 0.000000 -0.613669
-0.396795 0.770956 -0.264410 42 218 199 0.000000 -1.000000 0.000000
-0.413797 0.770956 -0.210780 42 218 199 0.000000 -1.000000 0.000000
-0.238668 0.770956 -0.393333 42 218 199 0.000000 -1.000000 0.000000
-0.226604 0.786403 -0.184387 42 218 199 0.912895 0.000000 0.408194
-0.218242 0.837029 -0.203089 42 218 199 0.912895 0.000000 0.408194
-0.267890 0.800423 -0.501471 42 218 199 -0.789563 0.000000 -0.613669
-0.114501 0.956592 -0.384299 42 218 199 0.613672 0.000000 -0.789561
-0.191768 0.989778 -0.248142 42 218 199 0.857408 0.000000 0.514637
-0.431822 0.872518 -0.252347 42 218 199 -0.912904 0.000000 -0.408175
-0.324754 0.948624 -0.428308 42 218 199 -0.789563 0.000000 -0.613669
-0.151908 0.791866 -0.300210 42 218 199 0.789568 -0.000017 0.613663
-0.359851 0.946934 -0.383151 42 218 199 -0.789549 0.000000 -0.613688
-0.335103 0.770956 -0.349140 42 218 199 0.000000 -1.000000 0.000000
-0.149912 0.976426 -0.302776 42 218 199 0.789552 0.000000 0.613684
-0.353285 0.774596 -0.391598 42 218 199 -0.789549 0.000000 -0.613688
-0.284212 0.831074 -0.480470 42 218 199 -0.789563 0.000000 -0.613669
-0.413442 0.916012 -0.293454 42 218 199 -0.912904 0.000000 -0.408175
-0.311215 1.000000 -0.417181 42 218 199 0.000000 1.000000 0.000000
-0.360916 0.771821 -0.381781 42 218 199 -0.789549 0.000000 -0.613688
-0.191685 1.000000 -0.380851 42 218 199 0.000000 1.000000 0.000000
-0.443377 0.925830 -0.222690 42 218 199 -0.955241 0.000000 -0.295828
-0.448182 0.923690 -0.207175 42 218 199 -0.955241 0.000000 -0.295828
-0.336549 0.770956 -0.226627 42 218 199 0.000000 -1.000000 0.000000
-0.274208 1.000000 -0.227653 42 218 199 0.000000 1.000000 0.000000
-0.436427 0.909663 -0.242048 42 218 199 -0.912904 0.000000 -0.408175
-0.328284 1.000000 -0.266370 42 218 199 0.000000 1.000000 0.000000
-0.350682 0.779423 -0.394947 42 218 199 -0.789549 0.000000 -0.613688
-0.271430 0.770956 -0.406852 42 218 199 0.000000 -1.000000 0.000000
-0.316245 0.926450 -0.439256 42 218 199 -0.789563 0.000000 -0.613669
-0.297168 1.000000 -0.181804 42 218 199 0.000000 1.000000 0.000000
-0.144169 0.995048 -0.310166 42 218 199 0.789552 0.000000 0.613684
-0.402133 0.836666 -0.315597 42 218 199 -0.857403 0.000000 -0.514646
-0.261960 0.770956 -0.241774 42 218 199 0.000000 -1.000000 0.000000
-0.191428 0.813680 -0.444089 42 218 199 0.613672 0.000000 -0.789561
-0.361912 0.789898 -0.380500 42 218 199 -0.789549 0.000000 -0.613688
-0.299415 1.000000 -0.283881 42 218 199 0.000000 1.000000 0.000000
-0.205763 0.956386 -0.224826 42 218 199 0.857408 0.000000 0.514637
-0.424817 0.957083 -0.268013 42 218 199 -0.912904 0.000000 -0.408175
-0.190541 0.773713 -0.250186 42 218 199 0.857408 0.000000 0.514637
-0.397651 0.937567 -0.323063 42 218 199 -0.857403 0.000000 -0.514646
-0.337211 0.805650 -0.412278 42 218 199 -0.789549 0.000000 -0.613688
-0.153225 0.883447 -0.414397 42 218 199 0.613672 0.000000 -0.789561
-0.214622 0.770956 -0.381121 42 218 199 0.000000 -1.000000 0.000000
-0.132570 0.963985 -0.325088 42 218 199 0.789552 0.000000 0.613684
-0.120061 0.770956 -0.387349 42 218 199 0.000000 -1.000000 0.000000
-0.431647 0.783332 -0.252737 42 218 199 -0.912904 0.000000 -0.408175
-0.283935 0.770956 -0.371073 42 218 199 0.000000 -1.000000 0.000000
-0.165694 0.932558 -0.424088 42 218 199 0.613672 0.000000 -0.789561
-0.246539 1.000000 -0.485800 42 218 199 0.000000 1.000000 0.000000
-0.133106 0.946866 -0.398760 42 218 199 0.613672 0.000000 -0.789561
-0.214641 0.861136 -0.210034 42 218 199 0.857408 0.000000 0.514637
-0.344387 1.000000 -0.368926 42 218 199 0.000000 1.000000 0.000000
-0.150885 0.904033 -0.301524 42 218 199 0.789552 0.000000 0.613684
-0.263444 0.913344 -0.500062 42 218 199 0.613672 0.000000 -0.789561
-0.358768 0.872342 -0.384544 42 218 199 -0.789549 0.000000 -0.613688
-0.106633 0.891054 -0.358459 42 218 199 0.789539 0.000000 0.613700
-0.223314 0.914544 -0.191745 42 218 199 0.912895 0.000000 0.408194
-0.236176 0.770956 -0.369807 42 218 199 0.000000 -1.000000 0.000000
-0.433642 0.874266 -0.248276 42 218 199 -0.912904 0.000000 -0.408175
-0.108383 0.930940 -0.356207 42 218 199 0.789539 0.000000 0.613700
-0.217269 0.925679 -0.205266 42 218 199 0.912895 0.000000 0.408194
-0.360838 0.874633 -0.381881 42 218 199 -0.789549 0.000000 -0.613688
-0.354689 0.799405 -0.389791 42 218 199 -0.789549 0.000000 -0.613688
-0.126581 0.881076 -0.332795 42 218 199 0.789568 -0.000017 0.613663
-0.157555 0.785056 -0.417762 42 218 199 0.613672 0.000000 -0.789561
-0.178483 0.888137 -0.266017 42 218 199 0.789552 0.000000 0.613684
-0.280577 0.798777 -0.485147 42 218 199 -0.789576 -0.000015 -0.613652
-0.241147 0.942831 -0.482732 42 218 199 0.613672 0.000000 -0.789561
-0.299511 0.770956 -0.447336 42 218 199 0.000000 -1.000000 0.000000
-0.395458 0.955203 -0.326717 42 218 199 -0.857403 0.000000 -0.514646
-0.295334 0.770956 -0.270145 42 218 199 0.000000 -1.000000 0.000000
-0.142570 0.898997 -0.406115 42 218 199 0.613672 0.000000 -0.789561
-0.401166 0.952181 -0.317207 42 218 199 -0.857403 0.000000 -0.514646
-0.413151 0.846061 -0.294105 42 218 199 -0.912904 0.000000 -0.408175
-0.176371 0.930961 -0.268735 42 218 199 0.789552 0.000000 0.613684
-0.453367 1.000000 -0.175997 42 218 199 0.000000 1.000000 0.000000
-0.187773 0.864590 -0.441248 42 218 199 0.613672 0.000000 -0.789561
-0.243510 1.000000 -0.246476 42 218 199 0.000000 1.000000 0.000000
-0.396639 1.000000 -0.279117 42 218 199 0.000000 1.000000 0.000000
-0.158855 0.858856 -0.291270 42 218 199 0.789552 0.000000 0.613684
-0.184530 0.802527 -0.258238 42 218 199 0.789552 0.000000 0.613684
-0.308337 0.968114 -0.449430 42 218 199 -0.789563 0.000000 -0.613669
-0.265042 0.868194 -0.501304 42 218 199 0.613672 0.000000 -0.789561
-0.289930 0.810742 -0.473113 42 218 199 -0.789576 -0.000015 -0.613652
-0.269037 0.912764 -0.499995 42 218 199 -0.789563 0.000000 -0.613669
-0.177449 0.770956 -0.267394 42 218 199 0.000000 -1.000000 0.000000
-0.399540 1.000000 -0.280318 42 218 199 0.000000 1.000000 0.000000
-0.108873 1.000000 -0.364711 42 218 199 0.000000 1.000000 0.000000
-0.252460 0.770956 -0.189255 42 218 199 0.000000 -1.000000 0.000000
-0.318002 1.000000 -0.402074 42 218 199 0.000000 1.000000 0.000000
-0.167632 0.849109 -0.425595 42 218 199 0.613672 0.000000 -0.789561
-0.157053 0.822420 -0.417372 42 218 199 0.613672 0.000000 -0.789561
-0.237481 0.802347 -0.479883 42 218 199 0.613672 0.000000 -0.789561
-0.200091 1.000000 -0.439375 42 218 199 0.000000 1.000000 0.000000
-0.160882 0.770956 -0.377332 42 218 199 0.000000 -1.000000 0.000000
-0.175661 1.000000 -0.323330 42 218 199 0.000000 1.000000 0.000000
-0.187056 0.963805 -0.440691 42 218 199 0.613672 0.000000 -0.789561
-0.201654 0.770956 -0.244728 42 218 199 0.000000 -1.000000 0.000000
-0.247970 0.770956 -0.268908 42 218 199 0.000000 -1.000000 0.000000
-0.224240 0.770956 -0.244191 42 218 199 0.000000 -1.000000 0.000000
-0.372530 0.878714 -0.364915 42 218 199 -0.857403 0.000000 -0.514646
-0.201931 0.770956 -0.319847 42 218 199 0.000000 -1.000000 0.000000
-0.356165 0.777733 -0.387893 42 218 199 -0.789549 0.000000 -0.613688
-0.351378 1.000000 -0.183333 42 218 199 0.000000 1.000000 0.000000
-0.336775 0.804298 -0.412839 42 218 199 -0.789549 0.000000 -0.613688
-0.130690 0.851259 -0.396882 42 218 199 0.613672 0.000000 -0.789561
-0.148785 0.917140 -0.304226 42 218 199 0.789552 0.000000 0.613684
-0.426083 0.898780 -0.265183 42 218 199 -0.912904 0.000000 -0.408175
-0.380535 1.000000 -0.225549 42 218 199 0.000000 1.000000 0.000000
-0.233368 0.770956 -0.385591 42 218 199 0.000000 -1.000000 0.000000
-0.386353 0.901167 -0.341886 42 218 199 -0.857403 0.000000 -0.514646
-0.172128 1.000000 -0.347522 42 218 199 0.000000 1.000000 0.000000
-0.311318 0.980851 -0.445595 42 218 199 -0.789563 0.000000 -0.613669
-0.355013 0.991926 -0.389376 42 218 199 -0.789563 0.000000 -0.613669
-0.113847 0.851885 -0.383791 42 218 199 0.613672 0.000000 -0.789561
-0.248029 0.992441 -0.488082 42 218 199 0.613672 0.000000 -0.789561
-0.184833 0.848904 -0.438963 42 218 199 0.613672 0.000000 -0.789561
-0.151548 1.000000 -0.316022 42 218 199 0.000000 1.000000 0.000000
-0.273948 1.000000 -0.209835 42 218 199 0.000000 1.000000 0.000000
-0.174270 0.798700 -0.271438 42 218 199 0.789568 -0.000017 0.613663
-0.151306 0.948763 -0.300983 42 218 199 0.789552 0.000000 0.613684
-0.344733 1.000000 -0.274163 42 218 199 0.000000 1.000000 0.000000
-0.292515 1.000000 -0.196600 42 218 199 0.000000 1.000000 0.000000
-0.225720 0.770956 -0.289233 42 218 199 0.000000 -1.000000 0.000000
-0.403441 1.000000 -0.238209 42 218 199 0.000000 1.000000 0.000000
-0.199877 0.898863 -0.234631 42 218 199 0.857408 0.000000 0.514637
-0.432478 0.852120 -0.250878 42 218 199 -0.912904 0.000000 -0.408175
-0.194382 1.000000 -0.266452 42 218 199 0.000000 1.000000 0.000000
-0.221063 0.895701 -0.467123 42 218 199 0.613672 0.000000 -0.789561
-0.149079 1.000000 -0.356019 42 218 199 0.000000 1.000000 0.000000
-0.275976 0.770956 -0.414191 42 218 199 0.000000 -1.000000 0.000000
-0.212990 1.000000 -0.455708 42 218 199 0.000000 1.000000 0.000000
-0.149917 0.957434 -0.411826 42 218 199 0.613672 0.000000 -0.789561
-0.296014 1.000000 -0.205970 42 218 199 0.000000 1.000000 0.000000
-0.382674 0.906646 -0.348015 42 218 199 -0.857403 0.000000 -0.514646
-0.333209 0.770956 -0.343093 42 218 199 0.000000 -1.000000 0.000000
-0.186980 0.800869 -0.440632 42 218 199 0.613672 0.000000 -0.789561
-0.273702 0.887380 -0.493993 42 218 199 -0.789563 0.000000 -0.613669
-0.301848 0.896542 -0.457779 42 218 199 -0.789563 0.000000 -0.613669
-0.435901 1.000000 -0.179326 42 218 199 0.000000 1.000000 0.000000
-0.331390 0.770956 -0.204702 42 218 199 0.000000 -1.000000 0.000000
-0.209574 0.782257 -0.458193 42 218 199 0.613672 0.000000 -0.789561
-0.216375 0.865223 -0.207145 42 218 199 0.857408 0.000000 0.514637
-0.369954 0.770956 -0.328091 42 218 199 0.000000 -1.000000 0.000000
-0.133028 0.785665 -0.398699 42 218 199 0.613672 0.000000 -0.789561
-0.347559 1.000000 -0.193627 42 218 199 0.000000 1.000000 0.000000
-0.384267 0.770956 -0.179808 42 218 199 0.000000 -1.000000 0.000000
-0.268427 0.770956 -0.254283 42 218 199 0.000000 -1.000000 0.000000
-0.165325 0.857924 -0.282947 42 218 199 0.789552 0.000000 0.613684
-0.377514 0.998807 -0.356611 42 218 199 -0.857403 0.000000 -0.514646
-0.372520 0.973986 -0.364932 42 218 199 -0.857403 0.000000 -0.514646
-0.297215 0.770956 -0.183071 42 218 199 0.000000 -1.000000 0.000000
-0.359447 0.866037 -0.383671 42 218 199 -0.789549 0.000000 -0.613688
-0.181114 0.840700 -0.436072 42 218 199 0.613672 0.000000 -0.789561
-0.290875 0.901575 -0.471898 42 218 199 -0.789563 0.000000 -0.613669
-0.338528 0.784611 -0.410584 42 218 199 -0.789549 0.000000 -0.613688
-0.337630 1.000000 -0.293277 42 218 199 0.000000 1.000000 0.000000
-0.390324 0.882245 -0.335270 42 218 199 -0.857403 0.000000 -0.514646
-0.229432 1.000000 -0.336867 42 218 199 0.000000 1.000000 0.000000
-0.212138 0.770956 -0.402163 42 218 199 0.000000 -1.000000 0.000000
-0.454251 0.788748 -0.187577 42 218 199 -0.955241 0.000000 -0.295828
-0.243658 1.000000 -0.401078 42 218 199 0.000000 1.000000 0.000000
-0.320361 0.922125 -0.433960 42 218 199 -0.789563 0.000000 -0.613669
-0.316569 0.770956 -0.365278 42 218 199 0.000000 -1.000000 0.000000
-0.125264 0.904343 -0.334488 42 218 199 0.789568 -0.000017 0.613663
-0.207558 1.000000 -0.393644 42 218 199 0.000000 1.000000 0.000000
-0.297523 1.000000 -0.257928 42 218 199 0.000000 1.000000 0.000000
-0.338021 1.000000 -0.360493 42 218 199 0.000000 1.000000 0.000000
-0.249996 0.902508 -0.489611 42 218 199 0.613672 0.000000 -0.789561
-0.369870 0.770956 -0.199231 42 218 199 0.000000 -1.000000 0.000000
-0.207620 1.000000 -0.447403 42 218 199 0.000000 1.000000 0.000000
-0.457319 1.000000 -0.169839 42 218 199 0.000000 1.000000 0.000000
-0.314097 1.000000 -0.218702 42 218 199 0.000000 1.000000 0.000000
-0.162735 0.816836 -0.421788 42 218 199 0.613672 0.000000 -0.789561
-0.268810 1.000000 -0.200579 42 218 199 0.000000 1.000000 0.000000
-0.139169 0.895564 -0.316598 42 218 199 0.789568 -0.000017 0.613663
-0.213060 0.770956 -0.366938 42 218 199 0.000000 -1.000000 0.000000
-0.347360 0.868387 -0.399222 42 218 199 -0.789549 0.000000 -0.613688
-0.385355 0.821548 -0.343548 42 218 199 -0.857403 0.000000 -0.514646
-0.245118 0.770956 -0.482445 42 218 199 0.000000 -1.000000 0.000000
-0.425225 0.841509 -0.267102 42 218 199 -0.912904 0.000000 -0.408175
-0.301354 1.000000 -0.211582 42 218 199 0.000000 1.000000 0.000000
-0.427139 0.820427 -0.262820 42 218 199 -0.912904 0.000000 -0.408175
-0.278411 0.798159 -0.487934 42 218 199 -0.789563 0.000000 -0.613669
-0.176777 1.000000 -0.424263 42 218 199 0.000000 1.000000 0.000000
-0.196341 0.770956 -0.432603 42 218 199 0.000000 -1.000000 0.000000
-0.191464 0.956422 -0.444117 42 218 199 0.613672 0.000000 -0.789561
-0.204903 0.876105 -0.454563 42 218 199 0.613672 0.000000 -0.789561
-0.279614 1.000000 -0.428368 42 218 199 0.000000 1.000000 0.000000
-0.430473 0.828817 -0.255364 42 218 199 -0.912904 0.000000 -0.408175
-0.272243 0.770956 -0.281840 42 218 199 0.000000 -1.000000 0.000000
-0.101903 0.928318 -0.364544 42 218 199 0.789539 0.000000 0.613700
-0.197643 0.816867 -0.448920 42 218 199 0.613672 0.000000 -0.789561
-0.136109 0.886271 -0.401094 42 218 199 0.613672 0.000000 -0.789561
-0.460261 0.874039 -0.168170 42 218 199 -0.955241 0.000000 -0.295828
-0.372089 1.000000 -0.170445 42 218 199 0.000000 1.000000 0.000000
-0.415082 0.918362 -0.289786 42 218 199 -0.912904 0.000000 -0.408175
-0.104139 0.770956 -0.371303 42 218 199 0.000000 -1.000000 0.000000
-0.326316 1.000000 -0.404179 42 218 199 0.000000 1.000000 0.000000
-0.342631 0.863673 -0.405306 42 218 199 -0.789549 0.000000 -0.613688
-0.442973 0.783706 -0.223995 42 218 199 -0.955241 0.000000 -0.295828
-0.385739 0.949075 -0.342909 42 218 199 -0.857403 0.000000 -0.514646
-0.281488 0.895708 -0.483975 42 218 199 -0.789563 0.000000 -0.613669
-0.459866 0.979353 -0.169445 42 218 199 -0.955241 0.000000 -0.295828
-0.333761 1.000000 -0.178444 42 218 199 0.000000 1.000000 0.000000
-0.185377 1.000000 -0.377970 42 218 199 0.000000 1.000000 0.000000
-0.421332 1.000000 -0.174620 42 218 199 0.000000 1.000000 0.000000
-0.201477 1.000000 -0.442332 42 218 199 0.000000 1.000000 0.000000
-0.165892 0.874298 -0.282217 42 218 199 0.789552 0.000000 0.613684
-0.171562 0.911213 -0.274922 42 218 199 0.789552 0.000000 0.613684
-0.353220 0.770956 -0.330957 42 218 199 0.000000 -1.000000 0.000000
-0.317624 0.770956 -0.237095 42 218 199 0.000000 -1.000000 0.000000
-0.196491 0.952068 -0.240273 42 218 199 0.857408 0.000000 0.514637
-0.427902 0.981962 -0.261114 42 218 199 -0.912904 0.000000 -0.408175
-0.428017 0.995465 -0.260857 42 218 199 -0.912904 0.000000 -0.408175
-0.382580 1.000000 -0.337288 42 218 199 0.000000 1.000000 0.000000
-0.271770 0.985540 -0.496479 42 218 199 -0.789563 0.000000 -0.613669
-0.218976 0.770956 -0.451105 42 218 199 0.000000 -1.000000 0.000000
-0.321989 0.956571 -0.431865 42 218 199 -0.789563 0.000000 -0.613669
-0.222828 0.969771 -0.192832 42 218 199 0.912895 0.000000 0.408194
-0.236250 0.969701 -0.478926 42 218 199 0.613672 0.000000 -0.789561
-0.204465 0.810111 -0.454222 42 218 199 0.613672 0.000000 -0.789561
-0.419325 0.890217 -0.280296 42 218 199 -0.912904 0.000000 -0.408175
-0.264263 1.000000 -0.407276 42 218 199 0.000000 1.000000 0.000000
-0.450895 0.862661 -0.198413 42 218 199 -0.955241 0.000000 -0.295828
-0.152438 0.965496 -0.413785 42 218 199 0.613672 0.000000 -0.789561
-0.214533 0.892405 -0.210214 42 218 199 0.857408 0.000000 0.514637
-0.156716 0.936626 -0.294022 42 218 199 0.789552 0.000000 0.613684
-0.276878 1.000000 -0.421377 42 218 199 0.000000 1.000000 0.000000
-0.278332 1.000000 -0.378417 42 218 199 0.000000 1.000000 0.000000
-0.310214 0.770956 -0.410597 42 218 199 0.000000 -1.000000 0.000000
-0.323569 1.000000 -0.343789 42 218 199 0.000000 1.000000 0.000000
-0.445822 0.887867 -0.214794 42 218 199 -0.955241 0.000000 -0.295828
-0.284075 0.770956 -0.167753 42 218 199 0.000000 -1.000000 0.000000
-0.214681 0.867982 -0.462162 42 218 199 0.613672 0.000000 -0.789561
-0.386532 0.770956 -0.229619 42 218 199 0.000000 -1.000000 0.000000
-0.360351 0.825814 -0.382507 42 218 199 -0.789549 0.000000 -0.613688
-0.236199 0.770956 -0.250498 42 218 199 0.000000 -1.000000 0.000000
-0.214669 0.809906 -0.462153 42 218 199 0.613672 0.000000 -0.789561
-0.431238 0.848434 -0.253653 42 218 199 -0.912904 0.000000 -0.408175
-0.140628 0.783144 -0.314723 42 218 199 0.789539 0.000000 0.613700
-0.377977 0.865457 -0.355840 42 218 199 -0.857403 0.000000 -0.514646
-0.189391 1.000000 -0.432284 42 218 199 0.000000 1.000000 0.000000
-0.101474 0.995030 -0.365096 42 218 199 0.789552 0.000000 0.613684
-0.427255 0.851824 -0.262560 42 218 199 -0.912904 0.000000 -0.408175
-0.145377 0.854896 -0.308611 42 218 199 0.789568 -0.000017 0.613663
-0.128935 0.849375 -0.329766 42 218 199 0.789539 0.000000 0.613700
-0.124383 0.783474 -0.335622 42 218 199 0.789539 0.000000 0.613700
-0.327362 0.770956 -0.272491 42 218 199 0.000000 -1.000000 0.000000
-0.174049 0.894918 -0.430581 42 218 199 0.613672 0.000000 -0.789561
-0.129754 0.976097 -0.328711 42 218 199 0.789552 0.000000 0.613684
-0.425033 0.905698 -0.267529 42 218 199 -0.912904 0.000000 -0.408175
-0.420743 0.929100 -0.277126 42 218 199 -0.912904 0.000000 -0.408175
-0.117586 0.779929 -0.386697 42 218 199 0.613672 0.000000 -0.789561
-0.153395 0.960495 -0.414529 42 218 199 0.613672 0.000000 -0.789561
-0.233771 1.000000 -0.410904 42 218 199 0.000000 1.000000 0.000000
-0.176802 0.874291 -0.432722 42 218 199 0.613672 0.000000 -0.789561
-0.223327 0.770956 -0.335401 42 218 199 0.000000 -1.000000 0.000000
-0.429201 0.875238 -0.258208 42 218 199 -0.912904 0.000000 -0.408175
-0.166722 0.795647 -0.424887 42 218 199 0.613672 0.000000 -0.789561
-0.189644 0.864183 -0.442703 42 218 199 0.613672 0.000000 -0.789561
-0.390160 1.000000 -0.245432 42 218 199 0.000000 1.000000 0.000000
-0.366398 0.779557 -0.374728 42 218 199 -0.789549 0.000000 -0.613688
-0.175329 0.947434 -0.270076 42 218 199 0.789552 0.000000 0.613684
-0.288879 0.860178 -0.474466 42 218 199 -0.789563 0.000000 -0.613669
-0.420613 0.810692 -0.277416 42 218 199 -0.912904 0.000000 -0.408175
-0.155777 0.770956 -0.299641 42 218 199 0.000000 -1.000000 0.000000
-0.211711 0.935998 -0.459854 42 218 199 0.613672 0.000000 -0.789561
-0.423105 0.870811 -0.271843 42 218 199 -0.912904 0.000000 -0.408175
-0.199676 1.000000 -0.275987 42 218 199 0.000000 1.000000 0.000000
-0.307755 0.950411 -0.450179 42 218 199 -0.789563 0.000000 -0.613669
-0.272659 0.770956 -0.451657 42 218 199 0.000000 -1.000000 0.000000
-0.151532 0.853906 -0.413081 42 218 199 0.613672 0.000000 -0.789561
-0.113521 0.785541 -0.349597 42 218 199 0.789539 0.000000 0.613700
-0.107288 0.856412 -0.357616 42 218 199 0.789539 0.000000 0.613700
-0.360542 0.832080 -0.382262 42 218 199 -0.789549 0.000000 -0.613688
-0.444179 0.856955 -0.220102 42 218 199 -0.955241 0.000000 -0.295828
-0.321613 0.770956 -0.289571 42 218 199 0.000000 -1.000000 0.000000
-0.293228 0.994494 -0.468870 42 218 199 -0.789563 0.000000 -0.613669
-0.314565 1.000000 -0.350829 42 218 199 0.000000 1.000000 0.000000
-0.307491 0.770956 -0.368417 42 218 199 0.000000 -1.000000 0.000000
-0.244622 0.770956 -0.360830 42 218 199 0.000000 -1.000000 0.000000
-0.232925 0.818115 -0.170251 42 218 199 0.912895 0.000000 0.408194
-0.365103 0.770956 -0.167519 42 218 199 0.000000 -1.000000 0.000000
-0.227444 0.770956 -0.221119 42 218 199 0.000000 -1.000000 0.000000
-0.312465 0.903332 -0.444120 42 218 199 -0.789563 0.000000 -0.613669
-0.431486 0.986567 -0.253098 42 218 199 -0.912904 0.000000 -0.408175
-0.146447 1.000000 -0.316758 42 218 199 0.000000 1.000000 0.000000
-0.354227 0.851538 -0.390386 42 218 199 -0.789549 0.000000 -0.613688
-0.197376 0.913963 -0.238798 42 218 199 0.857408 0.000000 0.514637
-0.280589 1.000000 -0.378545 42 218 199 0.000000 1.000000 0.000000
-0.438448 0.776172 -0.237527 42 218 199 -0.912904 0.000000 -0.408175
-0.328197 1.000000 -0.357756 42 218 199 0.000000 1.000000 0.000000
-0.365507 0.770956 -0.261020 42 218 199 0.000000 -1.000000 0.000000
-0.393569 0.801527 -0.329863 42 218 199 -0.857403 0.000000 -0.514646
-0.210312 0.866748 -0.217247 42 218 199 0.857408 0.000000 0.514637
-0.351762 0.770956 -0.238098 42 218 199 0.000000 -1.000000 0.000000
-0.243366 0.970486 -0.484457 42 218 199 0.613672 0.000000 -0.789561
-0.275713 0.799495 -0.491406 42 218 199 -0.789563 0.000000 -0.613669
-0.240195 1.000000 -0.211970 42 218 199 0.000000 1.000000 0.000000
-0.175753 0.911207 -0.269530 42 218 199 0.789552 0.000000 0.613684
-0.272803 1.000000 -0.250351 42 218 199 0.000000 1.000000 0.000000
-0.321856 1.000000 -0.396148 42 218 199 0.000000 1.000000 0.000000
-0.153973 0.881208 -0.414978 42 218 199 0.613672 0.000000 -0.789561
-0.407777 0.844990 -0.306124 42 218 199 -0.912904 0.000000 -0.408175
-0.226691 0.863803 -0.471497 42 218 199 0.613672 0.000000 -0.789561
-0.177189 0.899243 -0.267682 42 218 199 0.789552 0.000000 0.613684
-0.190521 0.991780 -0.250220 42 218 199 0.857408 0.000000 0.514637
-0.354754 0.831262 -0.389709 42 218 199 -0.789549 0.000000 -0.613688
-0.384758 0.776882 -0.344543 42 218 199 -0.857403 0.000000 -0.514646
-0.328928 0.866601 -0.422937 42 218 199 -0.789576 -0.000015 -0.613652
-0.344913 1.000000 -0.202595 42 218 199 0.000000 1.000000 0.000000
-0.262773 0.974736 -0.499541 42 218 199 0.613672 0.000000 -0.789561
-0.250059 0.891856 -0.489659 42 218 199 0.613672 0.000000 -0.789561
-0.105717 0.843324 -0.377472 42 218 199 0.613672 0.000000 -0.789561
-0.342139 0.770956 -0.392729 42 218 199 0.000000 -1.000000 0.000000
-0.399878 1.000000 -0.206193 42 218 199 0.000000 1.000000 0.000000
-0.120349 0.931324 -0.340812 42 218 199 0.789568 -0.000017 0.613663
-0.185795 0.770956 -0.286939 42 218 199 0.000000 -1.000000 0.000000
-0.268818 0.770956 -0.255817 42 218 199 0.000000 -1.000000 0.000000
-0.239055 1.000000 -0.207275 42 218 199 0.000000 1.000000 0.000000
-0.131211 1.000000 -0.342443 42 218 199 0.000000 1.000000 0.000000
-0.317419 0.886653 -0.437745 42 218 199 -0.789563 0.000000 -0.613669
-0.328321 0.770956 -0.237103 42 218 199 0.000000 -1.000000 0.000000
-0.376325 0.957370 -0.358592 42 218 199 -0.857403 0.000000 -0.514646
-0.168726 0.838526 -0.278570 42 218 199 0.789552 0.000000 0.613684
-0.444908 1.000000 -0.208888 42 218 199 0.000000 1.000000 0.000000
-0.387640 0.941467 -0.339741 42 218 199 -0.857403 0.000000 -0.514646
-0.250060 1.000000 -0.178184 42 218 199 0.000000 1.000000 0.000000
-0.439592 0.770956 -0.222664 42 218 199 0.000000 -1.000000 0.000000
-0.320349 1.000000 -0.276126 42 218 199 0.000000 1.000000 0.000000
-0.441939 0.780726 -0.227335 42 218 199 -0.955241 0.000000 -0.295828
-0.349287 1.000000 -0.301965 42 218 199 0.000000 1.000000 0.000000
-0.105566 0.814253 -0.359831 42 218 199 0.789539 0.000000 0.613700
-0.379770 0.770956 -0.323046 42 218 199 0.000000 -1.000000 0.000000
-0.220658 1.000000 -0.455005 42 218 199 0.000000 1.000000 0.000000
-0.354022 0.986981 -0.390651 42 218 199 -0.789563 0.000000 -0.613669
-0.103177 0.900179 -0.375498 42 218 199 0.613672 0.000000 -0.789561
-0.262094 0.770956 -0.410356 42 218 199 0.000000 -1.000000 0.000000
-0.277951 0.770956 -0.462270 42 218 199 0.000000 -1.000000 0.000000
-0.451843 0.770956 -0.176536 42 218 199 0.000000 -1.000000 0.000000
-0.408823 0.770956 -0.226211 42 218 199 0.000000 -1.000000 0.000000
-0.241816 0.770956 -0.232343 42 218 199 0.000000 -1.000000 0.000000
-0.110676 0.814174 -0.381326 42 218 199 0.613672 0.000000 -0.789561
-0.200776 0.950402 -0.451355 42 218 199 0.613672 0.000000 -0.789561
-0.410902 1.000000 -0.252961 42 218 199 0.000000 1.000000 0.000000
-0.158278 0.771707 -0.418324 42 218 199 0.613672 0.000000 -0.789561
-0.261814 1.000000 -0.419340 42 218 199 0.000000 1.000000 0.000000
-0.319661 0.846725 -0.434859 42 218 199 -0.789576 -0.000015 -0.613652
-0.153354 0.991932 -0.298348 42 218 199 0.789552 0.000000 0.613684
-0.108776 0.917437 -0.355701 42 218 199 0.789539 0.000000 0.613700
-0.138547 0.770956 -0.348002 42 218 199 0.000000 -1.000000 0.000000
-0.104823 0.856496 -0.360786 42 218 199 0.789539 0.000000 0.613700
-0.374184 0.969748 -0.362159 42 218 199 -0.857403 0.000000 -0.514646
-0.371907 0.787650 -0.365953 42 218 199 -0.857403 0.000000 -0.514646
-0.206239 0.940002 -0.224032 42 218 199 0.857408 0.000000 0.514637
-0.382513 1.000000 -0.291397 42 218 199 0.000000 1.000000 0.000000
-0.253727 0.907064 -0.492510 42 218 199 0.613672 0.000000 -0.789561
-0.354874 1.000000 -0.231809 42 218 199 0.000000 1.000000 0.000000
-0.283421 0.832341 -0.481488 42 218 199 -0.789563 0.000000 -0.613669
-0.299967 0.815587 -0.460199 42 218 199 -0.789576 -0.000015 -0.613652
-0.252774 0.824339 -0.491769 42 218 199 0.613672 0.000000 -0.789561
-0.214535 0.924165 -0.462049 42 218 199 0.613672 0.000000 -0.789561
-0.123323 0.940329 -0.336985 42 218 199 0.789552 0.000000 0.613684
-0.176691 0.770956 -0.276750 42 218 199 0.000000 -1.000000 0.000000
-0.225306 0.770956 -0.291149 42 218 199 0.000000 -1.000000 0.000000
-0.295168 0.770956 -0.211991 42 218 199 0.000000 -1.000000 0.000000
-0.283323 1.000000 -0.287789 42 218 199 0.000000 1.000000 0.000000
-0.262106 0.947110 -0.499023 42 218 199 0.613672 0.000000 -0.789561
-0.410324 0.850934 -0.300427 42 218 199 -0.912904 0.000000 -0.408175
-0.441557 1.000000 -0.205024 42 218 199 0.000000 1.000000 0.000000
-0.314884 0.825024 -0.441006 42 218 199 -0.789576 -0.000015 -0.613652
-0.305280 0.770956 -0.378450 42 218 199 0.000000 -1.000000 0.000000
-0.380175 0.996082 -0.352178 42 218 199 -0.857403 0.000000 -0.514646
-0.279849 1.000000 -0.186453 42 218 199 0.000000 1.000000 0.000000
-0.181732 0.978381 -0.261837 42 218 199 0.789552 0.000000 0.613684
-0.409637 1.000000 -0.218264 42 218 199 0.000000 1.000000 0.000000
-0.375166 0.770956 -0.241329 42 218 199 0.000000 -1.000000 0.000000
-0.236463 1.000000 -0.313414 42 218 199 0.000000 1.000000 0.000000
-0.445905 0.792614 -0.214527 42 218 199 -0.955241 0.000000 -0.295828
-0.113312 0.831117 -0.349866 42 218 199 0.789539 0.000000 0.613700
-0.344767 0.770956 -0.319328 42 218 199 0.000000 -1.000000 0.000000
-0.177093 0.795501 -0.432948 42 218 199 0.613672 0.000000 -0.789561
-0.292712 0.770956 -0.231786 42 218 199 0.000000 -1.000000 0.000000
-0.305347 1.000000 -0.180159 42 218 199 0.000000 1.000000 0.000000
-0.240143 1.000000 -0.176564 42 218 199 0.000000 1.000000 0.000000
-0.343682 1.000000 -0.316794 42 218 199 0.000000 1.000000 0.000000
-0.329845 0.893065 -0.421757 42 218 199 -0.789576 -0.000015 -0.613652
-0.137366 0.851493 -0.402071 42 218 199 0.613672 0.000000 -0.789561
-0.220616 0.979158 -0.466775 42 218 199 0.613672 0.000000 -0.789561
-0.335791 1.000000 -0.372065 42 218 199 0.000000 1.000000 0.000000
-0.416260 1.000000 -0.204132 42 218 199 0.000000 1.000000 0.000000
-0.294789 0.804296 -0.466861 42 218 199 -0.789576 -0.000015 -0.613652
-0.174544 1.000000 -0.291927 42 218 199 0.000000 1.000000 0.000000
-0.227733 1.000000 -0.267503 42 218 199 0.000000 1.000000 0.000000
-0.211663 0.885140 -0.214995 42 218 199 0.857408 0.000000 0.514637
-0.412327 0.824013 -0.295949 42 218 199 -0.912904 0.000000 -0.408175
-0.224334 0.805158 -0.189465 42 218 199 0.912895 0.000000 0.408194
-0.132167 1.000000 -0.381767 42 218 199 0.000000 1.000000 0.000000
-0.385257 0.894899 -0.343712 42 218 199 -0.857403 0.000000 -0.514646
-0.204716 0.929268 -0.226569 42 218 199 0.857408 0.000000 0.514637
-0.403493 0.929183 -0.313331 42 218 199 -0.857403 0.000000 -0.514646
-0.158506 0.957747 -0.291719 42 218 199 0.789552 0.000000 0.613684
-0.329920 0.770956 -0.356610 42 218 199 0.000000 -1.000000 0.000000
-0.140540 0.982125 -0.404537 42 218 199 0.613672 0.000000 -0.789561
-0.342360 0.770956 -0.236188 42 218 199 0.000000 -1.000000 0.000000
-0.383116 0.859936 -0.347279 42 218 199 -0.857403 0.000000 -0.514646
-0.308265 1.000000 -0.191004 42 218 199 0.000000 1.000000 0.000000
-0.371861 1.000000 -0.227552 42 218 199 0.000000 1.000000 0.000000
-0.383703 0.770956 -0.306333 42 218 199 0.000000 -1.000000 0.000000
-0.215325 1.000000 -0.262502 42 218 199 0.000000 1.000000 0.000000
-0.100161 0.794334 -0.373154 42 218 199 0.613672 0.000000 -0.789561
-0.366396 0.770956 -0.273675 42 218 199 0.000000 -1.000000 0.000000
-0.289857 0.821750 -0.473208 42 218 199 -0.789576 -0.000015 -0.613652
-0.375746 1.000000 -0.327109 42 218 199 0.000000 1.000000 0.000000
-0.313837 1.000000 -0.339629 42 218 199 0.000000 1.000000 0.000000
-0.369329 0.798786 -0.370247 42 218 199 -0.857403 0.000000 -0.514646
-0.268188 0.770956 -0.279086 42 218 199 0.000000 -1.000000 0.000000
-0.286545 1.000000 -0.199489 42 218 199 0.000000 1.000000 0.000000
-0.215060 0.857629 -0.462457 42 218 199 0.613672 0.000000 -0.789561
-0.249406 1.000000 -0.476858 42 218 199 0.000000 1.000000 0.000000
-0.428316 0.892247 -0.260189 42 218 199 -0.912904 0.000000 -0.408175
-0.444931 0.821551 -0.217672 42 218 199 -0.955241 0.000000 -0.295828
-0.188389 0.818270 -0.253273 42 218 199 0.789552 0.000000 0.613684
-0.454243 0.966270 -0.187603 42 218 199 -0.955241 0.000000 -0.295828
-0.282287 1.000000 -0.468655 42 218 199 0.000000 1.000000 0.000000
-0.299667 1.000000 -0.412655 42 218 199 0.000000 1.000000 0.000000
-0.133625 0.838737 -0.399163 42 218 199 0.613672 0.000000 -0.789561
-0.176695 1.000000 -0.399606 42 218 199 0.000000 1.000000 0.000000
-0.317811 0.919264 -0.437241 42 218 199 -0.789563 0.000000 -0.613669
-0.444755 0.783564 -0.218241 42 218 199 -0.955241 0.000000 -0.295828
-0.185110 1.000000 -0.262780 42 218 199 0.000000 1.000000 0.000000
-0.302427 1.000000 -0.193339 42 218 199 0.000000 1.000000 0.000000
-0.365611 1.000000 -0.365856 42 218 199 0.000000 1.000000 0.000000
-0.234621 0.933774 -0.166458 203 148 43 0.912895 0.000000 0.408194
-0.428132 0.770956 0.141288 203 148 43 0.000000 -1.000000 0.000000
-0.288447 0.770956 0.014161 203 148 43 0.000000 -1.000000 0.000000
-0.460570 0.775249 -0.167174 203 148 43 -0.955241 0.000000 -0.295828
-0.440930 0.770956 0.038584 203 148 43 0.000000 -1.000000 0.000000
-0.404305 0.770956 0.120915 203 148 43 0.000000 -1.000000 0.000000
-0.466646 0.842970 -0.138499 203 148 43 -0.983809 0.000000 -0.179221
-0.255242 0.921244 0.087484 203 148 43 0.983810 0.000000 -0.179214
-0.443668 1.000000 -0.109288 203 148 43 0.000000 1.000000 0.000000
-0.262769 0.849754 0.045578 203 148 43 0.998196 0.000000 -0.060040
-0.410650 1.000000 0.048929 203 148 43 0.000000 1.000000 0.000000
-0.291437 0.770956 -0.055257 203 148 43 0.000000 -1.000000 0.000000
-0.475037 0.770956 0.040833 203 148 43 0.000000 -1.000000 0.000000
-0.467614 0.770956 -0.092556 203 148 43 0.000000 -1.000000 0.000000
-0.468268 0.808267 0.118217 203 148 43 -0.983808 0.000000 0.179228
-0.309184 0.770956 -0.021751 203 148 43 0.000000 -1.000000 0.000000
-0.259298 0.895888 0.065220 203 148 43 0.983810 0.000000 -0.179214
-0.376778 0.770956 -0.007525 203 148 43 0.000000 -1.000000 0.000000
-0.259351 0.999463 0.064925 203 148 43 0.983810 0.000000 -0.179214
-0.464388 0.852037 0.139517 203 148 43 -0.983808 0.000000 0.179228
-0.254588 0.930598 -0.102452 203 148 43 0.983808 0.000000 0.179224
-0.264608 1.000000 0.078098 203 148 43 0.000000 1.000000 0.000000
-0.452563 1.000000 0.142883 203 148 43 0.000000 1.000000 0.000000
-0.247656 0.806920 -0.127624 203 148 43 0.955255 0.000000 0.295783
-0.476708 0.810245 -0.082486 203 148 43 -0.998197 0.000000 -0.060025
-0.280312 1.000000 0.013050 203 148 43 0.000000 1.000000 0.000000
-0.438622 0.770956 0.147110 203 148 43 0.000000 -1.000000 0.000000
-0.473237 0.948861 -0.102317 203 148 43 -0.983809 0.000000 -0.179221
-0.480647 0.885987 -0.016981 203 148 43 -0.998197 0.000000 -0.060025
-0.462692 0.864126 0.148825 203 148 43 -0.983808 0.000000 0.179228
-0.473428 0.792291 -0.101272 203 148 43 -0.983809 0.000000 -0.179221
-0.253617 0.770956 0.125978 203 148 43 0.000000 -1.000000 0.000000
-0.263812 0.833198 0.028252 203 148 43 0.998196 0.000000 -0.060040
-0.250125 0.803262 0.108271 203 148 43 0.955255 0.000000 -0.295783
-0.430639 1.000000 0.064684 203 148 43 0.000000 1.000000 0.000000
-0.266397 1.000000 0.085732 203 148 43 0.000000 1.000000 0.000000
-0.478733 0.782494 -0.048809 203 148 43 -0.998197 0.000000 -0.060025
-0.302937 1.000000 -0.162274 203 148 43 0.000000 1.000000 0.000000
-0.322268 0.770956 -0.116561 203 148 43 0.000000 -1.000000 0.000000
-0.389600 0.770956 -0.149040 203 148 43 0.000000 -1.000000 0.000000
-0.469357 0.993349 0.112241 203 148 43 -0.983808 0.000000 0.179228
-0.464704 0.903447 0.137784 203 148 43 -0.983808 0.000000 0.179228
-0.436840 0.770956 -0.108267 203 148 43 0.000000 -1.000000 0.000000
-0.239613 0.949877 0.142221 203 148 43 0.955255 0.000000 -0.295783
-0.299110 0.770956 -0.064723 203 148 43 0.000000 -1.000000 0.000000
-0.409307 1.000000 0.038072 203 148 43 0.000000 1.000000 0.000000
-0.254266 0.926614 0.092840 203 148 43 0.983810 0.000000 -0.179214
-0.306399 0.770956 0.081275 203 148 43 0.000000 -1.000000 0.000000
-0.230139 0.813895 0.165103 203 148 43 0.912885 0.000000 -0.408216
-0.297683 0.770956 0.130875 203 148 43 0.000000 -1.000000 0.000000
-0.478182 0.852745 0.046596 203 148 43 -0.998197 0.000000 0.060023
-0.463732 0.984120 0.143119 203 148 43 -0.983808 0.000000 0.179228
-0.410614 0.770956 -0.109631 203 148 43 0.000000 -1.000000 0.000000
-0.471749 0.776171 -0.110485 203 148 43 -0.983809 0.000000 -0.179221
-0.405078 1.000000 0.148030 203 148 43 0.000000 1.000000 0.000000
-0.480715 0.852176 0.004470 203 148 43 -0.998197 0.000000 0.060023
-0.410565 1.000000 -0.042208 203 148 43 0.000000 1.000000 0.000000
-0.467358 0.913409 0.123213 203 148 43 -0.983808 0.000000 0.179228
-0.247713 0.917406 0.116063 203 148 43 0.955255 0.000000 -0.295783
-0.478317 0.952271 -0.055725 203 148 43 -0.998197 0.000000 -0.060025
-0.255918 0.935007 0.083773 203 148 43 0.983810 0.000000 -0.179214
-0.357071 0.770956 0.159228 203 148 43 0.000000 -1.000000 0.000000
-0.263248 0.959061 -0.048994 203 148 43 0.998196 0.000000 0.060036
-0.281940 1.000000 -0.042360 203 148 43 0.000000 1.000000 0.000000
-0.262190 0.823396 0.049340 203 148 43 0.983810 0.000000 -0.179214
-0.247985 0.993930 -0.126560 203 148 43 0.955255 0.000000 0.295783
-0.235206 0.804585 0.153772 203 148 43 0.912885 0.000000 -0.408216
-0.401037 0.770956 -0.167364 203 148 43 0.000000 -1.000000 0.000000
-0.263381 0.887490 0.035410 203 148 43 0.998196 0.000000 -0.060040
-0.256656 0.822090 -0.091102 203 148 43 0.983808 0.000000 0.179224
-0.369992 1.000000 -0.077153 203 148 43 0.000000 1.000000 0.000000
-0.385677 0.770956 -0.153688 203 148 43 0.000000 -1.000000 0.000000
-0.327271 1.000000 -0.122172 203 148 43 0.000000 1.000000 0.000000
-0.341578 0.770956 0.130972 203 148 43 0.000000 -1.000000 0.000000
-0.478877 0.884757 -0.046419 203 148 43 -0.998197 0.000000 -0.060025
-0.291443 1.000000 0.021621 203 148 43 0.000000 1.000000 0.000000
-0.264453 0.908963 -0.028973 203 148 43 0.998196 0.000000 0.060036
-0.296190 0.770956 -0.070348 203 148 43 0.000000 -1.000000 0.000000
-0.343839 0.770956 -0.084173 203 148 43 0.000000 -1.000000 0.000000
-0.250252 0.827100 -0.119240 203 148 43 0.955255 0.000000 0.295783
-0.252320 0.892763 -0.112561 203 148 43 0.955255 0.000000 0.295783
-0.465956 0.930629 0.130910 203 148 43 -0.983808 0.000000 0.179228
-0.465827 0.982976 -0.142992 203 148 43 -0.983809 0.000000 -0.179221
-0.459017 0.873052 0.160808 203 148 43 -0.955239 0.000000 0.295835
-0.279540 1.000000 0.084967 203 148 43 0.000000 1.000000 0.000000
-0.258696 0.824237 -0.079904 203 148 43 0.983808 0.000000 0.179224
-0.254104 0.809766 -0.105107 203 148 43 0.983808 0.000000 0.179224
-0.437888 1.000000 -0.077261 203 148 43 0.000000 1.000000 0.000000
-0.476713 0.772482 -0.082394 203 148 43 -0.998197 0.000000 -0.060025
-0.323243 1.000000 0.109821 203 148 43 0.000000 1.000000 0.000000
-0.302540 0.770956 0.149494 203 148 43 0.000000 -1.000000 0.000000
-0.406901 1.000000 0.047771 203 148 43 0.000000 1.000000 0.000000
-0.449799 0.770956 0.016480 203 148 43 0.000000 -1.000000 0.000000
-0.461992 0.778071 -0.162583 203 148 43 -0.955241 0.000000 -0.295828
-0.238538 0.939442 0.145694 203 148 43 0.955255 0.000000 -0.295783
-0.303924 0.770956 -0.014835 203 148 43 0.000000 -1.000000 0.000000
-0.240131 0.930342 -0.151927 203 148 43 0.955255 0.000000 0.295783
-0.264914 0.799498 0.009927 203 148 43 0.998196 0.000000 -0.060040
-0.256990 0.899672 0.077887 203 148 43 0.983810 0.000000 -0.179214
-0.243031 0.827787 0.131182 203 148 43 0.955255 0.000000 -0.295783
-0.469041 0.964220 -0.125352 203 148 43 -0.983809 0.000000 -0.179221
-0.244042 0.988634 -0.139297 203 148 43 0.955255 0.000000 0.295783
-0.471364 0.770956 -0.010995 203 148 43 0.000000 -1.000000 0.000000
-0.264140 0.794750 -0.034176 203 148 43 0.998196 0.000000 0.060036
-0.259703 0.954432 0.062995 203 148 43 0.983810 0.000000 -0.179214
-0.293531 1.000000 0.117616 203 148 43 0.000000 1.000000 0.000000
-0.476973 0.817696 0.066702 203 148 43 -0.998197 0.000000 0.060023
-0.474863 0.923352 0.082015 203 148 43 -0.983808 0.000000 0.179228
-0.431014 1.000000 -0.149453 203 148 43 0.000000 1.000000 0.000000
-0.434691 0.770956 0.155318 203 148 43 0.000000 -1.000000 0.000000
-0.479985 0.862400 -0.027994 203 148 43 -0.998197 0.000000 -0.060025
-0.477970 0.830365 0.050130 203 148 43 -0.998197 0.000000 0.060023
-0.480657 0.830901 -0.016812 203 148 43 -0.998197 0.000000 -0.060025
-0.254007 0.887198 0.094261 203 148 43 0.983810 0.000000 -0.179214
-0.470688 0.796985 0.104932 203 148 43 -0.983808 0.000000 0.179228
-0.263667 0.849682 0.030663 203 148 43 0.998196 0.000000 -0.060040
-0.480517 0.996604 0.007759 203 148 43 -0.998197 0.000000 0.060023
-0.242902 0.989612 0.131599 203 148 43 0.955255 0.000000 -0.295783
-0.478700 0.792243 -0.049361 203 148 43 -0.998197 0.000000 -0.060025
-0.239959 0.900576 -0.152481 203 148 43 0.955255 0.000000 0.295783
-0.343880 0.770956 -0.118705 203 148 43 0.000000 -1.000000 0.000000
-0.468678 0.931426 0.115969 203 148 43 -0.983808 0.000000 0.179228
-0.251090 0.811376 -0.116532 203 148 43 0.955255 0.000000 0.295783
-0.244688 0.798572 0.125832 203 148 43 0.955255 0.000000 -0.295783
-0.462787 0.797554 -0.159682 203 148 43 -0.983809 0.000000 -0.179221
-0.476773 0.955937 -0.081409 203 148 43 -0.998197 0.000000 -0.060025
-0.477608 0.840414 -0.067513 203 148 43 -0.998197 0.000000 -0.060025
-0.394477 1.000000 -0.133634 203 148 43 0.000000 1.000000 0.000000
-0.260575 0.801611 0.058207 203 148 43 0.983810 0.000000 -0.179214
-0.290393 0.770956 -0.143646 203 148 43 0.000000 -1.000000 0.000000
-0.261069 0.870971 -0.066874 203 148 43 0.983808 0.000000 0.179224
-0.264740 0.885498 0.012811 203 148 43 0.998196 0.000000 -0.060040
-0.459192 0.770956 -0.084004 203 148 43 0.000000 -1.000000 0.000000
-0.480647 0.878240 0.005605 203 148 43 -0.998197 0.000000 0.060023
-0.481229 0.831672 -0.007298 203 148 43 -0.998197 0.000000 -0.060025
-0.263009 0.994902 -0.052967 203 148 43 0.998196 0.000000 0.060036
-0.281470 1.000000 0.139127 203 148 43 0.000000 1.000000 0.000000
-0.258365 0.803390 0.070337 203 148 43 0.983810 0.000000 -0.179214
-0.354860 1.000000 -0.058419 203 148 43 0.000000 1.000000 0.000000
-0.419526 1.000000 -0.152270 203 148 43 0.000000 1.000000 0.000000
-0.260252 0.785138 -0.071361 203 148 43 0.983808 0.000000 0.179224
-0.235392 0.862866 0.153356 203 148 43 0.912885 0.000000 -0.408216
-0.468256 0.922297 -0.129661 203 148 43 -0.983809 0.000000 -0.179221
-0.253127 0.832978 -0.109956 203 148 43 0.955255 0.000000 0.295783
-0.474023 0.820172 -0.098006 203 148 43 -0.983809 0.000000 -0.179221
-0.459435 1.000000 -0.140560 203 148 43 0.000000 1.000000 0.000000
-0.403427 1.000000 0.033569 203 148 43 0.000000 1.000000 0.000000
-0.264370 0.852505 0.018964 203 148 43 0.998196 0.000000 -0.060040
-0.406024 1.000000 0.111525 203 148 43 0.000000 1.000000 0.000000
-0.474393 0.970182 -0.095971 203 148 43 -0.983809 0.000000 -0.179221
-0.276039 1.000000 -0.036197 203 148 43 0.000000 1.000000 0.000000
-0.369074 0.770956 -0.034962 203 148 43 0.000000 -1.000000 0.000000
-0.291285 0.770956 0.083638 203 148 43 0.000000 -1.000000 0.000000
-0.325735 1.000000 0.151210 203 148 43 0.000000 1.000000 0.000000
