ply
format ascii 1.0
element vertex 720
property float x
property float y
property float z
property uchar red
property uchar green
property uchar blue
property float nx
property float ny
property float nz
end_header
-0.075446 -0.048046 -0.337856 23 91 33 0.000000 1.000000 0.000000
-0.015112 -0.048046 -0.065905 23 91 33 0.000000 1.000000 0.000000
-0.256880 -0.069207 -0.169532 23 91 33 0.000000 -1.000000 0.000000
-0.326631 -0.069207 -0.333859 23 91 33 0.000000 -1.000000 0.000000
-0.133035 -0.048046 -0.369826 23 91 33 0.000000 1.000000 0.000000
0.033578 -0.069207 -0.213830 23 91 33 0.000000 -1.000000 0.000000
-0.162419 -0.005720 -0.192565 23 91 33 0.000000 1.000000 0.000000
-0.133911 -0.005720 -0.025278 23 91 33 0.000000 1.000000 0.000000
-0.292023 -0.069207 -0.270889 23 91 33 0.000000 -1.000000 0.000000
0.014140 -0.048046 -0.184331 23 91 33 0.000000 1.000000 0.000000
-0.029961 -0.005720 -0.067301 23 91 33 0.000000 1.000000 0.000000
-0.239080 -0.069207 -0.257974 23 91 33 0.000000 -1.000000 0.000000
-0.329036 -0.063810 -0.182756 23 91 33 -1.000000 0.000000 0.000000
-0.162439 -0.005720 -0.170856 23 91 33 0.000000 1.000000 0.000000
-0.062561 -0.069207 -0.381905 23 91 33 0.000000 -1.000000 0.000000
-0.085440 -0.048046 -0.095829 23 91 33 0.000000 1.000000 0.000000
-0.210877 -0.069207 -0.346387 23 91 33 0.000000 -1.000000 0.000000
0.052787 -0.069207 -0.147225 23 91 33 0.000000 -1.000000 0.000000
-0.126113 -0.048046 -0.195312 23 91 33 0.000000 1.000000 0.000000
-0.068645 -0.069207 -0.349541 23 91 33 0.000000 -1.000000 0.000000
-0.270538 -0.069207 -0.142416 23 91 33 0.000000 -1.000000 0.000000
-0.204029 -0.005720 -0.270050 23 91 33 0.000000 1.000000 0.000000
-0.103974 -0.005720 -0.294808 23 91 33 0.000000 1.000000 0.000000
0.036017 -0.005720 -0.326507 23 91 33 0.000000 1.000000 0.000000
-0.308128 -0.005720 -0.012534 23 91 33 0.000000 1.000000 0.000000
-0.047237 -0.005720 -0.186741 23 91 33 0.000000 1.000000 0.000000
-0.040863 -0.005720 -0.155357 23 91 33 0.000000 1.000000 0.000000
-0.300537 -0.069207 -0.342234 23 91 33 0.000000 -1.000000 0.000000
-0.074677 -0.005720 -0.040216 23 91 33 0.000000 1.000000 0.000000
-0.333343 -0.064119 -0.425118 23 91 33 -0.999903 0.013933 0.000000
0.044111 -0.005720 -0.293460 23 91 33 0.000000 1.000000 0.000000
0.011294 -0.069207 -0.153384 23 91 33 0.000000 -1.000000 0.000000
-0.013666 -0.005720 -0.089305 23 91 33 0.000000 1.000000 0.000000
0.042497 -0.069207 -0.219972 23 91 33 0.000000 -1.000000 0.000000
-0.062085 -0.069207 -0.287517 23 91 33 0.000000 -1.000000 0.000000
-0.266234 -0.048046 -0.075939 23 91 33 0.000000 1.000000 0.000000
-0.308874 -0.069207 -0.121945 23 91 33 0.000000 -1.000000 0.000000
-0.329036 -0.010378 -0.111023 23 91 33 -1.000000 0.000000 0.000000
-0.233270 -0.048046 -0.280393 23 91 33 0.000000 1.000000 0.000000
-0.202120 -0.069207 -0.044635 23 91 33 0.000000 -1.000000 0.000000
-0.329036 -0.058443 -0.288293 23 91 33 -1.000000 0.000000 0.000000
-0.182347 -0.069207 -0.194074 23 91 33 0.000000 -1.000000 0.000000
-0.314256 -0.005720 -0.178834 23 91 33 0.000000 1.000000 0.000000
-0.092100 -0.048046 -0.162200 23 91 33 0.000000 1.000000 0.000000
-0.217960 -0.069207 -0.056674 23 91 33 0.000000 -1.000000 0.000000
-0.007799 -0.048046 -0.221517 23 91 33 0.000000 1.000000 0.000000
-0.252831 -0.005720 -0.248077 23 91 33 0.000000 1.000000 0.000000
0.035872 -0.005720 -0.197175 23 91 33 0.000000 1.000000 0.000000
-0.208641 -0.035177 -0.414783 23 91 33 0.000000 0.000000 -1.000000
-0.329036 -0.069047 -0.187092 23 91 33 -1.000000 0.000000 0.000000
0.010196 -0.005720 -0.003264 23 91 33 0.000000 1.000000 0.000000
-0.069350 -0.069207 -0.082974 23 91 33 0.000000 -1.000000 0.000000
-0.240687 -0.069207 -0.165658 23 91 33 0.000000 -1.000000 0.000000
-0.033673 -0.048046 -0.044985 23 91 33 0.000000 1.000000 0.000000
-0.088804 -0.069207 -0.269896 23 91 33 0.000000 -1.000000 0.000000
-0.033729 -0.005720 -0.241285 23 91 33 0.000000 1.000000 0.000000
-0.000952 -0.069207 -0.406625 23 91 33 0.000000 -1.000000 0.000000
-0.124625 -0.005720 -0.373735 23 91 33 0.000000 1.000000 0.000000
-0.225969 -0.015536 -0.414783 23 91 33 0.000000 0.000000 -1.000000
-0.322707 -0.069207 -0.171497 23 91 33 0.000000 -1.000000 0.000000
0.057010 -0.005720 -0.281827 23 91 33 0.000000 1.000000 0.000000
-0.277115 -0.069207 -0.020511 23 91 33 0.000000 -1.000000 0.000000
-0.329036 -0.033568 -0.304348 23 91 33 -1.000000 0.000000 0.000000
-0.182431 -0.058322 -0.414783 23 91 33 0.000000 0.000000 -1.000000
0.031322 -0.005720 -0.231680 23 91 33 0.000000 1.000000 0.000000
0.033743 -0.048046 -0.376707 23 91 33 0.000000 1.000000 0.000000
-0.179736 -0.069207 -0.091211 23 91 33 0.000000 -1.000000 0.000000
-0.145924 -0.005720 -0.387414 23 91 33 0.000000 1.000000 0.000000
-0.279928 -0.069207 -0.039106 23 91 33 0.000000 -1.000000 0.000000
-0.274960 -0.005720 -0.228832 23 91 33 0.000000 1.000000 0.000000
-0.061968 -0.069207 -0.071782 23 91 33 0.000000 -1.000000 0.000000
-0.009649 -0.069207 -0.281022 23 91 33 0.000000 -1.000000 0.000000
0.053757 -0.005720 -0.069256 23 91 33 0.000000 1.000000 0.000000
-0.329036 -0.035015 -0.242419 23 91 33 -1.000000 0.000000 0.000000
-0.239335 -0.005720 -0.042202 23 91 33 0.000000 1.000000 0.000000
-0.291058 -0.069207 -0.330519 23 91 33 0.000000 -1.000000 0.000000
0.014055 -0.048046 -0.146846 23 91 33 0.000000 1.000000 0.000000
0.028608 -0.005720 -0.109585 23 91 33 0.000000 1.000000 0.000000
0.061094 -0.069207 -0.294996 23 91 33 0.000000 -1.000000 0.000000
-0.260211 -0.005720 -0.288117 23 91 33 0.000000 1.000000 0.000000
-0.109835 -0.069207 -0.156863 23 91 33 0.000000 -1.000000 0.000000
0.012125 -0.005720 -0.326715 23 91 33 0.000000 1.000000 0.000000
-0.016125 -0.069207 -0.235235 23 91 33 0.000000 -1.000000 0.000000
0.043625 -0.069207 -0.187776 23 91 33 0.000000 -1.000000 0.000000
0.035286 -0.014530 -0.414783 23 91 33 0.000000 0.000000 -1.000000
-0.183661 -0.043113 -0.414783 23 91 33 0.000000 0.000000 -1.000000
-0.228483 -0.005720 -0.280825 23 91 33 0.000000 1.000000 0.000000
-0.014070 -0.048046 -0.376315 23 91 33 0.000000 1.000000 0.000000
-0.150595 -0.005720 -0.373744 23 91 33 0.000000 1.000000 0.000000
0.011020 -0.048046 -0.267798 23 91 33 0.000000 1.000000 0.000000
-0.176215 -0.048046 -0.333263 23 91 33 0.000000 1.000000 0.000000
-0.329036 -0.023789 -0.044909 23 91 33 -1.000000 0.000000 0.000000
-0.329036 -0.014593 -0.274622 23 91 33 -1.000000 0.000000 0.000000
-0.179150 -0.005720 -0.258022 23 91 33 0.000000 1.000000 0.000000
-0.097979 -0.005720 -0.128272 23 91 33 0.000000 1.000000 0.000000
-0.229962 -0.048046 -0.030130 23 91 33 0.000000 1.000000 0.000000
-0.213710 -0.048046 -0.153966 23 91 33 0.000000 1.000000 0.000000
-0.010758 -0.048046 -0.283141 23 91 33 0.000000 1.000000 0.000000
-0.026515 -0.054264 -0.414783 23 91 33 0.000000 0.000000 -1.000000
-0.110041 -0.069207 -0.263231 23 91 33 0.000000 -1.000000 0.000000
-0.124118 -0.005720 -0.057792 23 91 33 0.000000 1.000000 0.000000
-0.124631 -0.065391 -0.414783 23 91 33 0.000000 0.000000 -1.000000
0.012132 -0.069207 -0.018431 23 91 33 0.000000 -1.000000 0.000000
-0.325332 -0.069207 -0.137526 23 91 33 0.000000 -1.000000 0.000000
-0.060205 -0.005720 -0.121524 23 91 33 0.000000 1.000000 0.000000
-0.157475 -0.069207 -0.141602 23 91 33 0.000000 -1.000000 0.000000
-0.050424 -0.005720 -0.018692 23 91 33 0.000000 1.000000 0.000000
-0.300066 -0.005720 -0.323204 23 91 33 0.000000 1.000000 0.000000
-0.312382 -0.069207 -0.205941 23 91 33 0.000000 -1.000000 0.000000
-0.027731 -0.048046 -0.351631 23 91 33 0.000000 1.000000 0.000000
-0.070408 -0.005720 -0.306554 23 91 33 0.000000 1.000000 0.000000
-0.119621 -0.048046 -0.362728 23 91 33 0.000000 1.000000 0.000000
-0.139627 -0.005720 -0.005897 23 91 33 0.000000 1.000000 0.000000
-0.109629 -0.005720 -0.215194 23 91 33 0.000000 1.000000 0.000000
-0.208705 -0.005720 -0.315165 23 91 33 0.000000 1.000000 0.000000
0.041369 -0.069207 -0.273562 23 91 33 0.000000 -1.000000 0.000000
-0.142993 -0.069207 -0.325929 23 91 33 0.000000 -1.000000 0.000000
-0.073102 -0.069207 -0.263612 23 91 33 0.000000 -1.000000 0.000000
0.011831 -0.069207 -0.127572 23 91 33 0.000000 -1.000000 0.000000
-0.221449 -0.005720 -0.281737 23 91 33 0.000000 1.000000 0.000000
-0.279127 -0.048046 -0.318479 23 91 33 0.000000 1.000000 0.000000
-0.329036 -0.066144 -0.040130 23 91 33 -1.000000 0.000000 0.000000
-0.065358 -0.069207 -0.226955 23 91 33 0.000000 -1.000000 0.000000
-0.329036 -0.039899 -0.130963 23 91 33 -1.000000 0.000000 0.000000
0.001411 -0.005720 -0.297670 23 91 33 0.000000 1.000000 0.000000
-0.216255 -0.069207 -0.224251 23 91 33 0.000000 -1.000000 0.000000
-0.297698 -0.069207 -0.287136 23 91 33 0.000000 -1.000000 0.000000
-0.070862 -0.069207 -0.333025 23 91 33 0.000000 -1.000000 0.000000
-0.039452 -0.060867 -0.414783 23 91 33 0.000000 0.000000 -1.000000
-0.051920 -0.005720 -0.140364 23 91 33 0.000000 1.000000 0.000000
-0.251874 -0.069207 -0.175813 23 91 33 0.000000 -1.000000 0.000000
-0.317159 -0.005720 -0.321915 23 91 33 0.000000 1.000000 0.000000
-0.163254 -0.069207 -0.119904 23 91 33 0.000000 -1.000000 0.000000
0.053685 -0.043240 -0.414783 23 91 33 0.000000 0.000000 -1.000000
-0.312290 -0.005720 -0.229407 23 91 33 0.000000 1.000000 0.000000
-0.139548 -0.005720 -0.116335 23 91 33 0.000000 1.000000 0.000000
-0.329036 -0.031671 -0.166195 23 91 33 -1.000000 0.000000 0.000000
-0.305847 -0.005720 -0.126943 23 91 33 0.000000 1.000000 0.000000
-0.072119 -0.048046 -0.330991 23 91 33 0.000000 1.000000 0.000000
-0.079715 -0.005720 -0.286107 23 91 33 0.000000 1.000000 0.000000
-0.265024 -0.069207 -0.124087 23 91 33 0.000000 -1.000000 0.000000
0.057929 -0.069207 -0.329359 23 91 33 0.000000 -1.000000 0.000000
-0.067395 -0.069207 -0.010925 23 91 33 0.000000 -1.000000 0.000000
-0.252147 -0.069207 -0.280345 23 91 33 0.000000 -1.000000 0.000000
-0.247037 -0.069207 -0.250093 23 91 33 0.000000 -1.000000 0.000000
-0.148407 -0.069207 -0.170736 23 91 33 0.000000 -1.000000 0.000000
-0.119556 -0.069207 -0.162210 23 91 33 0.000000 -1.000000 0.000000
-0.073987 -0.005720 -0.394324 23 91 33 0.000000 1.000000 0.000000
-0.311320 -0.069207 -0.263096 23 91 33 0.000000 -1.000000 0.000000
0.057530 -0.069207 -0.179202 23 91 33 0.000000 -1.000000 0.000000
-0.054034 -0.069207 -0.020989 23 91 33 0.000000 -1.000000 0.000000
-0.007188 -0.048046 -0.228403 23 91 33 0.000000 1.000000 0.000000
-0.214964 -0.048046 -0.285221 23 91 33 0.000000 1.000000 0.000000
-0.018612 -0.005720 -0.355792 23 91 33 0.000000 1.000000 0.000000
-0.238597 -0.069207 -0.265665 23 91 33 0.000000 -1.000000 0.000000
-0.290085 -0.048046 -0.153588 23 91 33 0.000000 1.000000 0.000000
-0.221857 -0.005720 -0.353565 23 91 33 0.000000 1.000000 0.000000
0.010507 -0.069207 -0.174128 23 91 33 0.000000 -1.000000 0.000000
-0.093681 -0.048046 -0.330571 23 91 33 0.000000 1.000000 0.000000
-0.329036 -0.035552 -0.352192 23 91 33 -1.000000 0.000000 0.000000
-0.073238 -0.005720 -0.083512 23 91 33 0.000000 1.000000 0.000000
-0.017358 -0.069207 -0.147603 23 91 33 0.000000 -1.000000 0.000000
-0.332702 -0.018038 -0.384852 23 91 33 -0.999903 0.013933 0.000000
0.011901 -0.005720 -0.283594 23 91 33 0.000000 1.000000 0.000000
0.035995 -0.069207 -0.225213 23 91 33 0.000000 -1.000000 0.000000
-0.106591 -0.048046 -0.278943 23 91 33 0.000000 1.000000 0.000000
-0.028359 -0.005720 -0.317086 23 91 33 0.000000 1.000000 0.000000
-0.054443 -0.069207 -0.322963 23 91 33 0.000000 -1.000000 0.000000
-0.102288 -0.068882 -0.414783 23 91 33 0.000000 0.000000 -1.000000
-0.295765 -0.069207 -0.087430 23 91 33 0.000000 -1.000000 0.000000
-0.148781 -0.033660 -0.414783 23 91 33 0.000000 0.000000 -1.000000
-0.060962 -0.048046 -0.039526 23 91 33 0.000000 1.000000 0.000000
-0.076869 -0.069207 -0.226634 23 91 33 0.000000 -1.000000 0.000000
-0.057661 -0.005720 -0.266041 23 91 33 0.000000 1.000000 0.000000
-0.329036 -0.046880 -0.126910 23 91 33 -1.000000 0.000000 0.000000
-0.007833 -0.048046 -0.265841 23 91 33 0.000000 1.000000 0.000000
-0.293766 -0.069207 -0.237115 23 91 33 0.000000 -1.000000 0.000000
-0.155908 -0.005720 -0.243313 23 91 33 0.000000 1.000000 0.000000
-0.101209 -0.048046 -0.149919 23 91 33 0.000000 1.000000 0.000000
-0.124367 -0.048046 -0.106239 23 91 33 0.000000 1.000000 0.000000
-0.042754 -0.069207 -0.378164 23 91 33 0.000000 -1.000000 0.000000
-0.267696 -0.069207 -0.348879 23 91 33 0.000000 -1.000000 0.000000
-0.197338 -0.065595 -0.414783 23 91 33 0.000000 0.000000 -1.000000
-0.072993 -0.005720 -0.392436 23 91 33 0.000000 1.000000 0.000000
-0.183524 -0.048046 -0.328046 23 91 33 0.000000 1.000000 0.000000
-0.054219 -0.005720 -0.003425 23 91 33 0.000000 1.000000 0.000000
-0.281596 -0.069207 -0.125033 23 91 33 0.000000 -1.000000 0.000000
-0.131313 -0.005720 -0.337001 23 91 33 0.000000 1.000000 0.000000
-0.151337 -0.048046 -0.032926 23 91 33 0.000000 1.000000 0.000000
-0.168597 -0.069207 -0.270337 23 91 33 0.000000 -1.000000 0.000000
-0.282863 -0.069207 -0.217642 23 91 33 0.000000 -1.000000 0.000000
-0.171435 -0.005720 -0.156535 23 91 33 0.000000 1.000000 0.000000
-0.229002 -0.045252 -0.414783 23 91 33 0.000000 0.000000 -1.000000
-0.204648 -0.048046 -0.189239 23 91 33 0.000000 1.000000 0.000000
0.046866 -0.048046 -0.131348 23 91 33 0.000000 1.000000 0.000000
-0.049768 -0.051144 -0.414783 23 91 33 0.000000 0.000000 -1.000000
-0.329036 -0.053824 -0.116440 23 91 33 -1.000000 0.000000 0.000000
-0.219526 -0.048046 -0.122694 23 91 33 0.000000 1.000000 0.000000
-0.057596 -0.048046 -0.007493 23 91 33 0.000000 1.000000 0.000000
-0.015902 -0.048046 -0.124881 23 91 33 0.000000 1.000000 0.000000
-0.329036 -0.034030 -0.363668 23 91 33 -1.000000 0.000000 0.000000
-0.155852 -0.048046 -0.326041 23 91 33 0.000000 1.000000 0.000000
-0.153273 -0.069207 -0.352622 23 91 33 0.000000 -1.000000 0.000000
-0.110620 -0.005720 -0.384548 23 91 33 0.000000 1.000000 0.000000
-0.184075 -0.048046 -0.328136 23 91 33 0.000000 1.000000 0.000000
-0.090248 -0.048046 -0.128821 23 91 33 0.000000 1.000000 0.000000
-0.211568 -0.005720 -0.147216 23 91 33 0.000000 1.000000 0.000000
0.033016 -0.005720 -0.346945 23 91 33 0.000000 1.000000 0.000000
-0.212267 -0.005720 -0.248817 23 91 33 0.000000 1.000000 0.000000
-0.035522 -0.069207 -0.073264 23 91 33 0.000000 -1.000000 0.000000
0.031330 -0.005720 -0.065433 23 91 33 0.000000 1.000000 0.000000
-0.269343 -0.059061 -0.435944 23 91 33 0.000000 0.000000 -1.000000
-0.164884 -0.048046 -0.023521 23 91 33 0.000000 1.000000 0.000000
-0.238344 -0.048046 -0.170278 23 91 33 0.000000 1.000000 0.000000
-0.262084 -0.069207 -0.041427 23 91 33 0.000000 -1.000000 0.000000
-0.265891 -0.030160 -0.415875 23 91 33 0.999903 -0.013896 0.000000
-0.211405 -0.048046 -0.199193 23 91 33 0.000000 1.000000 0.000000
-0.080353 -0.048046 -0.001440 23 91 33 0.000000 1.000000 0.000000
0.062073 -0.069207 -0.000266 23 91 33 0.000000 -1.000000 0.000000
-0.213500 -0.005720 -0.002869 23 91 33 0.000000 1.000000 0.000000
-0.332632 -0.013024 -0.402511 23 91 33 -0.999903 0.013933 0.000000
-0.107423 -0.048046 -0.135477 23 91 33 0.000000 1.000000 0.000000
-0.302364 -0.069207 -0.129502 23 91 33 0.000000 -1.000000 0.000000
0.027704 -0.005720 -0.325754 23 91 33 0.000000 1.000000 0.000000
0.018770 -0.069207 -0.045201 23 91 33 0.000000 -1.000000 0.000000
0.024966 -0.005720 -0.300475 23 91 33 0.000000 1.000000 0.000000
0.052480 -0.005720 -0.244478 23 91 33 0.000000 1.000000 0.000000
-0.087478 -0.069207 -0.245045 23 91 33 0.000000 -1.000000 0.000000
-0.119510 -0.069207 -0.094749 23 91 33 0.000000 -1.000000 0.000000
-0.208135 -0.048046 -0.354089 23 91 33 0.000000 1.000000 0.000000
-0.102044 -0.005720 -0.301384 23 91 33 0.000000 1.000000 0.000000
-0.163046 -0.005720 -0.375707 23 91 33 0.000000 1.000000 0.000000
-0.106082 -0.048046 -0.102949 23 91 33 0.000000 1.000000 0.000000
0.018857 -0.048046 -0.072131 23 91 33 0.000000 1.000000 0.000000
-0.193435 -0.048046 -0.118051 23 91 33 0.000000 1.000000 0.000000
-0.186991 -0.005720 -0.246770 23 91 33 0.000000 1.000000 0.000000
-0.128684 -0.005720 -0.223032 23 91 33 0.000000 1.000000 0.000000
-0.021387 -0.005720 -0.086175 23 91 33 0.000000 1.000000 0.000000
-0.280466 -0.005720 -0.148887 23 91 33 0.000000 1.000000 0.000000
-0.021859 -0.069207 -0.100570 23 91 33 0.000000 -1.000000 0.000000
-0.042772 -0.069207 -0.130366 23 91 33 0.000000 -1.000000 0.000000
-0.198114 -0.005720 -0.412452 23 91 33 0.000000 1.000000 0.000000
0.011911 -0.005720 -0.344232 23 91 33 0.000000 1.000000 0.000000
-0.024783 -0.048046 -0.337514 23 91 33 0.000000 1.000000 0.000000
-0.278336 -0.048046 -0.334418 23 91 33 0.000000 1.000000 0.000000
-0.269801 -0.069207 -0.169969 23 91 33 0.000000 -1.000000 0.000000
-0.155461 -0.048046 -0.270518 23 91 33 0.000000 1.000000 0.000000
-0.141913 -0.005720 -0.378039 23 91 33 0.000000 1.000000 0.000000
-0.291965 -0.059344 -0.190985 23 91 33 -1.000000 0.000000 0.000000
0.023697 -0.005720 -0.110656 23 91 33 0.000000 1.000000 0.000000
-0.257396 -0.048046 -0.264624 23 91 33 0.000000 1.000000 0.000000
-0.217521 -0.035738 -0.414783 23 91 33 0.000000 0.000000 -1.000000
-0.060813 -0.069207 -0.015842 23 91 33 0.000000 -1.000000 0.000000
-0.093109 -0.005720 -0.254668 23 91 33 0.000000 1.000000 0.000000
-0.186330 -0.048046 -0.148051 23 91 33 0.000000 1.000000 0.000000
0.058599 -0.069207 -0.290480 23 91 33 0.000000 -1.000000 0.000000
0.059555 -0.069207 -0.025288 23 91 33 0.000000 -1.000000 0.000000
-0.327441 -0.069207 -0.021969 23 91 33 0.000000 -1.000000 0.000000
-0.273016 -0.005720 -0.295980 23 91 33 0.000000 1.000000 0.000000
-0.212162 -0.005720 -0.076884 23 91 33 0.000000 1.000000 0.000000
-0.257530 -0.005720 -0.399876 23 91 33 0.000000 1.000000 0.000000
-0.105104 -0.005720 -0.180760 23 91 33 0.000000 1.000000 0.000000
-0.163972 -0.069207 -0.190163 23 91 33 0.000000 -1.000000 0.000000
-0.265148 -0.005720 -0.260521 23 91 33 0.000000 1.000000 0.000000
0.021544 -0.069207 -0.164352 23 91 33 0.000000 -1.000000 0.000000
-0.109006 -0.005720 -0.403721 23 91 33 0.000000 1.000000 0.000000
-0.193000 -0.005720 -0.022987 23 91 33 0.000000 1.000000 0.000000
-0.031681 -0.069207 -0.379009 23 91 33 0.000000 -1.000000 0.000000
-0.329036 -0.064057 -0.193148 23 91 33 -1.000000 0.000000 0.000000
0.047608 -0.048046 -0.358815 23 91 33 0.000000 1.000000 0.000000
-0.219768 -0.005720 -0.262577 23 91 33 0.000000 1.000000 0.000000
-0.116084 -0.005720 -0.008826 23 91 33 0.000000 1.000000 0.000000
-0.223478 -0.069207 -0.037230 23 91 33 0.000000 -1.000000 0.000000
-0.291965 -0.059274 -0.364961 23 91 33 -1.000000 0.000000 0.000000
-0.198991 -0.057368 -0.414783 23 91 33 0.000000 0.000000 -1.000000
0.041009 -0.069207 -0.283661 23 91 33 0.000000 -1.000000 0.000000
-0.064010 -0.069207 -0.226260 23 91 33 0.000000 -1.000000 0.000000
-0.103349 -0.069207 -0.144124 23 91 33 0.000000 -1.000000 0.000000
-0.328146 -0.005720 -0.247909 23 91 33 0.000000 1.000000 0.000000
-0.020022 -0.048046 -0.208989 23 91 33 0.000000 1.000000 0.000000
0.015072 -0.005720 -0.320312 23 91 33 0.000000 1.000000 0.000000
-0.243637 -0.069207 -0.216953 23 91 33 0.000000 -1.000000 0.000000
-0.106138 -0.069207 -0.103104 23 91 33 0.000000 -1.000000 0.000000
0.023982 -0.048046 -0.314310 23 91 33 0.000000 1.000000 0.000000
-0.329036 -0.058040 -0.347740 23 91 33 -1.000000 0.000000 0.000000
-0.266434 -0.048046 -0.263021 23 91 33 0.000000 1.000000 0.000000
-0.235092 -0.005720 -0.208555 23 91 33 0.000000 1.000000 0.000000
0.026420 -0.048046 -0.328961 23 91 33 0.000000 1.000000 0.000000
-0.266230 -0.054581 -0.374272 23 91 33 0.999903 -0.013896 0.000000
-0.113291 -0.048046 -0.295696 23 91 33 0.000000 1.000000 0.000000
-0.182858 -0.048046 -0.178788 23 91 33 0.000000 1.000000 0.000000
-0.116044 -0.048046 -0.110128 23 91 33 0.000000 1.000000 0.000000
-0.002364 -0.048046 -0.032425 23 91 33 0.000000 1.000000 0.000000
-0.034653 -0.048046 -0.013805 23 91 33 0.000000 1.000000 0.000000
-0.065543 -0.012298 -0.414783 23 91 33 0.000000 0.000000 -1.000000
-0.307596 -0.069207 -0.112352 23 91 33 0.000000 -1.000000 0.000000
-0.084694 -0.005720 -0.063080 23 91 33 0.000000 1.000000 0.000000
-0.251481 -0.005720 -0.029117 23 91 33 0.000000 1.000000 0.000000
0.023421 -0.048046 -0.147381 23 91 33 0.000000 1.000000 0.000000
-0.106900 -0.048046 -0.054391 23 91 33 0.000000 1.000000 0.000000
-0.273337 -0.048046 -0.263993 23 91 33 0.000000 1.000000 0.000000
-0.147697 -0.048046 -0.042824 23 91 33 0.000000 1.000000 0.000000
-0.051963 -0.049473 -0.414783 23 91 33 0.000000 0.000000 -1.000000
0.010863 -0.048046 -0.339440 23 91 33 0.000000 1.000000 0.000000
-0.010447 -0.005720 -0.092880 23 91 33 0.000000 1.000000 0.000000
-0.083068 -0.048046 -0.055257 23 91 33 0.000000 1.000000 0.000000
0.049844 -0.005720 -0.132158 23 91 33 0.000000 1.000000 0.000000
-0.329036 -0.065754 -0.244642 23 91 33 -1.000000 0.000000 0.000000
-0.137926 -0.048046 -0.088470 23 91 33 0.000000 1.000000 0.000000
-0.143859 -0.005720 -0.222246 23 91 33 0.000000 1.000000 0.000000
-0.081184 -0.069207 -0.141469 23 91 33 0.000000 -1.000000 0.000000
-0.311065 -0.005720 -0.127777 23 91 33 0.000000 1.000000 0.000000
-0.297060 -0.005720 -0.362478 23 91 33 0.000000 1.000000 0.000000
-0.124930 -0.048046 -0.312024 23 91 33 0.000000 1.000000 0.000000
-0.105425 -0.048046 -0.150598 23 91 33 0.000000 1.000000 0.000000
-0.260434 -0.069207 -0.144740 23 91 33 0.000000 -1.000000 0.000000
-0.266327 -0.061570 -0.371516 23 91 33 0.999903 -0.013896 0.000000
-0.211873 -0.005720 -0.184291 23 91 33 0.000000 1.000000 0.000000
-0.071237 -0.005720 -0.045757 23 91 33 0.000000 1.000000 0.000000
-0.184013 -0.069207 -0.159561 23 91 33 0.000000 -1.000000 0.000000
-0.329036 -0.036032 -0.252673 23 91 33 -1.000000 0.000000 0.000000
-0.100106 -0.069207 -0.161952 23 91 33 0.000000 -1.000000 0.000000
-0.206199 -0.005720 -0.385789 23 91 33 0.000000 1.000000 0.000000
-0.139193 -0.069207 -0.170432 23 91 33 0.000000 -1.000000 0.000000
-0.231389 -0.005720 -0.326138 23 91 33 0.000000 1.000000 0.000000
-0.329036 -0.050383 -0.279915 23 91 33 -1.000000 0.000000 0.000000
-0.271235 -0.005720 -0.323357 23 91 33 0.000000 1.000000 0.000000
-0.291965 -0.049663 -0.246987 23 91 33 -1.000000 0.000000 0.000000
0.019195 -0.048046 -0.164323 23 91 33 0.000000 1.000000 0.000000
-0.181021 -0.005720 -0.031503 23 91 33 0.000000 1.000000 0.000000
-0.255088 -0.005720 -0.410007 23 91 33 0.000000 1.000000 0.000000
-0.048724 -0.005720 -0.175167 23 91 33 0.000000 1.000000 0.000000
-0.235337 -0.048046 -0.036706 23 91 33 0.000000 1.000000 0.000000
-0.291965 -0.048863 -0.176024 23 91 33 -1.000000 0.000000 0.000000
-0.329036 -0.044476 -0.218066 23 91 33 -1.000000 0.000000 0.000000
0.023437 -0.048046 -0.177756 23 91 33 0.000000 1.000000 0.000000
-0.181436 -0.005720 -0.143006 23 91 33 0.000000 1.000000 0.000000
-0.065302 -0.048046 -0.025299 23 91 33 0.000000 1.000000 0.000000
-0.005655 -0.048046 -0.052301 23 91 33 0.000000 1.000000 0.000000
-0.090030 -0.005720 -0.070026 23 91 33 0.000000 1.000000 0.000000
-0.046511 -0.005720 -0.075670 23 91 33 0.000000 1.000000 0.000000
-0.180490 -0.069207 -0.155595 23 91 33 0.000000 -1.000000 0.000000
-0.106841 -0.064602 -0.414783 23 91 33 0.000000 0.000000 -1.000000
0.017496 -0.005720 -0.208217 23 91 33 0.000000 1.000000 0.000000
-0.012327 -0.005720 -0.333555 23 91 33 0.000000 1.000000 0.000000
0.061675 -0.005720 -0.092434 23 91 33 0.000000 1.000000 0.000000
-0.164238 -0.005720 -0.183609 23 91 33 0.000000 1.000000 0.000000
-0.329036 -0.038198 -0.072354 23 91 33 -1.000000 0.000000 0.000000
-0.258756 -0.005720 -0.286608 23 91 33 0.000000 1.000000 0.000000
-0.158916 -0.048046 -0.153978 23 91 33 0.000000 1.000000 0.000000
-0.154869 -0.069207 -0.255336 23 91 33 0.000000 -1.000000 0.000000
-0.291965 -0.053010 -0.167777 23 91 33 -1.000000 0.000000 0.000000
0.008468 -0.069207 -0.371430 23 91 33 0.000000 -1.000000 0.000000
0.062198 -0.069207 -0.370620 23 91 33 0.000000 -1.000000 0.000000
-0.007051 -0.069207 -0.116202 23 91 33 0.000000 -1.000000 0.000000
0.010499 -0.048046 -0.344562 23 91 33 0.000000 1.000000 0.000000
0.038773 -0.005720 -0.370020 23 91 33 0.000000 1.000000 0.000000
-0.303395 -0.069207 -0.218857 23 91 33 0.000000 -1.000000 0.000000
-0.260250 -0.069207 -0.002388 23 91 33 0.000000 -1.000000 0.000000
-0.009486 -0.069207 -0.156758 23 91 33 0.000000 -1.000000 0.000000
-0.076681 -0.048046 -0.316619 23 91 33 0.000000 1.000000 0.000000
-0.242942 -0.069207 -0.079340 23 91 33 0.000000 -1.000000 0.000000
-0.234397 -0.048046 -0.014167 23 91 33 0.000000 1.000000 0.000000
-0.329036 -0.024088 -0.242231 23 91 33 -1.000000 0.000000 0.000000
-0.074915 -0.048046 -0.099291 23 91 33 0.000000 1.000000 0.000000
-0.052491 -0.005720 -0.182862 23 91 33 0.000000 1.000000 0.000000
-0.069774 -0.005720 -0.128187 23 91 33 0.000000 1.000000 0.000000
0.047155 -0.048046 -0.356359 23 91 33 0.000000 1.000000 0.000000
-0.233344 -0.069207 -0.240554 23 91 33 0.000000 -1.000000 0.000000
-0.059219 -0.069207 -0.348540 23 91 33 0.000000 -1.000000 0.000000
-0.042909 -0.048046 -0.189382 23 91 33 0.000000 1.000000 0.000000
-0.154174 -0.048046 -0.021858 23 91 33 0.000000 1.000000 0.000000
-0.101247 -0.048046 -0.030429 23 91 33 0.000000 1.000000 0.000000
0.043312 -0.069207 -0.129509 23 91 33 0.000000 -1.000000 0.000000
-0.265628 -0.000172 -0.432098 23 91 33 0.999903 0.013915 0.000000
-0.230799 -0.005720 -0.178194 23 91 33 0.000000 1.000000 0.000000
-0.294070 -0.069207 -0.350465 23 91 33 0.000000 -1.000000 0.000000
-0.208700 -0.005720 -0.066243 23 91 33 0.000000 1.000000 0.000000
-0.045347 -0.069207 -0.258447 23 91 33 0.000000 -1.000000 0.000000
-0.282032 -0.048046 -0.171891 23 91 33 0.000000 1.000000 0.000000
0.002005 -0.069207 -0.182962 23 91 33 0.000000 -1.000000 0.000000
-0.008557 -0.058450 -0.414783 23 91 33 0.000000 0.000000 -1.000000
-0.155868 -0.005720 -0.130162 23 91 33 0.000000 1.000000 0.000000
-0.286254 -0.069207 -0.366665 23 91 33 0.000000 -1.000000 0.000000
-0.012812 -0.048046 -0.118138 23 91 33 0.000000 1.000000 0.000000
-0.149890 -0.069207 -0.061711 23 91 33 0.000000 -1.000000 0.000000
-0.290708 -0.069207 -0.262339 23 91 33 0.000000 -1.000000 0.000000
0.015125 -0.005720 -0.188991 23 91 33 0.000000 1.000000 0.000000
-0.084251 -0.005720 -0.222101 23 91 33 0.000000 1.000000 0.000000
-0.033668 -0.005720 -0.171831 23 91 33 0.000000 1.000000 0.000000
-0.122371 -0.005720 -0.218199 23 91 33 0.000000 1.000000 0.000000
-0.219667 -0.048046 -0.251616 23 91 33 0.000000 1.000000 0.000000
-0.329036 -0.045679 -0.047984 23 91 33 -1.000000 0.000000 0.000000
0.062737 -0.048046 -0.235169 23 91 33 0.000000 1.000000 0.000000
0.047211 -0.048046 -0.144816 23 91 33 0.000000 1.000000 0.000000
-0.090093 -0.069207 -0.262462 23 91 33 0.000000 -1.000000 0.000000
-0.265866 -0.069207 -0.288431 23 91 33 0.000000 -1.000000 0.000000
-0.014808 -0.069207 -0.263803 23 91 33 0.000000 -1.000000 0.000000
0.002217 -0.048046 -0.203201 23 91 33 0.000000 1.000000 0.000000
-0.062905 -0.069207 -0.183773 23 91 33 0.000000 -1.000000 0.000000
-0.223648 -0.048046 -0.053413 23 91 33 0.000000 1.000000 0.000000
0.016278 -0.005720 -0.412361 23 91 33 0.000000 1.000000 0.000000
-0.081732 -0.048046 -0.287338 23 91 33 0.000000 1.000000 0.000000
-0.052928 -0.005720 -0.214163 23 91 33 0.000000 1.000000 0.000000
0.006410 -0.048046 -0.363329 23 91 33 0.000000 1.000000 0.000000
-0.174243 -0.069207 -0.239106 23 91 33 0.000000 -1.000000 0.000000
-0.202617 -0.048046 -0.182601 23 91 33 0.000000 1.000000 0.000000
0.041602 -0.005720 -0.339334 23 91 33 0.000000 1.000000 0.000000
-0.258847 -0.005720 -0.398873 23 91 33 0.000000 1.000000 0.000000
0.004098 -0.069207 -0.387116 23 91 33 0.000000 -1.000000 0.000000
-0.143763 -0.069207 -0.339482 23 91 33 0.000000 -1.000000 0.000000
-0.039891 -0.005720 -0.048856 23 91 33 0.000000 1.000000 0.000000
-0.160510 -0.005720 -0.079297 23 91 33 0.000000 1.000000 0.000000
-0.146782 -0.005720 -0.178067 23 91 33 0.000000 1.000000 0.000000
-0.204651 -0.005720 -0.274855 23 91 33 0.000000 1.000000 0.000000
-0.100740 -0.069207 -0.225893 23 91 33 0.000000 -1.000000 0.000000
-0.224033 -0.005720 -0.201086 23 91 33 0.000000 1.000000 0.000000
-0.018484 -0.048046 -0.096621 23 91 33 0.000000 1.000000 0.000000
0.015612 -0.069207 -0.235003 23 91 33 0.000000 -1.000000 0.000000
-0.038311 -0.005720 -0.220836 23 91 33 0.000000 1.000000 0.000000
-0.266006 -0.069207 -0.221030 23 91 33 0.000000 -1.000000 0.000000
-0.262596 -0.005720 -0.336132 23 91 33 0.000000 1.000000 0.000000
-0.183278 -0.069207 -0.095732 23 91 33 0.000000 -1.000000 0.000000
-0.113710 -0.069207 -0.370666 23 91 33 0.000000 -1.000000 0.000000
-0.078867 -0.005720 -0.130521 23 91 33 0.000000 1.000000 0.000000
-0.055683 -0.068339 -0.414783 23 91 33 0.000000 0.000000 -1.000000
0.047935 -0.069207 -0.321171 23 91 33 0.000000 -1.000000 0.000000
-0.005866 -0.069207 -0.124082 23 91 33 0.000000 -1.000000 0.000000
-0.266214 -0.053420 -0.375241 23 91 33 0.999903 -0.013896 0.000000
-0.048302 -0.048046 -0.161852 23 91 33 0.000000 1.000000 0.000000
-0.082740 -0.069207 -0.153715 23 91 33 0.000000 -1.000000 0.000000
-0.308867 -0.069207 -0.186249 23 91 33 0.000000 -1.000000 0.000000
-0.122916 -0.042003 -0.414783 23 91 33 0.000000 0.000000 -1.000000
-0.136518 -0.005720 -0.122161 23 91 33 0.000000 1.000000 0.000000
-0.010167 -0.048046 -0.073878 23 91 33 0.000000 1.000000 0.000000
-0.289049 -0.048046 -0.262751 23 91 33 0.000000 1.000000 0.000000
-0.246157 -0.055943 -0.414783 23 91 33 0.000000 0.000000 -1.000000
0.049196 -0.005720 -0.210026 23 91 33 0.000000 1.000000 0.000000
0.047836 -0.048046 -0.160973 23 91 33 0.000000 1.000000 0.000000
0.045978 -0.069207 -0.141720 23 91 33 0.000000 -1.000000 0.000000
-0.084930 -0.069207 -0.339202 23 91 33 0.000000 -1.000000 0.000000
-0.291965 -0.051495 -0.314102 23 91 33 -1.000000 0.000000 0.000000
-0.167195 -0.005720 -0.045158 23 91 33 0.000000 1.000000 0.000000
-0.096893 -0.069207 -0.402397 23 91 33 0.000000 -1.000000 0.000000
-0.286701 -0.069207 -0.087299 23 91 33 0.000000 -1.000000 0.000000
0.057601 -0.005720 -0.306187 23 91 33 0.000000 1.000000 0.000000
-0.160123 -0.048046 -0.373127 23 91 33 0.000000 1.000000 0.000000
-0.130012 -0.049667 -0.414783 23 91 33 0.000000 0.000000 -1.000000
-0.281555 -0.069207 -0.288993 23 91 33 0.000000 -1.000000 0.000000
-0.247148 -0.005720 -0.160112 23 91 33 0.000000 1.000000 0.000000
-0.014226 -0.069207 -0.293555 23 91 33 0.000000 -1.000000 0.000000
-0.049901 -0.005720 -0.414748 23 91 33 0.000000 1.000000 0.000000
-0.009826 -0.069207 -0.357566 23 91 33 0.000000 -1.000000 0.000000
-0.062520 -0.069207 -0.207429 23 91 33 0.000000 -1.000000 0.000000
-0.333418 -0.069481 -0.422008 23 91 33 -0.999903 0.013933 0.000000
-0.143785 -0.008236 -0.414783 23 91 33 0.000000 0.000000 -1.000000
-0.291965 -0.057133 -0.064401 23 91 33 -1.000000 0.000000 0.000000
-0.291965 -0.061376 -0.222306 23 91 33 -1.000000 0.000000 0.000000
-0.332627 -0.012674 -0.421770 23 91 33 -0.999903 0.013933 0.000000
0.032130 -0.005720 -0.048852 23 91 33 0.000000 1.000000 0.000000
0.011583 -0.005720 -0.160417 23 91 33 0.000000 1.000000 0.000000
-0.019552 -0.005720 -0.315184 23 91 33 0.000000 1.000000 0.000000
-0.065447 -0.048046 -0.035341 23 91 33 0.000000 1.000000 0.000000
-0.157576 -0.005720 -0.100816 23 91 33 0.000000 1.000000 0.000000
-0.171946 -0.048046 -0.126627 23 91 33 0.000000 1.000000 0.000000
-0.088028 -0.005720 -0.162115 23 91 33 0.000000 1.000000 0.000000
-0.176278 -0.069207 -0.077221 23 91 33 0.000000 -1.000000 0.000000
-0.329036 -0.030767 -0.253703 23 91 33 -1.000000 0.000000 0.000000
-0.037485 -0.005720 -0.316466 23 91 33 0.000000 1.000000 0.000000
-0.085543 -0.069207 -0.264219 23 91 33 0.000000 -1.000000 0.000000
-0.064961 -0.048046 -0.012848 23 91 33 0.000000 1.000000 0.000000
-0.068371 -0.069207 -0.400186 23 91 33 0.000000 -1.000000 0.000000
-0.149695 -0.005720 -0.278908 23 91 33 0.000000 1.000000 0.000000
-0.040089 -0.005720 -0.190106 23 91 33 0.000000 1.000000 0.000000
-0.128630 -0.048046 -0.257672 23 91 33 0.000000 1.000000 0.000000
-0.105509 -0.069207 -0.000131 23 91 33 0.000000 -1.000000 0.000000
-0.034053 -0.048046 -0.161149 23 91 33 0.000000 1.000000 0.000000
-0.312119 -0.069207 -0.316248 23 91 33 0.000000 -1.000000 0.000000
-0.245657 -0.069207 -0.264130 23 91 33 0.000000 -1.000000 0.000000
-0.168837 -0.069207 -0.269770 23 91 33 0.000000 -1.000000 0.000000
-0.007488 -0.069207 -0.099166 23 91 33 0.000000 -1.000000 0.000000
-0.228021 -0.048046 -0.135293 23 91 33 0.000000 1.000000 0.000000
-0.013666 -0.048046 -0.226585 23 91 33 0.000000 1.000000 0.000000
-0.285300 -0.048046 -0.338033 23 91 33 0.000000 1.000000 0.000000
0.058767 -0.005720 -0.030964 23 91 33 0.000000 1.000000 0.000000
-0.114226 -0.005720 -0.311663 23 91 33 0.000000 1.000000 0.000000
-0.071746 -0.005720 -0.270970 23 91 33 0.000000 1.000000 0.000000
-0.188440 -0.048046 -0.144795 23 91 33 0.000000 1.000000 0.000000
-0.234300 -0.005720 -0.115288 23 91 33 0.000000 1.000000 0.000000
-0.270116 -0.048046 -0.012951 23 91 33 0.000000 1.000000 0.000000
-0.329036 -0.067687 -0.282340 23 91 33 -1.000000 0.000000 0.000000
-0.311927 -0.005720 -0.071057 23 91 33 0.000000 1.000000 0.000000
0.046296 -0.005720 -0.043012 23 91 33 0.000000 1.000000 0.000000
0.010146 -0.005720 -0.164752 23 91 33 0.000000 1.000000 0.000000
-0.333056 -0.043514 -0.385288 23 91 33 -0.999903 0.013933 0.000000
-0.060234 -0.069207 -0.095619 23 91 33 0.000000 -1.000000 0.000000
-0.049660 -0.069207 -0.279381 23 91 33 0.000000 -1.000000 0.000000
-0.218206 -0.005720 -0.361340 23 91 33 0.000000 1.000000 0.000000
-0.112498 -0.005720 -0.077744 23 91 33 0.000000 1.000000 0.000000
-0.333015 -0.040563 -0.405891 23 91 33 -0.999903 0.013933 0.000000
-0.054771 -0.048046 -0.152967 23 91 33 0.000000 1.000000 0.000000
0.037616 -0.005720 -0.402736 23 91 33 0.000000 1.000000 0.000000
-0.322210 -0.069207 -0.067490 23 91 33 0.000000 -1.000000 0.000000
0.053294 -0.005720 -0.263683 23 91 33 0.000000 1.000000 0.000000
-0.281742 -0.005720 -0.185476 23 91 33 0.000000 1.000000 0.000000
-0.285237 -0.005720 -0.356556 23 91 33 0.000000 1.000000 0.000000
-0.078161 -0.048046 -0.145001 23 91 33 0.000000 1.000000 0.000000
-0.329036 -0.041783 -0.359943 23 91 33 -1.000000 0.000000 0.000000
-0.271105 -0.069207 -0.210988 23 91 33 0.000000 -1.000000 0.000000
-0.329036 -0.059433 -0.053840 23 91 33 -1.000000 0.000000 0.000000
-0.056260 -0.005720 -0.185111 23 91 33 0.000000 1.000000 0.000000
-0.091239 -0.048046 -0.028703 23 91 33 0.000000 1.000000 0.000000
-0.283027 -0.005720 -0.158294 23 91 33 0.000000 1.000000 0.000000
-0.291120 -0.069207 -0.337029 23 91 33 0.000000 -1.000000 0.000000
0.025502 -0.005720 -0.199341 23 91 33 0.000000 1.000000 0.000000
-0.084251 -0.048046 -0.369932 23 91 33 0.000000 1.000000 0.000000
-0.329036 -0.065368 -0.215413 23 91 33 -1.000000 0.000000 0.000000
0.010488 -0.005720 -0.289313 23 91 33 0.000000 1.000000 0.000000
-0.299891 -0.069207 -0.088977 23 91 33 0.000000 -1.000000 0.000000
-0.329036 -0.054437 -0.254480 23 91 33 -1.000000 0.000000 0.000000
-0.284616 -0.005720 -0.304729 23 91 33 0.000000 1.000000 0.000000
-0.001038 -0.069207 -0.132885 23 91 33 0.000000 -1.000000 0.000000
-0.063012 -0.069207 -0.365125 23 91 33 0.000000 -1.000000 0.000000
0.049904 -0.048046 -0.354585 23 91 33 0.000000 1.000000 0.000000
-0.114800 -0.005720 -0.324233 23 91 33 0.000000 1.000000 0.000000
-0.194090 -0.048046 -0.186276 23 91 33 0.000000 1.000000 0.000000
-0.095184 -0.005720 -0.316646 23 91 33 0.000000 1.000000 0.000000
-0.046261 -0.048046 -0.353943 23 91 33 0.000000 1.000000 0.000000
-0.155350 -0.005720 -0.138095 23 91 33 0.000000 1.000000 0.000000
-0.329036 -0.024928 -0.315304 23 91 33 -1.000000 0.000000 0.000000
0.009534 -0.048046 -0.234280 23 91 33 0.000000 1.000000 0.000000
-0.035597 -0.069207 -0.145515 23 91 33 0.000000 -1.000000 0.000000
-0.245874 -0.048046 -0.272500 23 91 33 0.000000 1.000000 0.000000
-0.149970 -0.069207 -0.186858 23 91 33 0.000000 -1.000000 0.000000
-0.160564 -0.069207 -0.138424 23 91 33 0.000000 -1.000000 0.000000
-0.221916 -0.048046 -0.280717 23 91 33 0.000000 1.000000 0.000000
-0.087288 -0.069207 -0.031814 23 91 33 0.000000 -1.000000 0.000000
-0.284636 -0.004028 -0.435944 23 91 33 0.000000 0.000000 -1.000000
-0.263976 -0.069207 -0.175490 23 91 33 0.000000 -1.000000 0.000000
-0.209200 -0.048046 -0.162232 23 91 33 0.000000 1.000000 0.000000
-0.022661 -0.048046 -0.177536 23 91 33 0.000000 1.000000 0.000000
-0.230670 -0.005720 -0.214568 23 91 33 0.000000 1.000000 0.000000
0.053013 -0.005720 -0.331678 23 91 33 0.000000 1.000000 0.000000
-0.285142 -0.048046 -0.039478 23 91 33 0.000000 1.000000 0.000000
-0.305248 -0.069207 -0.134914 23 91 33 0.000000 -1.000000 0.000000
-0.135320 -0.005720 -0.123354 23 91 33 0.000000 1.000000 0.000000
-0.234830 -0.069207 -0.097677 23 91 33 0.000000 -1.000000 0.000000
-0.119125 -0.005720 -0.066880 23 91 33 0.000000 1.000000 0.000000
-0.230933 -0.048046 -0.050811 23 91 33 0.000000 1.000000 0.000000
-0.329036 -0.056233 -0.220494 23 91 33 -1.000000 0.000000 0.000000
-0.085366 -0.048046 -0.167458 23 91 33 0.000000 1.000000 0.000000
-0.239824 -0.048046 -0.251570 23 91 33 0.000000 1.000000 0.000000
-0.328724 -0.005720 -0.356157 23 91 33 0.000000 1.000000 0.000000
-0.316707 -0.069207 -0.185697 23 91 33 0.000000 -1.000000 0.000000
-0.124489 -0.069207 -0.303086 23 91 33 0.000000 -1.000000 0.000000
-0.329036 -0.018178 -0.099092 23 91 33 -1.000000 0.000000 0.000000
0.048874 -0.005720 -0.360110 23 91 33 0.000000 1.000000 0.000000
-0.030382 -0.005720 -0.287006 23 91 33 0.000000 1.000000 0.000000
-0.333199 -0.053717 -0.433814 23 91 33 -0.999903 0.013933 0.000000
-0.012746 -0.069207 -0.183849 23 91 33 0.000000 -1.000000 0.000000
-0.273727 -0.069207 -0.173799 23 91 33 0.000000 -1.000000 0.000000
-0.329036 -0.069001 -0.115798 23 91 33 -1.000000 0.000000 0.000000
-0.269910 -0.069207 -0.108721 23 91 33 0.000000 -1.000000 0.000000
0.034398 -0.048046 -0.022874 23 91 33 0.000000 1.000000 0.000000
0.030857 -0.069207 -0.295536 23 91 33 0.000000 -1.000000 0.000000
-0.291908 -0.069207 -0.098806 23 91 33 0.000000 -1.000000 0.000000
-0.047687 -0.048046 -0.299210 23 91 33 0.000000 1.000000 0.000000
-0.055762 -0.048046 -0.071464 23 91 33 0.000000 1.000000 0.000000
-0.329036 -0.068178 -0.018127 23 91 33 -1.000000 0.000000 0.000000
-0.241620 -0.005720 -0.102711 23 91 33 0.000000 1.000000 0.000000
-0.182423 -0.048046 -0.315602 23 91 33 0.000000 1.000000 0.000000
-0.105849 -0.069207 -0.101039 23 91 33 0.000000 -1.000000 0.000000
0.043967 -0.005720 -0.146835 23 91 33 0.000000 1.000000 0.000000
-0.278334 -0.005720 -0.087631 23 91 33 0.000000 1.000000 0.000000
0.051606 -0.005720 -0.215829 23 91 33 0.000000 1.000000 0.000000
-0.299882 -0.005720 -0.124487 23 91 33 0.000000 1.000000 0.000000
-0.329036 -0.034009 -0.051838 23 91 33 -1.000000 0.000000 0.000000
-0.329036 -0.018382 -0.108466 23 91 33 -1.000000 0.000000 0.000000
-0.247932 -0.069207 -0.282213 23 91 33 0.000000 -1.000000 0.000000
-0.291965 -0.055243 -0.132297 23 91 33 -1.000000 0.000000 0.000000
-0.309339 -0.069207 -0.215928 23 91 33 0.000000 -1.000000 0.000000
-0.235365 -0.069207 -0.214528 23 91 33 0.000000 -1.000000 0.000000
-0.096489 -0.069207 -0.239276 23 91 33 0.000000 -1.000000 0.000000
-0.017654 -0.067386 -0.414783 23 91 33 0.000000 0.000000 -1.000000
-0.121248 -0.048046 -0.258179 23 91 33 0.000000 1.000000 0.000000
-0.018934 -0.005720 -0.051915 23 91 33 0.000000 1.000000 0.000000
-0.168159 -0.069207 -0.371208 23 91 33 0.000000 -1.000000 0.000000
-0.014865 -0.005720 -0.200898 23 91 33 0.000000 1.000000 0.000000
-0.260958 -0.069207 -0.233206 23 91 33 0.000000 -1.000000 0.000000
-0.017252 -0.005720 -0.392567 23 91 33 0.000000 1.000000 0.000000
-0.188114 -0.069207 -0.354212 23 91 33 0.000000 -1.000000 0.000000
-0.002306 -0.069207 -0.338440 23 91 33 0.000000 -1.000000 0.000000
-0.296980 -0.069207 -0.357480 23 91 33 0.000000 -1.000000 0.000000
-0.218806 -0.048046 -0.344149 23 91 33 0.000000 1.000000 0.000000
0.052640 -0.005720 -0.114376 23 91 33 0.000000 1.000000 0.000000
0.027716 -0.005720 -0.287188 23 91 33 0.000000 1.000000 0.000000
-0.024315 -0.069207 -0.048742 23 91 33 0.000000 -1.000000 0.000000
-0.198045 -0.005720 -0.276531 23 91 33 0.000000 1.000000 0.000000
-0.297980 -0.005720 -0.074217 23 91 33 0.000000 1.000000 0.000000
-0.111925 -0.048046 -0.134556 23 91 33 0.000000 1.000000 0.000000
-0.294697 -0.069207 -0.354510 23 91 33 0.000000 -1.000000 0.000000
0.057728 -0.005720 -0.403076 23 91 33 0.000000 1.000000 0.000000
-0.056965 -0.005720 -0.333884 23 91 33 0.000000 1.000000 0.000000
-0.102833 -0.048046 -0.325721 23 91 33 0.000000 1.000000 0.000000
0.033527 -0.005720 -0.072394 23 91 33 0.000000 1.000000 0.000000
-0.283640 -0.005720 -0.203825 23 91 33 0.000000 1.000000 0.000000
-0.076138 -0.069207 -0.195526 23 91 33 0.000000 -1.000000 0.000000
-0.134417 -0.048046 -0.051489 23 91 33 0.000000 1.000000 0.000000
-0.130194 -0.048046 -0.020281 23 91 33 0.000000 1.000000 0.000000
-0.286873 -0.005720 -0.227164 23 91 33 0.000000 1.000000 0.000000
-0.266027 -0.040000 -0.412035 23 91 33 0.999903 -0.013896 0.000000
-0.150657 -0.048046 -0.308774 23 91 33 0.000000 1.000000 0.000000
-0.023042 -0.048046 -0.215390 23 91 33 0.000000 1.000000 0.000000
-0.181465 -0.005720 -0.335828 23 91 33 0.000000 1.000000 0.000000
-0.193403 -0.044347 -0.414783 23 91 33 0.000000 0.000000 -1.000000
-0.212225 -0.005720 -0.211826 23 91 33 0.000000 1.000000 0.000000
-0.130368 -0.048046 -0.109187 23 91 33 0.000000 1.000000 0.000000
-0.319939 -0.069207 -0.296990 23 91 33 0.000000 -1.000000 0.000000
-0.172066 -0.011155 -0.414783 23 91 33 0.000000 0.000000 -1.000000
-0.048581 -0.048046 -0.032842 23 91 33 0.000000 1.000000 0.000000
-0.178109 -0.005720 -0.246623 23 91 33 0.000000 1.000000 0.000000
-0.084297 -0.041348 -0.414783 23 91 33 0.000000 0.000000 -1.000000
-0.064373 -0.069207 -0.200034 23 91 33 0.000000 -1.000000 0.000000
-0.022748 -0.069207 -0.207157 23 91 33 0.000000 -1.000000 0.000000
-0.054338 -0.005720 -0.123525 23 91 33 0.000000 1.000000 0.000000
-0.035155 -0.048046 -0.284651 23 91 33 0.000000 1.000000 0.000000
0.052943 -0.005720 -0.361441 23 91 33 0.000000 1.000000 0.000000
-0.135030 -0.069207 -0.363235 23 91 33 0.000000 -1.000000 0.000000
-0.229867 -0.005720 -0.266022 23 91 33 0.000000 1.000000 0.000000
-0.078930 -0.069207 -0.169318 23 91 33 0.000000 -1.000000 0.000000
-0.013086 -0.048046 -0.120473 23 91 33 0.000000 1.000000 0.000000
-0.163716 -0.069207 -0.325617 23 91 33 0.000000 -1.000000 0.000000
-0.256433 -0.048046 -0.113935 23 91 33 0.000000 1.000000 0.000000
-0.054482 -0.048046 -0.280298 23 91 33 0.000000 1.000000 0.000000
-0.208405 -0.048046 -0.084445 23 91 33 0.000000 1.000000 0.000000
-0.227833 -0.005720 -0.116279 23 91 33 0.000000 1.000000 0.000000
-0.075958 -0.048046 -0.132658 23 91 33 0.000000 1.000000 0.000000
0.002957 -0.069207 -0.196235 23 91 33 0.000000 -1.000000 0.000000
-0.242928 -0.048046 -0.276538 23 91 33 0.000000 1.000000 0.000000
-0.009764 -0.069207 -0.178793 23 91 33 0.000000 -1.000000 0.000000
0.024096 -0.060504 -0.414783 23 91 33 0.000000 0.000000 -1.000000
-0.254610 -0.048046 -0.178126 23 91 33 0.000000 1.000000 0.000000
-0.033768 -0.048046 -0.145999 23 91 33 0.000000 1.000000 0.000000
0.025932 -0.069207 -0.020801 23 91 33 0.000000 -1.000000 0.000000
-0.178459 -0.005720 -0.331640 23 91 33 0.000000 1.000000 0.000000
-0.052004 -0.005720 -0.068438 23 91 33 0.000000 1.000000 0.000000
-0.105342 -0.048046 -0.059490 23 91 33 0.000000 1.000000 0.000000
-0.252503 -0.069207 -0.188351 23 91 33 0.000000 -1.000000 0.000000
-0.288009 -0.069207 -0.007673 23 91 33 0.000000 -1.000000 0.000000
-0.266401 -0.066896 -0.427028 23 91 33 0.999903 -0.013896 0.000000
-0.184461 -0.005720 -0.088441 23 91 33 0.000000 1.000000 0.000000
-0.172989 -0.048046 -0.150070 23 91 33 0.000000 1.000000 0.000000
-0.097206 -0.048046 -0.272677 23 91 33 0.000000 1.000000 0.000000
0.002699 -0.069207 -0.298806 23 91 33 0.000000 -1.000000 0.000000
-0.038386 -0.048046 -0.267044 23 91 33 0.000000 1.000000 0.000000
-0.282548 -0.005720 -0.055245 23 91 33 0.000000 1.000000 0.000000
-0.097377 -0.048046 -0.356707 23 91 33 0.000000 1.000000 0.000000
0.016948 -0.005720 -0.259222 23 91 33 0.000000 1.000000 0.000000
-0.121407 -0.048046 -0.013133 23 91 33 0.000000 1.000000 0.000000
-0.329036 -0.014253 -0.168829 23 91 33 -1.000000 0.000000 0.000000
-0.295289 -0.069207 -0.034430 23 91 33 0.000000 -1.000000 0.000000
-0.199217 -0.069207 -0.162814 23 91 33 0.000000 -1.000000 0.000000
0.050880 -0.005720 -0.243151 23 91 33 0.000000 1.000000 0.000000
-0.204385 -0.048046 -0.104316 23 91 33 0.000000 1.000000 0.000000
-0.333307 -0.061530 -0.407684 23 91 33 -0.999903 0.013933 0.000000
0.046610 -0.048046 -0.264098 23 91 33 0.000000 1.000000 0.000000
-0.329036 -0.052588 -0.365382 23 91 33 -1.000000 0.000000 0.000000
-0.265364 -0.069207 -0.238703 23 91 33 0.000000 -1.000000 0.000000
-0.332627 -0.012690 -0.401896 23 91 33 -0.999903 0.013933 0.000000
-0.029146 -0.048046 -0.181748 23 91 33 0.000000 1.000000 0.000000
-0.028433 -0.005720 -0.056891 23 91 33 0.000000 1.000000 0.000000
-0.050861 -0.069207 -0.349322 23 91 33 0.000000 -1.000000 0.000000
-0.117038 -0.069207 -0.064886 23 91 33 0.000000 -1.000000 0.000000
-0.092032 -0.005720 -0.160877 23 91 33 0.000000 1.000000 0.000000
-0.244324 -0.067628 -0.414783 23 91 33 0.000000 0.000000 -1.000000
-0.291965 -0.054890 -0.155029 23 91 33 -1.000000 0.000000 0.000000
-0.142961 -0.069207 -0.341543 23 91 33 0.000000 -1.000000 0.000000
-0.329036 -0.062547 -0.122262 23 91 33 -1.000000 0.000000 0.000000
-0.089055 -0.048046 -0.082812 23 91 33 0.000000 1.000000 0.000000
-0.114321 -0.048046 -0.140099 23 91 33 0.000000 1.000000 0.000000
0.041035 -0.069207 -0.346338 23 91 33 0.000000 -1.000000 0.000000
-0.158123 -0.005720 -0.375475 23 91 33 0.000000 1.000000 0.000000
-0.266378 -0.065245 -0.416902 23 91 33 0.999903 -0.013896 0.000000
-0.055220 -0.048046 -0.322660 23 91 33 0.000000 1.000000 0.000000
-0.265581 -0.007890 -0.397326 23 91 33 0.999903 -0.013896 0.000000
0.021243 -0.048046 -0.365798 23 91 33 0.000000 1.000000 0.000000
-0.333319 -0.062364 -0.386678 23 91 33 -0.999903 0.013933 0.000000
-0.109062 -0.048046 -0.174464 23 91 33 0.000000 1.000000 0.000000
-0.068679 -0.048046 -0.205980 23 91 33 0.000000 1.000000 0.000000
-0.329036 -0.036255 -0.294222 23 91 33 -1.000000 0.000000 0.000000
0.001260 -0.069207 -0.412665 23 91 33 0.000000 -1.000000 0.000000
-0.023512 -0.048046 -0.209009 23 91 33 0.000000 1.000000 0.000000
-0.221723 -0.054154 -0.414783 23 91 33 0.000000 0.000000 -1.000000
-0.003538 -0.069207 -0.361209 23 91 33 0.000000 -1.000000 0.000000
-0.003598 -0.069207 -0.274521 23 91 33 0.000000 -1.000000 0.000000
-0.211140 -0.005720 -0.174867 23 91 33 0.000000 1.000000 0.000000
-0.326387 -0.069207 -0.035526 23 91 33 0.000000 -1.000000 0.000000
-0.064918 -0.048046 -0.210006 23 91 33 0.000000 1.000000 0.000000
-0.321277 -0.005720 -0.112941 23 91 33 0.000000 1.000000 0.000000
-0.287604 -0.048046 -0.107897 23 91 33 0.000000 1.000000 0.000000
-0.306094 -0.030158 -0.368225 23 91 33 0.000000 0.000000 1.000000
-0.246493 -0.048046 -0.066960 23 91 33 0.000000 1.000000 0.000000
-0.153731 -0.069207 -0.301697 23 91 33 0.000000 -1.000000 0.000000
-0.068120 -0.069207 -0.138656 23 91 33 0.000000 -1.000000 0.000000
-0.154583 -0.048046 -0.218488 23 91 33 0.000000 1.000000 0.000000
-0.260698 -0.069207 -0.334267 23 91 33 0.000000 -1.000000 0.000000
-0.120471 -0.045249 -0.414783 23 91 33 0.000000 0.000000 -1.000000
-0.329036 -0.032574 -0.033105 23 91 33 -1.000000 0.000000 0.000000
-0.329036 -0.022320 -0.284698 23 91 33 -1.000000 0.000000 0.000000
-0.194706 -0.069207 -0.174433 23 91 33 0.000000 -1.000000 0.000000
-0.239517 -0.048046 -0.147550 23 91 33 0.000000 1.000000 0.000000
-0.246428 -0.048046 -0.309479 23 91 33 0.000000 1.000000 0.000000
-0.290379 -0.021420 -0.435944 23 91 33 0.000000 0.000000 -1.000000
0.047993 -0.048046 -0.009262 23 91 33 0.000000 1.000000 0.000000
0.004434 -0.048046 -0.202887 23 91 33 0.000000 1.000000 0.000000
-0.059047 -0.005720 -0.093669 23 91 33 0.000000 1.000000 0.000000
-0.235898 -0.005720 -0.128576 23 91 33 0.000000 1.000000 0.000000
-0.268029 -0.069207 -0.209584 23 91 33 0.000000 -1.000000 0.000000
-0.290516 -0.048046 -0.223586 23 91 33 0.000000 1.000000 0.000000
-0.212725 -0.048046 -0.226338 23 91 33 0.000000 1.000000 0.000000
