ply
format ascii 1.0
element vertex 688
property float x
property float y
property float z
property uchar red
property uchar green
property uchar blue
property float nx
property float ny
property float nz
end_header
-0.101789 -0.165872 -0.017134 192 236 167 0.000000 -1.000000 0.000000
0.029058 -0.165872 -0.030056 192 236 167 0.000000 -1.000000 0.000000
-0.234407 -0.066339 -0.204946 192 236 167 0.000000 1.000000 0.000000
-0.154711 -0.066339 -0.304823 192 236 167 0.000000 1.000000 0.000000
-0.352005 -0.165872 -0.263838 192 236 167 0.000000 -1.000000 0.000000
-0.147317 -0.066339 -0.006936 192 236 167 0.000000 1.000000 0.000000
-0.317979 -0.165872 -0.049130 192 236 167 0.000000 -1.000000 0.000000
-0.363399 -0.165872 -0.311333 192 236 167 0.000000 -1.000000 0.000000
-0.152887 -0.066339 -0.291846 192 236 167 0.000000 1.000000 0.000000
-0.181144 -0.107334 -0.449867 192 236 167 0.000000 0.000000 1.000000
-0.296967 -0.086808 -0.364909 192 236 167 -0.381253 0.924471 0.000000
-0.254902 -0.090893 -0.454725 192 236 167 0.000000 1.000000 0.000000
-0.371795 -0.090893 -0.152454 192 236 167 0.000000 1.000000 0.000000
-0.109167 -0.165872 -0.183018 192 236 167 0.000000 -1.000000 0.000000
-0.284602 -0.081709 -0.118685 192 236 167 -0.381253 0.924471 0.000000
-0.023258 -0.090893 -0.474945 192 236 167 0.000000 1.000000 0.000000
-0.359154 -0.090893 -0.222282 192 236 167 0.000000 1.000000 0.000000
0.037574 -0.066339 -0.196103 192 236 167 0.000000 1.000000 0.000000
-0.021205 -0.165872 -0.098944 192 236 167 0.000000 -1.000000 0.000000
-0.381851 -0.135301 -0.057129 192 236 167 -1.000000 0.000000 0.000000
-0.067683 -0.105083 -0.449867 192 236 167 0.000000 0.000000 1.000000
-0.281975 -0.080625 -0.295373 192 236 167 -0.381253 0.924471 0.000000
-0.328837 -0.121759 -0.524846 192 236 167 0.000000 0.000000 -1.000000
-0.066208 -0.165872 -0.008045 192 236 167 0.000000 -1.000000 0.000000
-0.241394 -0.165872 -0.028375 192 236 167 0.000000 -1.000000 0.000000
-0.031533 -0.066339 -0.101876 192 236 167 0.000000 1.000000 0.000000
-0.381851 -0.144154 -0.382048 192 236 167 -1.000000 0.000000 0.000000
-0.324176 -0.165872 -0.316979 192 236 167 0.000000 -1.000000 0.000000
0.054494 -0.165872 -0.247875 192 236 167 0.000000 -1.000000 0.000000
-0.273481 -0.148762 -0.524846 192 236 167 0.000000 0.000000 -1.000000
-0.370647 -0.165872 -0.377590 192 236 167 0.000000 -1.000000 0.000000
-0.285747 -0.082181 -0.195933 192 236 167 -0.381253 0.924471 0.000000
-0.241844 -0.126714 -0.524846 192 236 167 0.000000 0.000000 -1.000000
-0.253835 -0.069021 -0.323853 192 236 167 -0.381253 0.924471 0.000000
-0.217695 -0.112714 -0.449867 192 236 167 0.000000 0.000000 1.000000
-0.164382 -0.066339 -0.179444 192 236 167 0.000000 1.000000 0.000000
-0.305742 -0.090427 -0.094861 192 236 167 -0.381253 0.924471 0.000000
-0.152051 -0.165872 -0.391906 192 236 167 0.000000 -1.000000 0.000000
-0.124821 -0.165872 -0.111229 192 236 167 0.000000 -1.000000 0.000000
-0.295517 -0.086210 -0.015882 192 236 167 -0.381253 0.924471 0.000000
-0.306973 -0.089407 -0.503498 192 236 167 0.997684 0.068016 0.000000
-0.022737 -0.066339 -0.115782 192 236 167 0.000000 1.000000 0.000000
-0.150937 -0.165872 -0.032917 192 236 167 0.000000 -1.000000 0.000000
0.061292 -0.165872 -0.122516 192 236 167 0.000000 -1.000000 0.000000
-0.032738 -0.074192 -0.409369 192 236 167 0.000000 0.924475 -0.381243
-0.348290 -0.076256 -0.524846 192 236 167 0.000000 0.000000 -1.000000
-0.381851 -0.114060 -0.063594 192 236 167 -1.000000 0.000000 0.000000
0.035130 -0.150205 -0.524846 192 236 167 0.000000 0.000000 -1.000000
0.062950 -0.165872 -0.227771 192 236 167 0.000000 -1.000000 0.000000
-0.022240 -0.090893 -0.467049 192 236 167 0.000000 1.000000 0.000000
-0.284688 -0.165872 -0.010676 192 236 167 0.000000 -1.000000 0.000000
-0.381851 -0.116049 -0.312093 192 236 167 -1.000000 0.000000 0.000000
-0.310892 -0.165872 -0.194368 192 236 167 0.000000 -1.000000 0.000000
-0.335580 -0.090893 -0.315616 192 236 167 0.000000 1.000000 0.000000
-0.223819 -0.066339 -0.366839 192 236 167 0.000000 1.000000 0.000000
0.052321 -0.165872 -0.194986 192 236 167 0.000000 -1.000000 0.000000
-0.193812 -0.066339 -0.355283 192 236 167 0.000000 1.000000 0.000000
-0.381851 -0.141133 -0.170979 192 236 167 -1.000000 0.000000 0.000000
-0.045771 -0.066339 -0.252788 192 236 167 0.000000 1.000000 0.000000
-0.366452 -0.090893 -0.004778 192 236 167 0.000000 1.000000 0.000000
-0.306872 -0.140340 -0.502272 192 236 167 1.000000 0.000000 0.000000
-0.381851 -0.159380 -0.275753 192 236 167 -1.000000 0.000000 0.000000
-0.329600 -0.165872 -0.206835 192 236 167 0.000000 -1.000000 0.000000
-0.018984 -0.069468 -0.397914 192 236 167 0.000000 0.924475 -0.381243
0.015852 -0.165872 -0.109855 192 236 167 0.000000 -1.000000 0.000000
-0.381851 -0.162081 -0.315327 192 236 167 -1.000000 0.000000 0.000000
-0.158763 -0.165872 -0.143809 192 236 167 0.000000 -1.000000 0.000000
0.031636 -0.165872 -0.221690 192 236 167 0.000000 -1.000000 0.000000
0.054305 -0.066339 -0.378667 192 236 167 0.000000 1.000000 0.000000
-0.283194 -0.165872 -0.127240 192 236 167 0.000000 -1.000000 0.000000
-0.098421 -0.066339 -0.155720 192 236 167 0.000000 1.000000 0.000000
0.039023 -0.066339 -0.291792 192 236 167 0.000000 1.000000 0.000000
-0.377541 -0.090893 -0.355955 192 236 167 0.000000 1.000000 0.000000
-0.381851 -0.127772 -0.354830 192 236 167 -1.000000 0.000000 0.000000
-0.345632 -0.165872 -0.160821 192 236 167 0.000000 -1.000000 0.000000
-0.226257 -0.165872 -0.010748 192 236 167 0.000000 -1.000000 0.000000
-0.360529 -0.090893 -0.425838 192 236 167 0.000000 1.000000 0.000000
0.027751 -0.165872 -0.247075 192 236 167 0.000000 -1.000000 0.000000
-0.306872 -0.134043 -0.472135 192 236 167 1.000000 0.000000 0.000000
-0.079908 -0.066339 -0.356464 192 236 167 0.000000 1.000000 0.000000
-0.160377 -0.066339 -0.147825 192 236 167 0.000000 1.000000 0.000000
-0.207679 -0.066339 -0.147091 192 236 167 0.000000 1.000000 0.000000
-0.381851 -0.161523 -0.384644 192 236 167 -1.000000 0.000000 0.000000
-0.134582 -0.165872 -0.401905 192 236 167 0.000000 -1.000000 0.000000
-0.208886 -0.165872 -0.051600 192 236 167 0.000000 -1.000000 0.000000
0.027958 -0.124021 -0.524846 192 236 167 0.000000 0.000000 -1.000000
-0.136189 -0.066339 -0.371286 192 236 167 0.000000 1.000000 0.000000
-0.075642 -0.165872 -0.282523 192 236 167 0.000000 -1.000000 0.000000
-0.323870 -0.133334 -0.449867 192 236 167 0.000000 0.000000 1.000000
-0.310021 -0.090893 -0.298108 192 236 167 0.000000 1.000000 0.000000
-0.097588 -0.165872 -0.203564 192 236 167 0.000000 -1.000000 0.000000
-0.023958 -0.165872 -0.261037 192 236 167 0.000000 -1.000000 0.000000
-0.032287 -0.090893 -0.482647 192 236 167 0.000000 1.000000 0.000000
-0.306872 -0.131194 -0.523822 192 236 167 1.000000 0.000000 0.000000
-0.095605 -0.165872 -0.166502 192 236 167 0.000000 -1.000000 0.000000
-0.333196 -0.090893 -0.091844 192 236 167 0.000000 1.000000 0.000000
-0.024000 -0.165872 -0.067799 192 236 167 0.000000 -1.000000 0.000000
-0.379881 -0.119182 -0.449867 192 236 167 0.000000 0.000000 1.000000
-0.066883 -0.081809 -0.427839 192 236 167 0.000000 0.924475 -0.381243
-0.102878 -0.090893 -0.503518 192 236 167 0.000000 1.000000 0.000000
-0.320531 -0.090893 -0.306703 192 236 167 0.000000 1.000000 0.000000
-0.366290 -0.165872 -0.351112 192 236 167 0.000000 -1.000000 0.000000
-0.148825 -0.068150 -0.394718 192 236 167 0.000000 0.924475 -0.381243
-0.368207 -0.090893 -0.078926 192 236 167 0.000000 1.000000 0.000000
-0.241367 -0.066339 -0.174023 192 236 167 0.000000 1.000000 0.000000
0.037789 -0.165872 -0.108371 192 236 167 0.000000 -1.000000 0.000000
-0.245072 -0.165872 -0.413584 192 236 167 0.000000 -1.000000 0.000000
-0.381851 -0.094369 -0.478849 192 236 167 -1.000000 0.000000 0.000000
0.028623 -0.142671 -0.524846 192 236 167 0.000000 0.000000 -1.000000
-0.243046 -0.165872 -0.095444 192 236 167 0.000000 -1.000000 0.000000
-0.259711 -0.135982 -0.449867 192 236 167 0.000000 0.000000 1.000000
-0.179954 -0.066339 -0.278335 192 236 167 0.000000 1.000000 0.000000
0.001057 -0.165872 -0.271698 192 236 167 0.000000 -1.000000 0.000000
-0.114703 -0.066339 -0.209819 192 236 167 0.000000 1.000000 0.000000
-0.054413 -0.090481 -0.448869 192 236 167 0.000000 0.924475 -0.381243
-0.253769 -0.165872 -0.174827 192 236 167 0.000000 -1.000000 0.000000
-0.147607 -0.165872 -0.010231 192 236 167 0.000000 -1.000000 0.000000
-0.136085 -0.090893 -0.488457 192 236 167 0.000000 1.000000 0.000000
0.007271 -0.066339 -0.025188 192 236 167 0.000000 1.000000 0.000000
-0.054374 -0.090893 -0.458458 192 236 167 0.000000 1.000000 0.000000
-0.151994 -0.093695 -0.524846 192 236 167 0.000000 0.000000 -1.000000
0.018944 -0.165872 -0.231141 192 236 167 0.000000 -1.000000 0.000000
-0.300452 -0.088245 -0.142575 192 236 167 -0.381253 0.924471 0.000000
-0.320080 -0.165872 -0.241162 192 236 167 0.000000 -1.000000 0.000000
0.059593 -0.165872 -0.080940 192 236 167 0.000000 -1.000000 0.000000
-0.381851 -0.113063 -0.204023 192 236 167 -1.000000 0.000000 0.000000
-0.092065 -0.066339 -0.334032 192 236 167 0.000000 1.000000 0.000000
-0.260822 -0.165872 -0.306682 192 236 167 0.000000 -1.000000 0.000000
-0.248182 -0.165872 -0.051609 192 236 167 0.000000 -1.000000 0.000000
-0.369783 -0.148622 -0.449867 192 236 167 0.000000 0.000000 1.000000
-0.093473 -0.165872 -0.355197 192 236 167 0.000000 -1.000000 0.000000
-0.278640 -0.165872 -0.226702 192 236 167 0.000000 -1.000000 0.000000
0.007871 -0.066339 -0.218730 192 236 167 0.000000 1.000000 0.000000
-0.163953 -0.066339 -0.361140 192 236 167 0.000000 1.000000 0.000000
-0.128933 -0.066339 -0.071487 192 236 167 0.000000 1.000000 0.000000
-0.047747 -0.066339 -0.002124 192 236 167 0.000000 1.000000 0.000000
0.046917 -0.066339 -0.034354 192 236 167 0.000000 1.000000 0.000000
-0.326614 -0.090893 -0.143117 192 236 167 0.000000 1.000000 0.000000
-0.369472 -0.090893 -0.310076 192 236 167 0.000000 1.000000 0.000000
-0.247300 -0.066339 -0.212031 192 236 167 0.000000 1.000000 0.000000
0.049334 -0.165872 -0.102505 192 236 167 0.000000 -1.000000 0.000000
-0.206795 -0.090893 -0.462675 192 236 167 0.000000 1.000000 0.000000
-0.226098 -0.165872 -0.189492 192 236 167 0.000000 -1.000000 0.000000
-0.255171 -0.165872 -0.154222 192 236 167 0.000000 -1.000000 0.000000
-0.102480 -0.085933 -0.437839 192 236 167 0.000000 0.924475 -0.381243
-0.039571 -0.075884 -0.413471 192 236 167 0.000000 0.924475 -0.381243
-0.155883 -0.066339 -0.102821 192 236 167 0.000000 1.000000 0.000000
-0.223233 -0.165872 -0.222008 192 236 167 0.000000 -1.000000 0.000000
-0.381851 -0.131525 -0.523881 192 236 167 -1.000000 0.000000 0.000000
-0.323039 -0.090893 -0.000565 192 236 167 0.000000 1.000000 0.000000
-0.381851 -0.144702 -0.026582 192 236 167 -1.000000 0.000000 0.000000
-0.084565 -0.165872 -0.210459 192 236 167 0.000000 -1.000000 0.000000
-0.207182 -0.165872 -0.265189 192 236 167 0.000000 -1.000000 0.000000
-0.306872 -0.117648 -0.507162 192 236 167 1.000000 0.000000 0.000000
-0.381851 -0.130562 -0.483184 192 236 167 -1.000000 0.000000 0.000000
0.051953 -0.066339 -0.222687 192 236 167 0.000000 1.000000 0.000000
-0.158735 -0.165872 -0.381917 192 236 167 0.000000 -1.000000 0.000000
-0.190838 -0.090893 -0.491741 192 236 167 0.000000 1.000000 0.000000
-0.334249 -0.165872 -0.168257 192 236 167 0.000000 -1.000000 0.000000
0.015605 -0.165872 -0.399179 192 236 167 0.000000 -1.000000 0.000000
-0.315757 -0.090893 -0.464794 192 236 167 0.000000 1.000000 0.000000
-0.203184 -0.066339 -0.296128 192 236 167 0.000000 1.000000 0.000000
-0.115030 -0.165872 -0.160862 192 236 167 0.000000 -1.000000 0.000000
-0.293538 -0.109977 -0.449867 192 236 167 0.000000 0.000000 1.000000
-0.259232 -0.165872 -0.092092 192 236 167 0.000000 -1.000000 0.000000
0.046457 -0.090893 -0.459360 192 236 167 0.000000 1.000000 0.000000
-0.048444 -0.165872 -0.184009 192 236 167 0.000000 -1.000000 0.000000
0.039417 -0.165872 -0.034811 192 236 167 0.000000 -1.000000 0.000000
-0.180300 -0.123270 -0.449867 192 236 167 0.000000 0.000000 1.000000
-0.285232 -0.165872 -0.392851 192 236 167 0.000000 -1.000000 0.000000
-0.381851 -0.132143 -0.085945 192 236 167 -1.000000 0.000000 0.000000
-0.219888 -0.165872 -0.144544 192 236 167 0.000000 -1.000000 0.000000
-0.337037 -0.090893 -0.379802 192 236 167 0.000000 1.000000 0.000000
-0.097673 -0.165872 -0.230809 192 236 167 0.000000 -1.000000 0.000000
-0.128723 -0.067602 -0.393389 192 236 167 0.000000 0.924475 -0.381243
-0.302712 -0.145991 -0.449867 192 236 167 0.000000 0.000000 1.000000
-0.307441 -0.086677 -0.524846 192 236 167 0.000000 0.000000 -1.000000
-0.357438 -0.165872 -0.101120 192 236 167 0.000000 -1.000000 0.000000
-0.264466 -0.165872 -0.159497 192 236 167 0.000000 -1.000000 0.000000
-0.031998 -0.165872 -0.290769 192 236 167 0.000000 -1.000000 0.000000
-0.292615 -0.085013 -0.102124 192 236 167 -0.381253 0.924471 0.000000
-0.150351 -0.066339 -0.192460 192 236 167 0.000000 1.000000 0.000000
-0.068993 -0.165872 -0.001126 192 236 167 0.000000 -1.000000 0.000000
-0.109079 -0.165872 -0.217150 192 236 167 0.000000 -1.000000 0.000000
-0.017524 -0.165872 -0.176632 192 236 167 0.000000 -1.000000 0.000000
-0.235334 -0.066339 -0.048134 192 236 167 0.000000 1.000000 0.000000
-0.320639 -0.090893 -0.145072 192 236 167 0.000000 1.000000 0.000000
-0.180055 -0.066339 -0.370117 192 236 167 0.000000 1.000000 0.000000
-0.279326 -0.165872 -0.025092 192 236 167 0.000000 -1.000000 0.000000
-0.191476 -0.090893 -0.507259 192 236 167 0.000000 1.000000 0.000000
-0.236803 -0.066339 -0.179343 192 236 167 0.000000 1.000000 0.000000
-0.048492 -0.161610 -0.449867 192 236 167 0.000000 0.000000 1.000000
-0.287680 -0.082978 -0.373218 192 236 167 -0.381253 0.924471 0.000000
-0.015285 -0.144336 -0.524846 192 236 167 0.000000 0.000000 -1.000000
0.030426 -0.165585 -0.449867 192 236 167 0.000000 0.000000 1.000000
-0.099445 -0.099894 -0.449867 192 236 167 0.000000 0.000000 1.000000
-0.360676 -0.090893 -0.442599 192 236 167 0.000000 1.000000 0.000000
-0.279680 -0.165872 -0.089270 192 236 167 0.000000 -1.000000 0.000000
-0.103905 -0.165872 -0.039056 192 236 167 0.000000 -1.000000 0.000000
-0.148361 -0.090893 -0.486198 192 236 167 0.000000 1.000000 0.000000
-0.083418 -0.093010 -0.449867 192 236 167 0.000000 0.000000 1.000000
-0.192898 -0.066339 -0.240096 192 236 167 0.000000 1.000000 0.000000
0.038867 -0.165872 -0.177369 192 236 167 0.000000 -1.000000 0.000000
0.015437 -0.066339 -0.374733 192 236 167 0.000000 1.000000 0.000000
-0.246708 -0.165872 -0.397050 192 236 167 0.000000 -1.000000 0.000000
-0.120112 -0.066339 -0.137498 192 236 167 0.000000 1.000000 0.000000
-0.156262 -0.097454 -0.449867 192 236 167 0.000000 0.000000 1.000000
-0.061251 -0.165872 -0.366651 192 236 167 0.000000 -1.000000 0.000000
-0.367499 -0.090893 -0.420348 192 236 167 0.000000 1.000000 0.000000
-0.285787 -0.082198 -0.059264 192 236 167 -0.381253 0.924471 0.000000
0.017892 -0.066339 -0.362484 192 236 167 0.000000 1.000000 0.000000
-0.347692 -0.080322 -0.524846 192 236 167 0.000000 0.000000 -1.000000
-0.088206 -0.165872 -0.410371 192 236 167 0.000000 -1.000000 0.000000
-0.060814 -0.066339 -0.003225 192 236 167 0.000000 1.000000 0.000000
-0.187024 -0.066339 -0.006706 192 236 167 0.000000 1.000000 0.000000
-0.326315 -0.090893 -0.080284 192 236 167 0.000000 1.000000 0.000000
-0.107322 -0.066339 -0.099310 192 236 167 0.000000 1.000000 0.000000
-0.116048 -0.066339 -0.009003 192 236 167 0.000000 1.000000 0.000000
-0.283950 -0.154384 -0.524846 192 236 167 0.000000 0.000000 -1.000000
0.050517 -0.066339 -0.114020 192 236 167 0.000000 1.000000 0.000000
-0.005919 -0.165872 -0.177306 192 236 167 0.000000 -1.000000 0.000000
-0.292466 -0.084952 -0.254617 192 236 167 -0.381253 0.924471 0.000000
-0.043269 -0.066339 -0.063397 192 236 167 0.000000 1.000000 0.000000
-0.213752 -0.066339 -0.250255 192 236 167 0.000000 1.000000 0.000000
-0.044789 -0.066339 -0.128937 192 236 167 0.000000 1.000000 0.000000
-0.297709 -0.090893 -0.483691 192 236 167 0.000000 1.000000 0.000000
-0.048394 -0.165872 -0.103608 192 236 167 0.000000 -1.000000 0.000000
-0.096004 -0.165872 -0.279810 192 236 167 0.000000 -1.000000 0.000000
-0.002564 -0.141879 -0.449867 192 236 167 0.000000 0.000000 1.000000
-0.140414 -0.090893 -0.510285 192 236 167 0.000000 1.000000 0.000000
-0.157204 -0.165872 -0.048974 192 236 167 0.000000 -1.000000 0.000000
-0.213433 -0.165872 -0.237322 192 236 167 0.000000 -1.000000 0.000000
-0.098469 -0.066339 -0.265030 192 236 167 0.000000 1.000000 0.000000
-0.147251 -0.090893 -0.508591 192 236 167 0.000000 1.000000 0.000000
-0.229408 -0.066339 -0.233915 192 236 167 0.000000 1.000000 0.000000
-0.128010 -0.165872 -0.294192 192 236 167 0.000000 -1.000000 0.000000
-0.251063 -0.115690 -0.524846 192 236 167 0.000000 0.000000 -1.000000
-0.105845 -0.161917 -0.524846 192 236 167 0.000000 0.000000 -1.000000
-0.266773 -0.074356 -0.377945 192 236 167 -0.381253 0.924471 0.000000
-0.381851 -0.121640 -0.514588 192 236 167 -1.000000 0.000000 0.000000
-0.347411 -0.165872 -0.279440 192 236 167 0.000000 -1.000000 0.000000
0.051842 -0.165872 -0.174558 192 236 167 0.000000 -1.000000 0.000000
-0.025183 -0.080745 -0.425260 192 236 167 0.000000 0.924475 -0.381243
-0.173341 -0.165872 -0.247555 192 236 167 0.000000 -1.000000 0.000000
-0.347677 -0.165872 -0.116772 192 236 167 0.000000 -1.000000 0.000000
-0.165369 -0.121097 -0.524846 192 236 167 0.000000 0.000000 -1.000000
-0.299336 -0.087785 -0.347653 192 236 167 -0.381253 0.924471 0.000000
-0.224475 -0.165872 -0.071016 192 236 167 0.000000 -1.000000 0.000000
-0.208588 -0.066339 -0.052438 192 236 167 0.000000 1.000000 0.000000
-0.057079 -0.076689 -0.415425 192 236 167 0.000000 0.924475 -0.381243
-0.381851 -0.112886 -0.439576 192 236 167 -1.000000 0.000000 0.000000
-0.232191 -0.066339 -0.291724 192 236 167 0.000000 1.000000 0.000000
-0.381851 -0.108301 -0.469017 192 236 167 -1.000000 0.000000 0.000000
-0.030778 -0.066339 -0.183885 192 236 167 0.000000 1.000000 0.000000
-0.337212 -0.165872 -0.445232 192 236 167 0.000000 -1.000000 0.000000
0.046942 -0.165872 -0.005723 192 236 167 0.000000 -1.000000 0.000000
-0.140394 -0.066339 -0.134332 192 236 167 0.000000 1.000000 0.000000
-0.211300 -0.165872 -0.243843 192 236 167 0.000000 -1.000000 0.000000
-0.213171 -0.066339 -0.103955 192 236 167 0.000000 1.000000 0.000000
-0.011288 -0.066339 -0.076659 192 236 167 0.000000 1.000000 0.000000
-0.004741 -0.165872 -0.098141 192 236 167 0.000000 -1.000000 0.000000
-0.224520 -0.165872 -0.383829 192 236 167 0.000000 -1.000000 0.000000
-0.039449 -0.142267 -0.524846 192 236 167 0.000000 0.000000 -1.000000
-0.054233 -0.066339 -0.052466 192 236 167 0.000000 1.000000 0.000000
-0.005630 -0.085112 -0.435848 192 236 167 0.000000 0.924475 -0.381243
-0.297385 -0.086981 -0.094557 192 236 167 -0.381253 0.924471 0.000000
-0.381851 -0.095248 -0.223630 192 236 167 -1.000000 0.000000 0.000000
-0.165150 -0.165872 -0.145878 192 236 167 0.000000 -1.000000 0.000000
0.027496 -0.124974 -0.524846 192 236 167 0.000000 0.000000 -1.000000
-0.149448 -0.066339 -0.154113 192 236 167 0.000000 1.000000 0.000000
-0.139912 -0.165872 -0.188468 192 236 167 0.000000 -1.000000 0.000000
-0.119929 -0.076294 -0.414467 192 236 167 0.000000 0.924475 -0.381243
-0.187063 -0.088346 -0.443690 192 236 167 0.000000 0.924475 -0.381243
-0.277359 -0.165872 -0.250822 192 236 167 0.000000 -1.000000 0.000000
-0.226159 -0.080067 -0.423615 192 236 167 0.000000 0.924475 -0.381243
-0.143332 -0.165872 -0.389672 192 236 167 0.000000 -1.000000 0.000000
-0.181471 -0.066339 -0.046439 192 236 167 0.000000 1.000000 0.000000
-0.318160 -0.165872 -0.377262 192 236 167 0.000000 -1.000000 0.000000
-0.153562 -0.066339 -0.380717 192 236 167 0.000000 1.000000 0.000000
0.030076 -0.066339 -0.307589 192 236 167 0.000000 1.000000 0.000000
-0.328485 -0.165872 -0.206685 192 236 167 0.000000 -1.000000 0.000000
-0.132890 -0.066339 -0.215838 192 236 167 0.000000 1.000000 0.000000
-0.225001 -0.067166 -0.392330 192 236 167 0.000000 0.924475 -0.381243
-0.034683 -0.163238 -0.524846 192 236 167 0.000000 0.000000 -1.000000
-0.268819 -0.165872 -0.190537 192 236 167 0.000000 -1.000000 0.000000
-0.381851 -0.132800 -0.381186 192 236 167 -1.000000 0.000000 0.000000
-0.325751 -0.165872 -0.113769 192 236 167 0.000000 -1.000000 0.000000
-0.354080 -0.090893 -0.076992 192 236 167 0.000000 1.000000 0.000000
-0.134847 -0.070064 -0.399360 192 236 167 0.000000 0.924475 -0.381243
0.058896 -0.066339 -0.193058 192 236 167 0.000000 1.000000 0.000000
-0.245785 -0.066339 -0.173735 192 236 167 0.000000 1.000000 0.000000
-0.235225 -0.090893 -0.493696 192 236 167 0.000000 1.000000 0.000000
-0.229834 -0.165872 -0.088616 192 236 167 0.000000 -1.000000 0.000000
-0.290061 -0.083960 -0.430946 192 236 167 -0.381253 0.924471 0.000000
0.066333 -0.071462 -0.402750 192 236 167 0.000000 0.924475 -0.381243
0.046088 -0.165872 -0.403118 192 236 167 0.000000 -1.000000 0.000000
-0.199935 -0.066339 -0.284670 192 236 167 0.000000 1.000000 0.000000
-0.381851 -0.158021 -0.337385 192 236 167 -1.000000 0.000000 0.000000
-0.169963 -0.165872 -0.190609 192 236 167 0.000000 -1.000000 0.000000
-0.093974 -0.066339 -0.164714 192 236 167 0.000000 1.000000 0.000000
-0.012019 -0.090893 -0.505433 192 236 167 0.000000 1.000000 0.000000
-0.258131 -0.070792 -0.223311 192 236 167 -0.381253 0.924471 0.000000
-0.108146 -0.066339 -0.030878 192 236 167 0.000000 1.000000 0.000000
-0.132334 -0.090893 -0.493310 192 236 167 0.000000 1.000000 0.000000
-0.279702 -0.079688 -0.352590 192 236 167 -0.381253 0.924471 0.000000
-0.103119 -0.066339 -0.123644 192 236 167 0.000000 1.000000 0.000000
-0.247059 -0.090893 -0.496665 192 236 167 0.000000 1.000000 0.000000
-0.346694 -0.090893 -0.380474 192 236 167 0.000000 1.000000 0.000000
-0.285733 -0.121376 -0.449867 192 236 167 0.000000 0.000000 1.000000
0.002009 -0.080095 -0.423684 192 236 167 0.000000 0.924475 -0.381243
-0.140474 -0.066339 -0.170109 192 236 167 0.000000 1.000000 0.000000
0.033971 -0.164109 -0.524846 192 236 167 0.000000 0.000000 -1.000000
-0.080395 -0.130764 -0.524846 192 236 167 0.000000 0.000000 -1.000000
-0.363655 -0.165872 -0.074534 192 236 167 0.000000 -1.000000 0.000000
-0.088062 -0.066339 -0.243487 192 236 167 0.000000 1.000000 0.000000
0.050920 -0.075098 -0.411565 192 236 167 0.000000 0.924475 -0.381243
-0.096883 -0.066339 -0.124541 192 236 167 0.000000 1.000000 0.000000
-0.191537 -0.098635 -0.449867 192 236 167 0.000000 0.000000 1.000000
-0.306872 -0.120333 -0.453448 192 236 167 1.000000 0.000000 0.000000
-0.098324 -0.165872 -0.192010 192 236 167 0.000000 -1.000000 0.000000
-0.381851 -0.095752 -0.134301 192 236 167 -1.000000 0.000000 0.000000
-0.108299 -0.066339 -0.033882 192 236 167 0.000000 1.000000 0.000000
-0.058185 -0.066339 -0.061883 192 236 167 0.000000 1.000000 0.000000
-0.288708 -0.165872 -0.373276 192 236 167 0.000000 -1.000000 0.000000
-0.134413 -0.165872 -0.166046 192 236 167 0.000000 -1.000000 0.000000
-0.381851 -0.096793 -0.048398 192 236 167 -1.000000 0.000000 0.000000
-0.274891 -0.077704 -0.195537 192 236 167 -0.381253 0.924471 0.000000
-0.029693 -0.127211 -0.524846 192 236 167 0.000000 0.000000 -1.000000
0.013896 -0.066339 -0.138280 192 236 167 0.000000 1.000000 0.000000
-0.381851 -0.157805 -0.078328 192 236 167 -1.000000 0.000000 0.000000
-0.042971 -0.066339 -0.183416 192 236 167 0.000000 1.000000 0.000000
-0.205145 -0.090893 -0.515030 192 236 167 0.000000 1.000000 0.000000
-0.350830 -0.160289 -0.524846 192 236 167 0.000000 0.000000 -1.000000
-0.206363 -0.165872 -0.016813 192 236 167 0.000000 -1.000000 0.000000
-0.179308 -0.165872 -0.104118 192 236 167 0.000000 -1.000000 0.000000
-0.281744 -0.138745 -0.524846 192 236 167 0.000000 0.000000 -1.000000
-0.110668 -0.165872 -0.194192 192 236 167 0.000000 -1.000000 0.000000
0.015306 -0.165872 -0.326971 192 236 167 0.000000 -1.000000 0.000000
0.050036 -0.165872 -0.123295 192 236 167 0.000000 -1.000000 0.000000
-0.294383 -0.165872 -0.198666 192 236 167 0.000000 -1.000000 0.000000
0.037387 -0.090893 -0.478282 192 236 167 0.000000 1.000000 0.000000
-0.316852 -0.090893 -0.016276 192 236 167 0.000000 1.000000 0.000000
-0.118636 -0.165872 -0.042268 192 236 167 0.000000 -1.000000 0.000000
-0.362823 -0.165872 -0.099242 192 236 167 0.000000 -1.000000 0.000000
-0.369882 -0.090893 -0.036784 192 236 167 0.000000 1.000000 0.000000
-0.191246 -0.124592 -0.524846 192 236 167 0.000000 0.000000 -1.000000
-0.341023 -0.165872 -0.002530 192 236 167 0.000000 -1.000000 0.000000
-0.302037 -0.165872 -0.203795 192 236 167 0.000000 -1.000000 0.000000
-0.172913 -0.165872 -0.385763 192 236 167 0.000000 -1.000000 0.000000
-0.381851 -0.146046 -0.138665 192 236 167 -1.000000 0.000000 0.000000
-0.299281 -0.165872 -0.108194 192 236 167 0.000000 -1.000000 0.000000
-0.372810 -0.090893 -0.288130 192 236 167 0.000000 1.000000 0.000000
-0.121157 -0.090298 -0.448425 192 236 167 0.000000 0.924475 -0.381243
-0.117505 -0.165872 -0.342789 192 236 167 0.000000 -1.000000 0.000000
-0.194423 -0.066339 -0.153026 192 236 167 0.000000 1.000000 0.000000
-0.191331 -0.130478 -0.449867 192 236 167 0.000000 0.000000 1.000000
-0.222033 -0.066339 -0.006258 192 236 167 0.000000 1.000000 0.000000
-0.141469 -0.066339 -0.151069 192 236 167 0.000000 1.000000 0.000000
-0.237322 -0.066339 -0.247172 192 236 167 0.000000 1.000000 0.000000
-0.326781 -0.164435 -0.449867 192 236 167 0.000000 0.000000 1.000000
-0.098428 -0.165872 -0.228873 192 236 167 0.000000 -1.000000 0.000000
-0.353517 -0.090893 -0.226792 192 236 167 0.000000 1.000000 0.000000
0.015940 -0.165872 -0.317305 192 236 167 0.000000 -1.000000 0.000000
-0.078028 -0.066339 -0.110732 192 236 167 0.000000 1.000000 0.000000
0.030437 -0.066339 -0.065057 192 236 167 0.000000 1.000000 0.000000
0.034417 -0.090893 -0.517326 192 236 167 0.000000 1.000000 0.000000
-0.381851 -0.126749 -0.110032 192 236 167 -1.000000 0.000000 0.000000
-0.208226 -0.066339 -0.198234 192 236 167 0.000000 1.000000 0.000000
-0.341794 -0.090893 -0.207826 192 236 167 0.000000 1.000000 0.000000
-0.381851 -0.131990 -0.011689 192 236 167 -1.000000 0.000000 0.000000
0.059265 -0.066339 -0.176035 192 236 167 0.000000 1.000000 0.000000
-0.314943 -0.132859 -0.524846 192 236 167 0.000000 0.000000 -1.000000
0.012427 -0.066339 -0.322668 192 236 167 0.000000 1.000000 0.000000
-0.202921 -0.165872 -0.075479 192 236 167 0.000000 -1.000000 0.000000
-0.211947 -0.094304 -0.449867 192 236 167 0.000000 0.000000 1.000000
-0.132986 -0.165872 -0.261566 192 236 167 0.000000 -1.000000 0.000000
-0.063467 -0.102982 -0.449867 192 236 167 0.000000 0.000000 1.000000
-0.313755 -0.165872 -0.097245 192 236 167 0.000000 -1.000000 0.000000
-0.216563 -0.165872 -0.342376 192 236 167 0.000000 -1.000000 0.000000
-0.067450 -0.165872 -0.128364 192 236 167 0.000000 -1.000000 0.000000
-0.149174 -0.066339 -0.168414 192 236 167 0.000000 1.000000 0.000000
-0.048071 -0.066339 -0.299514 192 236 167 0.000000 1.000000 0.000000
-0.022746 -0.090893 -0.501907 192 236 167 0.000000 1.000000 0.000000
-0.033146 -0.066339 -0.093226 192 236 167 0.000000 1.000000 0.000000
-0.159022 -0.066339 -0.134298 192 236 167 0.000000 1.000000 0.000000
-0.286495 -0.165872 -0.173070 192 236 167 0.000000 -1.000000 0.000000
-0.381851 -0.137537 -0.023953 192 236 167 -1.000000 0.000000 0.000000
-0.233716 -0.066339 -0.085510 192 236 167 0.000000 1.000000 0.000000
0.006604 -0.066339 -0.062606 192 236 167 0.000000 1.000000 0.000000
-0.288887 -0.165872 -0.018862 192 236 167 0.000000 -1.000000 0.000000
-0.280976 -0.080213 -0.241060 192 236 167 -0.381253 0.924471 0.000000
-0.278785 -0.079310 -0.134122 192 236 167 -0.381253 0.924471 0.000000
-0.073410 -0.066339 -0.115131 192 236 167 0.000000 1.000000 0.000000
-0.123390 -0.165872 -0.167610 192 236 167 0.000000 -1.000000 0.000000
-0.340928 -0.090893 -0.520519 192 236 167 0.000000 1.000000 0.000000
-0.161868 -0.090893 -0.484263 192 236 167 0.000000 1.000000 0.000000
-0.323572 -0.148301 -0.524846 192 236 167 0.000000 0.000000 -1.000000
-0.269766 -0.165872 -0.045557 192 236 167 0.000000 -1.000000 0.000000
-0.066388 -0.066339 -0.069323 192 236 167 0.000000 1.000000 0.000000
0.043406 -0.090893 -0.483264 192 236 167 0.000000 1.000000 0.000000
-0.212050 -0.066339 -0.150592 192 236 167 0.000000 1.000000 0.000000
-0.279878 -0.165872 -0.287825 192 236 167 0.000000 -1.000000 0.000000
-0.021216 -0.066339 -0.277700 192 236 167 0.000000 1.000000 0.000000
0.066855 -0.066339 -0.290191 192 236 167 0.000000 1.000000 0.000000
-0.191849 -0.165872 -0.320282 192 236 167 0.000000 -1.000000 0.000000
-0.305957 -0.090516 -0.371343 192 236 167 -0.381253 0.924471 0.000000
-0.103272 -0.165872 -0.230427 192 236 167 0.000000 -1.000000 0.000000
-0.241314 -0.066339 -0.135414 192 236 167 0.000000 1.000000 0.000000
-0.205229 -0.066339 -0.351551 192 236 167 0.000000 1.000000 0.000000
-0.339149 -0.165872 -0.342365 192 236 167 0.000000 -1.000000 0.000000
-0.211287 -0.066339 -0.217100 192 236 167 0.000000 1.000000 0.000000
0.032147 -0.165872 -0.251761 192 236 167 0.000000 -1.000000 0.000000
0.028913 -0.073158 -0.406862 192 236 167 0.000000 0.924475 -0.381243
-0.366721 -0.090893 -0.325399 192 236 167 0.000000 1.000000 0.000000
-0.334709 -0.165872 -0.330338 192 236 167 0.000000 -1.000000 0.000000
0.030299 -0.067474 -0.393078 192 236 167 0.000000 0.924475 -0.381243
-0.228109 -0.165872 -0.438013 192 236 167 0.000000 -1.000000 0.000000
-0.334118 -0.090893 -0.334234 192 236 167 0.000000 1.000000 0.000000
-0.105659 -0.100210 -0.449867 192 236 167 0.000000 0.000000 1.000000
-0.298565 -0.087467 -0.364363 192 236 167 -0.381253 0.924471 0.000000
-0.034426 -0.090893 -0.449959 192 236 167 0.000000 1.000000 0.000000
-0.041304 -0.066339 -0.120831 192 236 167 0.000000 1.000000 0.000000
-0.345259 -0.143016 -0.449867 192 236 167 0.000000 0.000000 1.000000
-0.156799 -0.165872 -0.362405 192 236 167 0.000000 -1.000000 0.000000
-0.306872 -0.109796 -0.522308 192 236 167 1.000000 0.000000 0.000000
-0.362487 -0.090893 -0.481626 192 236 167 0.000000 1.000000 0.000000
0.000705 -0.165872 -0.303725 192 236 167 0.000000 -1.000000 0.000000
-0.128460 -0.165872 -0.257175 192 236 167 0.000000 -1.000000 0.000000
-0.377883 -0.090893 -0.428437 192 236 167 0.000000 1.000000 0.000000
-0.221711 -0.066339 -0.038565 192 236 167 0.000000 1.000000 0.000000
-0.198124 -0.066339 -0.151716 192 236 167 0.000000 1.000000 0.000000
-0.290153 -0.083998 -0.316331 192 236 167 -0.381253 0.924471 0.000000
-0.199014 -0.165872 -0.270800 192 236 167 0.000000 -1.000000 0.000000
-0.265548 -0.165872 -0.321540 192 236 167 0.000000 -1.000000 0.000000
-0.228514 -0.066339 -0.363929 192 236 167 0.000000 1.000000 0.000000
-0.274103 -0.156658 -0.524846 192 236 167 0.000000 0.000000 -1.000000
-0.140300 -0.066339 -0.054655 192 236 167 0.000000 1.000000 0.000000
-0.381851 -0.138881 -0.407545 192 236 167 -1.000000 0.000000 0.000000
-0.139535 -0.165872 -0.034474 192 236 167 0.000000 -1.000000 0.000000
-0.184643 -0.090893 -0.458127 192 236 167 0.000000 1.000000 0.000000
0.005800 -0.066339 -0.184887 192 236 167 0.000000 1.000000 0.000000
-0.347417 -0.090893 -0.300831 192 236 167 0.000000 1.000000 0.000000
-0.017125 -0.165872 -0.437915 192 236 167 0.000000 -1.000000 0.000000
0.037119 -0.066339 -0.285887 192 236 167 0.000000 1.000000 0.000000
-0.090933 -0.165872 -0.213748 192 236 167 0.000000 -1.000000 0.000000
-0.089585 -0.117724 -0.524846 192 236 167 0.000000 0.000000 -1.000000
-0.110980 -0.165872 -0.182789 192 236 167 0.000000 -1.000000 0.000000
-0.318465 -0.165872 -0.184357 192 236 167 0.000000 -1.000000 0.000000
-0.262687 -0.079527 -0.422306 192 236 167 0.000000 0.924475 -0.381243
-0.174643 -0.165522 -0.524846 192 236 167 0.000000 0.000000 -1.000000
-0.036694 -0.165872 -0.380082 192 236 167 0.000000 -1.000000 0.000000
-0.095581 -0.066339 -0.095868 192 236 167 0.000000 1.000000 0.000000
-0.274932 -0.077721 -0.351898 192 236 167 -0.381253 0.924471 0.000000
-0.267005 -0.165872 -0.017985 192 236 167 0.000000 -1.000000 0.000000
-0.111822 -0.066339 -0.323599 192 236 167 0.000000 1.000000 0.000000
-0.231575 -0.066339 -0.387421 192 236 167 0.000000 1.000000 0.000000
-0.123599 -0.165872 -0.276464 192 236 167 0.000000 -1.000000 0.000000
-0.320302 -0.165872 -0.024518 192 236 167 0.000000 -1.000000 0.000000
-0.348633 -0.165872 -0.007319 192 236 167 0.000000 -1.000000 0.000000
-0.052982 -0.165872 -0.415825 192 236 167 0.000000 -1.000000 0.000000
-0.310639 -0.090893 -0.039957 192 236 167 0.000000 1.000000 0.000000
-0.381851 -0.163179 -0.015951 192 236 167 -1.000000 0.000000 0.000000
-0.118546 -0.066339 -0.258167 192 236 167 0.000000 1.000000 0.000000
-0.381851 -0.147177 -0.124659 192 236 167 -1.000000 0.000000 0.000000
-0.038585 -0.066339 -0.383074 192 236 167 0.000000 1.000000 0.000000
-0.145265 -0.165872 -0.343639 192 236 167 0.000000 -1.000000 0.000000
-0.059164 -0.090893 -0.481991 192 236 167 0.000000 1.000000 0.000000
0.000362 -0.165872 -0.356196 192 236 167 0.000000 -1.000000 0.000000
-0.005028 -0.066339 -0.013297 192 236 167 0.000000 1.000000 0.000000
-0.052067 -0.165872 -0.443731 192 236 167 0.000000 -1.000000 0.000000
0.042654 -0.165872 -0.171868 192 236 167 0.000000 -1.000000 0.000000
-0.111680 -0.066339 -0.328256 192 236 167 0.000000 1.000000 0.000000
-0.332959 -0.090893 -0.245023 192 236 167 0.000000 1.000000 0.000000
0.008768 -0.165872 -0.299942 192 236 167 0.000000 -1.000000 0.000000
-0.188522 -0.165872 -0.316832 192 236 167 0.000000 -1.000000 0.000000
-0.173203 -0.095239 -0.449867 192 236 167 0.000000 0.000000 1.000000
-0.381851 -0.153623 -0.083130 192 236 167 -1.000000 0.000000 0.000000
-0.313097 -0.165872 -0.446015 192 236 167 0.000000 -1.000000 0.000000
-0.263194 -0.103680 -0.524846 192 236 167 0.000000 0.000000 -1.000000
-0.361388 -0.140954 -0.449867 192 236 167 0.000000 0.000000 1.000000
-0.243807 -0.165872 -0.069816 192 236 167 0.000000 -1.000000 0.000000
-0.306872 -0.169482 -0.473093 192 236 167 1.000000 0.000000 0.000000
-0.141927 -0.066339 -0.163233 192 236 167 0.000000 1.000000 0.000000
-0.353804 -0.165872 -0.102471 192 236 167 0.000000 -1.000000 0.000000
-0.306872 -0.160753 -0.508866 192 236 167 1.000000 0.000000 0.000000
-0.372686 -0.090893 -0.266210 192 236 167 0.000000 1.000000 0.000000
-0.231349 -0.165872 -0.381608 192 236 167 0.000000 -1.000000 0.000000
-0.126825 -0.066339 -0.386364 192 236 167 0.000000 1.000000 0.000000
-0.334600 -0.165872 -0.208991 192 236 167 0.000000 -1.000000 0.000000
-0.140610 -0.165872 -0.145693 192 236 167 0.000000 -1.000000 0.000000
-0.053547 -0.165872 -0.302030 192 236 167 0.000000 -1.000000 0.000000
-0.273112 -0.076970 -0.415882 192 236 167 -0.381253 0.924471 0.000000
-0.093830 -0.085172 -0.435994 192 236 167 0.000000 0.924475 -0.381243
0.013647 -0.072949 -0.406354 192 236 167 0.000000 0.924475 -0.381243
0.008689 -0.165872 -0.095402 192 236 167 0.000000 -1.000000 0.000000
-0.126820 -0.165872 -0.090911 192 236 167 0.000000 -1.000000 0.000000
-0.314551 -0.090893 -0.055790 192 236 167 0.000000 1.000000 0.000000
-0.234188 -0.165872 -0.328705 192 236 167 0.000000 -1.000000 0.000000
-0.056071 -0.066339 -0.014579 192 236 167 0.000000 1.000000 0.000000
-0.192537 -0.165872 -0.375794 192 236 167 0.000000 -1.000000 0.000000
-0.186076 -0.124584 -0.449867 192 236 167 0.000000 0.000000 1.000000
-0.056145 -0.066339 -0.139740 192 236 167 0.000000 1.000000 0.000000
-0.381851 -0.095276 -0.481260 192 236 167 -1.000000 0.000000 0.000000
0.005241 -0.066339 -0.226628 192 236 167 0.000000 1.000000 0.000000
-0.138987 -0.165872 -0.208201 192 236 167 0.000000 -1.000000 0.000000
-0.211882 -0.088901 -0.445037 192 236 167 0.000000 0.924475 -0.381243
-0.334516 -0.090893 -0.248292 192 236 167 0.000000 1.000000 0.000000
-0.186870 -0.090893 -0.500615 192 236 167 0.000000 1.000000 0.000000
-0.100042 -0.071083 -0.401829 192 236 167 0.000000 0.924475 -0.381243
-0.216245 -0.066339 -0.299227 192 236 167 0.000000 1.000000 0.000000
-0.170207 -0.165872 -0.320016 192 236 167 0.000000 -1.000000 0.000000
-0.277821 -0.165872 -0.336821 192 236 167 0.000000 -1.000000 0.000000
-0.378003 -0.165872 -0.351961 192 236 167 0.000000 -1.000000 0.000000
-0.307617 -0.079969 -0.464013 192 236 167 0.997684 0.068016 0.000000
-0.031682 -0.165872 -0.016037 192 236 167 0.000000 -1.000000 0.000000
-0.005031 -0.066339 -0.387228 192 236 167 0.000000 1.000000 0.000000
-0.236995 -0.165872 -0.311616 192 236 167 0.000000 -1.000000 0.000000
-0.175090 -0.165872 -0.314042 192 236 167 0.000000 -1.000000 0.000000
-0.072363 -0.165872 -0.334417 192 236 167 0.000000 -1.000000 0.000000
-0.326979 -0.098928 -0.524846 192 236 167 0.000000 0.000000 -1.000000
-0.374138 -0.090893 -0.324647 192 236 167 0.000000 1.000000 0.000000
-0.297778 -0.087143 -0.389490 192 236 167 -0.381253 0.924471 0.000000
-0.223819 -0.165872 -0.201112 192 236 167 0.000000 -1.000000 0.000000
-0.126015 -0.066339 -0.298348 192 236 167 0.000000 1.000000 0.000000
-0.258310 -0.070866 -0.068324 192 236 167 -0.381253 0.924471 0.000000
-0.262501 -0.072594 -0.280455 192 236 167 -0.381253 0.924471 0.000000
-0.381851 -0.129125 -0.391092 192 236 167 -1.000000 0.000000 0.000000
-0.230886 -0.157475 -0.524846 192 236 167 0.000000 0.000000 -1.000000
-0.146885 -0.066339 -0.038840 192 236 167 0.000000 1.000000 0.000000
-0.364607 -0.148790 -0.524846 192 236 167 0.000000 0.000000 -1.000000
-0.016860 -0.165872 -0.138204 192 236 167 0.000000 -1.000000 0.000000
0.031971 -0.066339 -0.138343 192 236 167 0.000000 1.000000 0.000000
-0.381851 -0.156086 -0.117532 192 236 167 -1.000000 0.000000 0.000000
-0.194304 -0.066339 -0.226566 192 236 167 0.000000 1.000000 0.000000
-0.063335 -0.066339 -0.359388 192 236 167 0.000000 1.000000 0.000000
-0.064342 -0.090893 -0.489879 192 236 167 0.000000 1.000000 0.000000
-0.255217 -0.165872 -0.033970 192 236 167 0.000000 -1.000000 0.000000
-0.364578 -0.103963 -0.524846 192 236 167 0.000000 0.000000 -1.000000
-0.363755 -0.165872 -0.386604 192 236 167 0.000000 -1.000000 0.000000
-0.381851 -0.127935 -0.437070 192 236 167 -1.000000 0.000000 0.000000
-0.267590 -0.165872 -0.103002 192 236 167 0.000000 -1.000000 0.000000
-0.159471 -0.066339 -0.090081 192 236 167 0.000000 1.000000 0.000000
-0.244362 -0.165872 -0.112641 192 236 167 0.000000 -1.000000 0.000000
-0.040901 -0.066339 -0.313791 192 236 167 0.000000 1.000000 0.000000
-0.288743 -0.090893 -0.522067 192 236 167 0.000000 1.000000 0.000000
0.038370 -0.165872 -0.327847 192 236 167 0.000000 -1.000000 0.000000
0.037451 -0.163771 -0.449867 192 236 167 0.000000 0.000000 1.000000
-0.109552 -0.066339 -0.357078 192 236 167 0.000000 1.000000 0.000000
-0.125101 -0.066339 -0.010906 192 236 167 0.000000 1.000000 0.000000
-0.107847 -0.066339 -0.388249 192 236 167 0.000000 1.000000 0.000000
-0.027319 -0.165872 -0.406487 192 236 167 0.000000 -1.000000 0.000000
-0.192187 -0.066339 -0.188741 192 236 167 0.000000 1.000000 0.000000
-0.240819 -0.100067 -0.524846 192 236 167 0.000000 0.000000 -1.000000
-0.159808 -0.165872 -0.018554 192 236 167 0.000000 -1.000000 0.000000
-0.272418 -0.141081 -0.449867 192 236 167 0.000000 0.000000 1.000000
-0.248729 -0.081921 -0.428110 192 236 167 0.000000 0.924475 -0.381243
-0.093739 -0.076197 -0.414229 192 236 167 0.000000 0.924475 -0.381243
-0.113909 -0.165872 -0.233728 192 236 167 0.000000 -1.000000 0.000000
0.040970 -0.075876 -0.413453 192 236 167 0.000000 0.924475 -0.381243
-0.244864 -0.165872 -0.116487 192 236 167 0.000000 -1.000000 0.000000
-0.381851 -0.095869 -0.470839 192 236 167 -1.000000 0.000000 0.000000
-0.072921 -0.165872 -0.242143 192 236 167 0.000000 -1.000000 0.000000
-0.089109 -0.066339 -0.102336 192 236 167 0.000000 1.000000 0.000000
-0.110769 -0.123337 -0.449867 192 236 167 0.000000 0.000000 1.000000
0.017854 -0.165872 -0.361167 192 236 167 0.000000 -1.000000 0.000000
-0.310615 -0.090893 -0.283400 192 236 167 0.000000 1.000000 0.000000
-0.381851 -0.134941 -0.402021 192 236 167 -1.000000 0.000000 0.000000
0.040198 -0.066339 -0.267660 192 236 167 0.000000 1.000000 0.000000
-0.072496 -0.140401 -0.524846 192 236 167 0.000000 0.000000 -1.000000
-0.239507 -0.165872 -0.104854 192 236 167 0.000000 -1.000000 0.000000
-0.029943 -0.090893 -0.485458 192 236 167 0.000000 1.000000 0.000000
-0.002013 -0.165872 -0.117590 192 236 167 0.000000 -1.000000 0.000000
-0.314142 -0.152179 -0.449867 192 236 167 0.000000 0.000000 1.000000
-0.323541 -0.165872 -0.330884 192 236 167 0.000000 -1.000000 0.000000
0.043609 -0.066339 -0.355640 192 236 167 0.000000 1.000000 0.000000
-0.231250 -0.165872 -0.080032 192 236 167 0.000000 -1.000000 0.000000
-0.334092 -0.165872 -0.017900 192 236 167 0.000000 -1.000000 0.000000
-0.335392 -0.090893 -0.173448 192 236 167 0.000000 1.000000 0.000000
-0.201046 -0.165872 -0.414340 192 236 167 0.000000 -1.000000 0.000000
-0.069028 -0.090893 -0.492087 192 236 167 0.000000 1.000000 0.000000
-0.359469 -0.165872 -0.426820 192 236 167 0.000000 -1.000000 0.000000
-0.374278 -0.165872 -0.274070 192 236 167 0.000000 -1.000000 0.000000
-0.317727 -0.165872 -0.055477 192 236 167 0.000000 -1.000000 0.000000
-0.169764 -0.090893 -0.519969 192 236 167 0.000000 1.000000 0.000000
-0.023249 -0.165872 -0.448908 192 236 167 0.000000 -1.000000 0.000000
-0.286044 -0.090893 -0.463497 192 236 167 0.000000 1.000000 0.000000
-0.093070 -0.084424 -0.434180 192 236 167 0.000000 0.924475 -0.381243
-0.046085 -0.066339 -0.035524 192 236 167 0.000000 1.000000 0.000000
-0.094459 -0.139699 -0.524846 192 236 167 0.000000 0.000000 -1.000000
-0.348678 -0.165872 -0.139288 192 236 167 0.000000 -1.000000 0.000000
-0.215415 -0.165872 -0.119148 192 236 167 0.000000 -1.000000 0.000000
-0.123726 -0.066339 -0.240390 192 236 167 0.000000 1.000000 0.000000
-0.218268 -0.165872 -0.167098 192 236 167 0.000000 -1.000000 0.000000
-0.381851 -0.153385 -0.207231 192 236 167 -1.000000 0.000000 0.000000
-0.108025 -0.110621 -0.449867 192 236 167 0.000000 0.000000 1.000000
-0.064614 -0.165872 -0.210645 192 236 167 0.000000 -1.000000 0.000000
-0.079172 -0.165872 -0.175495 192 236 167 0.000000 -1.000000 0.000000
-0.306872 -0.105830 -0.476531 192 236 167 1.000000 0.000000 0.000000
-0.056016 -0.066339 -0.114012 192 236 167 0.000000 1.000000 0.000000
-0.012925 -0.066339 -0.068997 192 236 167 0.000000 1.000000 0.000000
-0.263581 -0.073040 -0.012222 192 236 167 -0.381253 0.924471 0.000000
-0.265797 -0.095203 -0.449867 192 236 167 0.000000 0.000000 1.000000
-0.206929 -0.089696 -0.446966 192 236 167 0.000000 0.924475 -0.381243
-0.288056 -0.083133 -0.185009 192 236 167 -0.381253 0.924471 0.000000
0.024340 -0.066339 -0.325709 192 236 167 0.000000 1.000000 0.000000
-0.242003 -0.066339 -0.083753 192 236 167 0.000000 1.000000 0.000000
-0.039994 -0.165872 -0.210201 192 236 167 0.000000 -1.000000 0.000000
-0.043988 -0.080099 -0.423693 192 236 167 0.000000 0.924475 -0.381243
-0.275066 -0.165872 -0.324109 192 236 167 0.000000 -1.000000 0.000000
-0.058342 -0.066339 -0.240542 192 236 167 0.000000 1.000000 0.000000
-0.289725 -0.143490 -0.449867 192 236 167 0.000000 0.000000 1.000000
-0.381851 -0.163318 -0.408653 192 236 167 -1.000000 0.000000 0.000000
-0.074400 -0.089200 -0.445763 192 236 167 0.000000 0.924475 -0.381243
-0.368798 -0.090893 -0.481789 192 236 167 0.000000 1.000000 0.000000
-0.214401 -0.066339 -0.076595 192 236 167 0.000000 1.000000 0.000000
0.007545 -0.067001 -0.391931 192 236 167 0.000000 0.924475 -0.381243
-0.259790 -0.165872 -0.177456 192 236 167 0.000000 -1.000000 0.000000
-0.216751 -0.165872 -0.237187 192 236 167 0.000000 -1.000000 0.000000
-0.030938 -0.144810 -0.524846 192 236 167 0.000000 0.000000 -1.000000
-0.045630 -0.090893 -0.487471 192 236 167 0.000000 1.000000 0.000000
0.057214 -0.165872 -0.180314 192 236 167 0.000000 -1.000000 0.000000
0.038842 -0.066339 -0.208697 192 236 167 0.000000 1.000000 0.000000
0.016667 -0.165872 -0.444429 192 236 167 0.000000 -1.000000 0.000000
-0.242145 -0.066339 -0.272472 192 236 167 0.000000 1.000000 0.000000
-0.095198 -0.165872 -0.420925 192 236 167 0.000000 -1.000000 0.000000
-0.057826 -0.165872 -0.259458 192 236 167 0.000000 -1.000000 0.000000
-0.161161 -0.165872 -0.379454 192 236 167 0.000000 -1.000000 0.000000
-0.001672 -0.066339 -0.168967 192 236 167 0.000000 1.000000 0.000000
-0.335925 -0.132167 -0.449867 192 236 167 0.000000 0.000000 1.000000
-0.306734 -0.090836 -0.318187 192 236 167 -0.381253 0.924471 0.000000
-0.112577 -0.090893 -0.492153 192 236 167 0.000000 1.000000 0.000000
-0.008719 -0.066339 -0.041267 192 236 167 0.000000 1.000000 0.000000
-0.133660 -0.070971 -0.401558 192 236 167 0.000000 0.924475 -0.381243
-0.129199 -0.066339 -0.319453 192 236 167 0.000000 1.000000 0.000000
0.018228 -0.090893 -0.478589 192 236 167 0.000000 1.000000 0.000000
0.024560 -0.119912 -0.449867 192 236 167 0.000000 0.000000 1.000000
0.009991 -0.165872 -0.150620 192 236 167 0.000000 -1.000000 0.000000
-0.381851 -0.162560 -0.495227 192 236 167 -1.000000 0.000000 0.000000
-0.229490 -0.165872 -0.327330 192 236 167 0.000000 -1.000000 0.000000
0.063925 -0.066339 -0.038846 192 236 167 0.000000 1.000000 0.000000
-0.149887 -0.066339 -0.128533 192 236 167 0.000000 1.000000 0.000000
-0.343600 -0.149103 -0.524846 192 236 167 0.000000 0.000000 -1.000000
-0.078594 -0.066339 -0.244337 192 236 167 0.000000 1.000000 0.000000
-0.260678 -0.071842 -0.383268 192 236 167 -0.381253 0.924471 0.000000
-0.256753 -0.165872 -0.025748 192 236 167 0.000000 -1.000000 0.000000
-0.367831 -0.090893 -0.138612 192 236 167 0.000000 1.000000 0.000000
-0.381851 -0.091190 -0.170453 192 236 167 -1.000000 0.000000 0.000000
0.011820 -0.165872 -0.250272 192 236 167 0.000000 -1.000000 0.000000
-0.351784 -0.165872 -0.254048 192 236 167 0.000000 -1.000000 0.000000
-0.381851 -0.106888 -0.212632 192 236 167 -1.000000 0.000000 0.000000
-0.370484 -0.090893 -0.078439 192 236 167 0.000000 1.000000 0.000000
-0.243139 -0.094438 -0.524846 192 236 167 0.000000 0.000000 -1.000000
-0.124203 -0.079563 -0.422393 192 236 167 0.000000 0.924475 -0.381243
-0.230830 -0.165872 -0.348060 192 236 167 0.000000 -1.000000 0.000000
-0.020459 -0.119745 -0.449867 192 236 167 0.000000 0.000000 1.000000
-0.137316 -0.090893 -0.455958 192 236 167 0.000000 1.000000 0.000000
-0.381364 -0.090893 -0.145556 192 236 167 0.000000 1.000000 0.000000
-0.167603 -0.092363 -0.524846 192 236 167 0.000000 0.000000 -1.000000
-0.339720 -0.090893 -0.008668 192 236 167 0.000000 1.000000 0.000000
0.065687 -0.165872 -0.213024 192 236 167 0.000000 -1.000000 0.000000
-0.116992 -0.066339 -0.174401 192 236 167 0.000000 1.000000 0.000000
-0.154551 -0.090893 -0.461760 192 236 167 0.000000 1.000000 0.000000
-0.227748 -0.066339 -0.069509 192 236 167 0.000000 1.000000 0.000000
-0.296455 -0.086597 -0.056290 192 236 167 -0.381253 0.924471 0.000000
-0.367994 -0.086000 -0.524846 192 236 167 0.000000 0.000000 -1.000000
-0.362210 -0.165872 -0.187886 192 236 167 0.000000 -1.000000 0.000000
0.030394 -0.098213 -0.524846 192 236 167 0.000000 0.000000 -1.000000
0.011582 -0.165872 -0.081452 192 236 167 0.000000 -1.000000 0.000000
-0.135911 -0.066339 -0.384471 192 236 167 0.000000 1.000000 0.000000
-0.354408 -0.165872 -0.010403 192 236 167 0.000000 -1.000000 0.000000
0.004470 -0.165872 -0.340974 192 236 167 0.000000 -1.000000 0.000000
-0.369642 -0.090893 -0.073423 192 236 167 0.000000 1.000000 0.000000
-0.087408 -0.165872 -0.429871 192 236 167 0.000000 -1.000000 0.000000
0.001638 -0.165872 -0.332993 192 236 167 0.000000 -1.000000 0.000000
-0.354354 -0.165872 -0.423968 192 236 167 0.000000 -1.000000 0.000000
-0.124849 -0.066339 -0.313233 192 236 167 0.000000 1.000000 0.000000
-0.306872 -0.114329 -0.471097 192 236 167 1.000000 0.000000 0.000000
-0.300397 -0.088223 -0.376353 192 236 167 -0.381253 0.924471 0.000000
-0.341171 -0.090893 -0.393071 192 236 167 0.000000 1.000000 0.000000
-0.336646 -0.090893 -0.448975 192 236 167 0.000000 1.000000 0.000000
-0.182709 -0.165872 -0.037329 192 236 167 0.000000 -1.000000 0.000000
-0.199312 -0.066339 -0.051752 192 236 167 0.000000 1.000000 0.000000
-0.307546 -0.090893 -0.085091 192 236 167 0.000000 1.000000 0.000000
-0.338860 -0.165872 -0.002591 192 236 167 0.000000 -1.000000 0.000000
-0.332948 -0.165872 -0.294021 192 236 167 0.000000 -1.000000 0.000000
-0.381851 -0.156975 -0.297505 192 236 167 -1.000000 0.000000 0.000000
-0.029121 -0.082726 -0.430063 192 236 167 0.000000 0.924475 -0.381243
0.002614 -0.066339 -0.237682 192 236 167 0.000000 1.000000 0.000000
