ply
format ascii 1.0
element vertex 713
property float x
property float y
property float z
property uchar red
property uchar green
property uchar blue
property float nx
property float ny
property float nz
end_header
0.568738 -0.306470 0.154612 62 169 77 0.998670 -0.015901 0.049052
0.593441 -0.129803 -0.000105 62 169 77 0.985493 0.164845 0.040361
0.510347 -0.115011 0.424669 62 169 77 0.574252 0.725312 0.379681
0.274293 -0.213911 0.508716 62 169 77 -0.011172 -0.979253 0.202333
0.573582 -0.300231 0.033412 62 169 77 0.999404 -0.016071 0.030560
0.591027 -0.201207 0.134496 62 169 77 0.846681 0.531124 0.032227
0.241126 -0.197066 0.486403 62 169 77 -0.002735 0.988547 0.150889
0.525547 -0.150747 0.447810 62 169 77 0.833196 0.226277 0.504562
0.301506 -0.167301 0.503001 62 169 77 -0.026418 0.127141 0.991533
0.469413 -0.314046 0.389809 62 169 77 -0.552292 -0.658562 -0.511145
0.413302 -0.290293 0.496661 62 169 77 -0.021243 0.032872 0.999234
0.240307 -0.196535 0.479736 62 169 77 -0.000509 0.999606 0.028064
0.336449 -0.045329 0.239478 62 169 77 -0.069466 0.996680 0.042460
0.166134 -0.196295 0.458665 62 169 77 0.000000 1.000000 0.000000
0.458383 -0.039117 0.053038 62 169 77 0.019319 0.999709 -0.014478
0.428553 -0.314301 0.489296 62 169 77 0.000000 -1.000000 -0.000026
0.213972 -0.314299 0.451935 62 169 77 0.000022 -1.000000 0.000000
0.567957 -0.279858 0.114836 62 169 77 0.270893 0.961840 0.038487
0.233978 -0.060396 0.356083 62 169 77 0.038558 0.984870 0.168948
0.143963 -0.150468 0.489271 62 169 77 0.049776 0.040156 -0.997953
0.411394 -0.314301 0.475287 62 169 77 0.000000 -1.000000 -0.000026
0.335756 -0.071772 0.391309 62 169 77 0.009318 0.960487 0.278168
0.241547 -0.048326 0.113466 62 169 77 -0.090239 0.995818 -0.014271
0.459352 -0.304574 0.430635 62 169 77 -0.011495 0.999911 -0.006812
0.251079 -0.149985 0.496300 62 169 77 -0.037939 0.266926 0.962970
0.151927 -0.288558 0.493315 62 169 77 -0.031258 0.039393 0.998735
0.557532 -0.313739 0.349464 62 169 77 0.245156 -0.969403 0.012545
0.592911 -0.158722 0.037436 62 169 77 0.999153 -0.013014 0.039027
0.435337 -0.205083 0.492922 62 169 77 -0.011437 0.177115 0.984124
0.417185 -0.039210 -0.001557 62 169 77 0.016225 0.999715 -0.017532
0.564809 -0.212190 0.228362 62 169 77 0.998633 0.013705 0.050435
0.393942 -0.255455 0.495118 62 169 77 -0.011281 0.032814 0.999398
0.507478 -0.216241 0.467828 62 169 77 0.041063 -0.997264 0.061472
0.549039 -0.068165 0.040387 62 169 77 0.447530 0.894085 0.018156
0.199591 -0.068653 0.394507 62 169 77 0.037521 0.929085 0.367958
0.574432 -0.267537 -0.003592 62 169 77 0.999862 -0.014900 -0.007391
0.474742 -0.058111 0.279889 62 169 77 0.135830 0.976262 0.168707
0.167002 -0.082233 0.429683 62 169 77 0.002779 0.919683 0.392651
0.205252 -0.128797 0.484870 62 169 77 -0.029291 0.463221 0.885759
0.190341 -0.046394 0.201877 62 169 77 0.018381 0.999186 -0.035903
0.564117 -0.252420 0.249120 62 169 77 0.998755 -0.001148 0.049872
0.511361 -0.182973 0.476338 62 169 77 0.542794 0.055410 0.838036
0.573913 -0.216684 0.016253 62 169 77 0.999437 0.013640 0.030669
0.554296 -0.208129 0.447233 62 169 77 0.866559 0.018277 0.498740
0.535581 -0.204547 0.445454 62 169 77 0.781448 0.425261 0.456610
0.492273 -0.210460 0.492632 62 169 77 0.560613 -0.095820 0.822516
0.151623 -0.069415 0.399769 62 169 77 0.002779 0.919683 0.392651
0.239501 -0.048301 0.128152 62 169 77 -0.090239 0.995818 -0.014271
0.483043 -0.044583 0.099520 62 169 77 0.220303 0.974757 0.036260
0.451922 -0.039442 0.021943 62 169 77 0.019319 0.999709 -0.014478
0.274938 -0.186811 0.503664 62 169 77 -0.041022 0.011168 0.999096
0.590625 -0.115982 0.012017 62 169 77 0.984735 0.169170 0.040959
0.571957 -0.145363 0.314575 62 169 77 0.993578 0.032764 0.108303
0.397733 -0.057966 0.326690 62 169 77 0.100660 0.972906 0.208139
0.522367 -0.314300 0.344787 62 169 77 -0.000049 -1.000000 0.000000
0.144577 -0.273276 -0.524215 131 166 200 -0.999903 -0.008134 0.011308
0.160135 -0.148250 -0.495618 131 166 200 0.039746 0.036279 0.998551
0.153439 -0.143853 -0.495498 131 166 200 0.043592 0.038405 0.998311
0.190672 -0.252273 -0.535863 131 166 200 -0.026396 0.063779 -0.997615
0.140551 -0.190718 -0.519008 131 166 200 -0.994072 -0.099533 -0.043746
0.134920 -0.146239 -0.549813 131 166 200 -0.963543 -0.264986 0.036977
0.178328 -0.297043 -0.523854 131 166 200 0.004076 -0.999975 -0.005729
0.209599 -0.205687 -0.515021 131 166 200 0.991651 0.112164 0.063622
0.157023 -0.275565 -0.549615 131 166 200 -0.056477 0.068872 -0.996026
0.203979 -0.162615 -0.505536 131 166 200 0.979019 0.194542 0.060627
0.210621 -0.204608 -0.535738 131 166 200 0.991683 0.101487 0.079151
0.148840 -0.164979 -0.551593 131 166 200 -0.017799 -0.010494 -0.999787
0.150488 -0.287717 -0.542633 131 166 200 -0.070574 0.018226 -0.997340
0.144692 -0.270135 -0.511768 131 166 200 -0.999903 -0.008134 0.011308
0.161534 -0.161237 -0.495182 131 166 200 0.043592 0.038405 0.998311
0.135199 -0.151076 -0.520963 131 166 200 -0.975470 -0.216491 0.039876
0.171780 -0.143781 -0.496319 131 166 200 0.054417 0.039044 0.997755
0.144993 -0.147033 -0.495007 131 166 200 0.043592 0.038405 0.998311
0.177435 -0.209123 -0.536267 131 166 200 0.023369 -0.041130 -0.998880
0.210447 -0.212586 -0.553408 131 166 200 0.974236 -0.042849 -0.221421
0.212191 -0.255296 -0.514050 131 166 200 0.999814 0.006706 -0.018073
0.187318 -0.146728 -0.497092 131 166 200 0.058062 0.038367 0.997575
0.142207 -0.196498 -0.549591 131 166 200 -0.999192 -0.040188 0.000051
0.157319 -0.185643 -0.551297 131 166 200 0.112606 -0.007343 -0.993613
0.211821 -0.246052 -0.530582 131 166 200 0.999714 0.002841 -0.023757
0.168783 -0.295018 -0.543829 131 166 200 -0.054685 -0.056013 -0.996931
0.140173 -0.184100 -0.525483 131 166 200 -0.994072 -0.099533 -0.043746
0.175124 -0.242306 -0.535291 131 166 200 0.058586 -0.028249 -0.997883
0.176973 -0.192525 -0.536856 131 166 200 0.027137 -0.014679 -0.999524
0.218099 -0.213713 -0.499591 131 166 200 -0.008883 -0.991907 -0.126654
0.161681 -0.164879 -0.538720 131 166 200 0.487755 0.046280 -0.871753
0.207268 -0.213034 -0.502140 131 166 200 -0.036919 -0.557388 -0.829431
0.211854 -0.271989 -0.532286 131 166 200 0.999714 0.002841 -0.023757
0.132355 -0.137875 -0.518846 131 166 200 -0.975470 -0.216491 0.039876
0.192583 -0.262653 -0.540782 131 166 200 -0.074181 0.975069 -0.209134
0.207866 -0.189415 -0.516693 131 166 200 0.991651 0.112164 0.063622
0.212048 -0.291389 -0.509306 131 166 200 0.997921 -0.062259 -0.016645
0.169248 -0.206897 -0.536639 131 166 200 0.058589 -0.028263 -0.997882
0.181779 -0.297086 -0.514097 131 166 200 0.004088 -0.999975 -0.005749
0.180254 -0.152042 -0.496476 131 166 200 0.058062 0.038367 0.997575
0.137609 -0.158412 -0.538035 131 166 200 -0.993516 -0.112410 -0.017057
0.200299 -0.216323 -0.538005 131 166 200 -0.683552 0.084184 -0.725031
0.134696 -0.149606 -0.505848 131 166 200 -0.980117 -0.194890 -0.037251
0.144297 -0.265821 -0.541081 131 166 200 -0.999848 -0.010655 0.013777
0.158008 -0.230022 -0.550412 131 166 200 0.041590 -0.030074 -0.998682
0.138021 -0.160947 -0.545297 131 166 200 -0.993516 -0.112410 -0.017057
0.211143 -0.276307 -0.549897 131 166 200 0.994311 -0.000889 -0.106508
0.143286 -0.223289 -0.547862 131 166 200 -0.999192 -0.040188 0.000051
0.211608 -0.247362 -0.539678 131 166 200 0.999714 0.002841 -0.023757
0.146621 -0.204766 -0.550759 131 166 200 -0.055593 -0.020527 -0.998242
0.211335 -0.288826 -0.545955 131 166 200 -0.036082 0.013159 -0.999262
0.144041 -0.233072 -0.501228 131 166 200 -0.995314 -0.072015 0.064522
0.143715 -0.233977 -0.546376 131 166 200 -0.999196 -0.040083 -0.000304
0.152537 -0.163042 -0.551679 131 166 200 -0.017799 -0.010494 -0.999787
0.144977 -0.283256 -0.502384 131 166 200 -0.999511 -0.000533 0.031272
0.144483 -0.272934 -0.532938 131 166 200 -0.999926 -0.007261 0.009803
0.160699 -0.161166 -0.539073 131 166 200 0.487755 0.046280 -0.871753
0.207474 -0.183464 -0.521067 131 166 200 0.991651 0.112164 0.063622
0.144634 -0.289379 -0.530739 131 166 200 -0.999903 -0.008134 0.011308
0.136710 -0.144404 -0.551140 131 166 200 -0.185799 -0.069260 -0.980144
0.208580 -0.235595 -0.551367 131 166 200 0.044871 -0.106034 -0.993350
0.180423 -0.296938 -0.540721 131 166 200 0.004076 -0.999975 -0.005729
0.138401 -0.146689 -0.494967 131 166 200 -0.006024 0.028995 0.999561
0.137933 -0.161502 -0.536502 131 166 200 -0.993516 -0.112410 -0.017057
0.200256 -0.142794 -0.530566 131 166 200 0.966889 0.249196 0.055020
0.139884 -0.178242 -0.539842 131 166 200 -0.993516 -0.112410 -0.017057
0.144622 -0.294604 -0.535577 131 166 200 -0.999903 -0.008134 0.011308
0.144266 -0.248289 -0.517032 131 166 200 -0.999015 -0.043004 0.010926
0.143278 -0.222640 -0.506460 131 166 200 -0.999015 -0.043004 0.010926
0.199384 -0.142281 -0.501171 131 166 200 0.979754 0.187856 0.069220
0.159913 -0.219550 -0.550441 131 166 200 0.120243 -0.023650 -0.992463
0.203428 -0.296908 -0.529703 131 166 200 0.004076 -0.999975 -0.005729
0.204446 -0.233259 -0.551665 131 166 200 -0.384006 -0.018644 -0.923142
0.159089 -0.144939 -0.537963 131 166 200 0.486208 0.136483 -0.863119
0.134234 -0.147036 -0.527367 131 166 200 -0.968314 -0.245715 -0.044637
0.161803 -0.238761 -0.544328 131 166 200 0.981628 0.005309 -0.190729
0.211891 -0.275330 -0.531122 131 166 200 0.999714 0.002841 -0.023757
0.208473 -0.189076 -0.526737 131 166 200 0.991651 0.112164 0.063622
0.151803 -0.142460 -0.544523 131 166 200 0.949783 0.282570 -0.134412
0.151066 -0.297260 -0.505644 131 166 200 0.004088 -0.999975 -0.005749
0.158922 -0.176922 -0.541355 131 166 200 0.983228 0.125936 -0.131917
0.179634 -0.297155 -0.503627 131 166 200 0.004088 -0.999975 -0.005749
0.136245 -0.154319 -0.530903 131 166 200 -0.968314 -0.245715 -0.044637
0.143404 -0.226247 -0.544743 131 166 200 -0.999196 -0.040083 -0.000304
0.165936 -0.297112 -0.520809 131 166 200 0.004088 -0.999975 -0.005749
0.144408 -0.256635 -0.525922 131 166 200 -0.999848 -0.010655 0.013777
0.203343 -0.226068 -0.551351 131 166 200 -0.384006 -0.018644 -0.923142
0.167179 -0.297204 -0.503955 131 166 200 0.004088 -0.999975 -0.005749
0.189167 -0.132677 -0.539125 131 166 200 -0.108012 -0.035598 -0.993512
0.143586 -0.230759 -0.545279 131 166 200 -0.999196 -0.040083 -0.000304
0.212583 -0.273969 -0.502651 131 166 200 0.999357 0.000910 -0.035852
0.146868 -0.141111 -0.495316 131 166 200 0.043592 0.038405 0.998311
0.199257 -0.136681 -0.519456 131 166 200 0.975842 0.217505 -0.020583
0.123968 -0.074480 -0.546250 58 52 89 0.888457 0.441122 -0.126712
0.117278 0.005891 -0.537904 58 52 89 -0.098239 -0.003719 -0.995156
0.086466 -0.018814 -0.525608 58 52 89 -0.912139 -0.402954 0.075034
0.114718 -0.082002 -0.518299 58 52 89 -0.915433 -0.397424 0.063526
0.126347 -0.114029 -0.542393 58 52 89 -0.963543 -0.264986 0.036977
0.195969 -0.121405 -0.508435 58 52 89 0.979019 0.194542 0.060627
0.184551 -0.088621 -0.513420 58 52 89 0.917104 0.395834 -0.047292
0.143181 0.004725 -0.533867 58 52 89 0.965877 0.250892 -0.064308
0.083955 0.025713 -0.541433 58 52 89 0.961578 0.237710 -0.137338
0.137261 -0.102890 -0.550762 58 52 89 0.887348 0.437353 -0.146068
0.128945 -0.125080 -0.533479 58 52 89 -0.968314 -0.245715 -0.044637
0.100968 -0.050164 -0.518640 58 52 89 -0.904849 -0.411081 0.110726
0.152318 -0.100218 -0.537941 58 52 89 0.025317 0.004385 -0.999670
0.138196 -0.102901 -0.545122 58 52 89 0.887348 0.437353 -0.146068
0.139653 -0.021111 -0.539315 58 52 89 -0.099548 -0.041365 -0.994173
0.169170 -0.051951 -0.513528 58 52 89 0.907346 0.410292 -0.091560
0.168347 -0.112831 -0.497342 58 52 89 0.054417 0.039044 0.997755
0.101515 0.009971 -0.497310 58 52 89 0.043004 0.001027 0.999074
0.100783 -0.056600 -0.547202 58 52 89 -0.913100 -0.396478 0.095154
0.101781 -0.053623 -0.525251 58 52 89 -0.909115 -0.405092 0.097005
0.118286 -0.094386 -0.540799 58 52 89 -0.909115 -0.405092 0.097005
0.101951 -0.012272 -0.496999 58 52 89 0.040451 0.015348 0.999064
0.130524 -0.042131 -0.497698 58 52 89 0.040451 0.015348 0.999064
0.070009 0.026763 -0.542497 58 52 89 -0.968550 -0.246886 0.030950
0.145203 -0.003271 -0.499771 58 52 89 0.109276 0.049860 0.992760
0.172136 -0.065677 -0.539932 58 52 89 0.906928 0.403855 -0.119924
0.155559 -0.025546 -0.499792 58 52 89 0.109276 0.049860 0.992760
0.068504 0.032147 -0.545626 58 52 89 -0.968443 -0.243899 0.051305
0.153636 -0.021174 -0.533653 58 52 89 0.911348 0.402358 -0.086912
0.088468 -0.013725 -0.496798 58 52 89 -0.006418 -0.006616 0.999958
0.105319 0.027795 -0.537325 58 52 89 0.017612 0.024935 -0.999534
0.192763 -0.128385 -0.498349 58 52 89 0.104039 0.046519 0.993485
0.141636 0.009582 -0.538895 58 52 89 0.968858 0.244449 -0.039486
0.159414 -0.088613 -0.538112 58 52 89 -0.103161 -0.056448 -0.993062
0.147120 -0.126903 -0.544909 58 52 89 0.949783 0.282570 -0.134412
0.098167 0.003412 -0.497114 58 52 89 0.043495 0.018095 0.998890
0.113358 -0.036654 -0.497087 58 52 89 0.040451 0.015348 0.999064
0.177981 -0.108635 -0.498033 58 52 89 0.054417 0.039044 0.997755
0.133033 0.015880 -0.499053 58 52 89 0.107250 0.018616 0.994058
0.086464 -0.002491 -0.496736 58 52 89 -0.006418 -0.006616 0.999958
0.157164 -0.096051 -0.497345 58 52 89 0.054232 0.033957 0.997951
0.124564 -0.038782 -0.497508 58 52 89 0.040451 0.015348 0.999064
0.139963 -0.124384 -0.552111 58 52 89 -0.017981 -0.018442 -0.999668
0.141745 0.014811 -0.510304 58 52 89 0.967347 0.250821 -0.036447
0.103083 -0.054728 -0.517334 58 52 89 -0.917467 -0.383810 0.104612
0.154283 -0.078944 -0.497770 58 52 89 0.054232 0.033957 0.997951
0.114659 -0.033985 -0.538269 58 52 89 0.021806 0.013418 -0.999672
0.079318 0.003008 -0.551587 58 52 89 -0.085741 0.001018 -0.996317
0.070980 0.027084 -0.518703 58 52 89 -0.965761 -0.253723 0.054125
0.162164 -0.078948 -0.498199 58 52 89 0.055681 0.035158 0.997829
0.175119 -0.064544 -0.506047 58 52 89 0.922496 0.385957 -0.006220
0.133816 -0.118944 -0.551874 58 52 89 -0.069362 -0.025586 -0.997263
0.132387 -0.095325 -0.551955 58 52 89 0.150540 0.068774 -0.986209
0.084854 -0.013302 -0.515613 58 52 89 -0.912139 -0.402954 0.075034
0.136153 -0.031742 -0.498244 58 52 89 0.055335 0.024766 0.998161
0.170032 -0.055472 -0.520253 58 52 89 0.919504 0.383764 -0.085074
0.068734 0.032469 -0.536885 58 52 89 -0.968550 -0.246886 0.030950
0.130717 -0.129034 -0.510924 58 52 89 -0.975470 -0.216491 0.039876
0.139131 -0.042841 -0.538361 58 52 89 -0.098164 -0.041222 -0.994316
0.149139 -0.006189 -0.500363 58 52 89 0.909793 0.414802 0.014694
0.183610 -0.085198 -0.507604 58 52 89 0.919504 0.383764 -0.085074
0.145189 -0.083171 -0.538044 58 52 89 0.021640 0.003900 -0.999758
0.098143 0.000340 -0.538136 58 52 89 0.016471 0.025024 -0.999551
0.125580 -0.105657 -0.509661 58 52 89 -0.975470 -0.216491 0.039876
0.138451 0.026536 -0.502549 58 52 89 0.964694 0.259454 0.045272
0.143921 -0.010466 -0.499272 58 52 89 0.106300 0.048027 0.993174
0.177773 -0.114322 -0.538588 58 52 89 -0.102495 -0.036309 -0.994071
0.105794 -0.002086 -0.538062 58 52 89 0.017612 0.024935 -0.999534
0.142498 -0.122197 -0.552045 58 52 89 0.143998 0.045009 -0.988554
0.174848 -0.086653 -0.540277 58 52 89 -0.419254 -0.198540 -0.885894
0.085084 -0.018863 -0.540607 58 52 89 -0.913100 -0.396478 0.095154
0.183841 -0.087671 -0.519216 58 52 89 0.917104 0.395834 -0.047292
0.101973 -0.048370 -0.503747 58 52 89 -0.917467 -0.383810 0.104612
0.092583 -0.037618 -0.548891 58 52 89 -0.908640 -0.396205 -0.131888
0.139827 0.019618 -0.526141 58 52 89 0.965877 0.250892 -0.064308
0.116100 -0.058614 -0.546457 58 52 89 0.900688 0.415379 -0.127361
0.104248 -0.050534 -0.552240 58 52 89 -0.039820 -0.013567 -0.999115
0.142020 -0.083652 -0.497071 58 52 89 0.039462 0.027840 0.998833
0.158827 -0.030092 -0.518953 58 52 89 0.913193 0.403143 -0.059610
0.105918 -0.039134 -0.496837 58 52 89 -0.009418 -0.007506 0.999927
0.131586 -0.096366 -0.552149 58 52 89 0.150540 0.068774 -0.986209
0.113814 -0.081617 -0.528917 58 52 89 -0.915433 -0.397424 0.063526
0.091211 -0.030486 -0.530236 58 52 89 -0.913100 -0.396478 0.095154
0.111288 -0.029248 -0.538279 58 52 89 0.021806 0.013418 -0.999672
0.169236 -0.108708 -0.497553 58 52 89 0.054417 0.039044 0.997755
0.143717 0.006961 -0.502569 58 52 89 0.964694 0.259454 0.045272
0.138852 -0.070471 -0.497312 58 52 89 0.039462 0.027840 0.998833
0.128058 -0.120276 -0.540689 58 52 89 -0.968314 -0.245715 -0.044637
0.105644 -0.050025 -0.552302 58 52 89 -0.039820 -0.013567 -0.999115
0.182580 -0.082632 -0.499749 58 52 89 0.923359 0.382557 0.032527
0.103622 -0.062092 -0.551154 58 52 89 -0.905152 -0.404672 -0.130156
0.094805 -0.030783 -0.499582 58 52 89 -0.894669 -0.406751 0.184718
0.080065 -0.002346 -0.551631 58 52 89 -0.089368 -0.031347 -0.995505
0.142751 0.010980 -0.509980 58 52 89 0.967347 0.250821 -0.036447
0.128971 -0.120515 -0.499880 58 52 89 -0.975275 -0.181921 0.125471
0.160770 -0.038694 -0.537095 58 52 89 0.911889 0.393311 -0.117323
0.081713 -0.003950 -0.551728 58 52 89 -0.089368 -0.031347 -0.995505
0.184921 -0.090095 -0.518579 58 52 89 0.917104 0.395834 -0.047292
0.105781 -0.064302 -0.532369 58 52 89 -0.909115 -0.405092 0.097005
0.103877 -0.053838 -0.507103 58 52 89 -0.917467 -0.383810 0.104612
0.128147 -0.044882 -0.497560 58 52 89 0.040451 0.015348 0.999064
0.163265 -0.037204 -0.503663 58 52 89 0.911093 0.411968 -0.013824
0.142398 -0.087292 -0.496983 58 52 89 0.039462 0.027840 0.998833
0.119082 -0.047285 -0.538352 58 52 89 0.021806 0.013418 -0.999672
0.076994 0.000835 -0.535231 58 52 89 -0.912139 -0.402954 0.075034
0.130826 -0.096585 -0.496317 58 52 89 -0.009037 0.007109 0.999934
0.153130 -0.102917 -0.537933 58 52 89 0.025317 0.004385 -0.999670
0.107772 -0.072279 -0.548347 58 52 89 -0.905152 -0.404672 -0.130156
0.080345 0.015884 -0.496594 58 52 89 -0.006610 -0.012965 0.999894
0.118132 -0.093764 -0.539648 58 52 89 -0.909115 -0.405092 0.097005
0.189107 -0.106739 -0.542649 58 52 89 -0.434838 -0.203031 -0.877322
0.124041 -0.105311 -0.529768 58 52 89 -0.915433 -0.397424 0.063526
0.100603 -0.052194 -0.530561 58 52 89 -0.913100 -0.396478 0.095154
0.106777 -0.069054 -0.542871 58 52 89 -0.909115 -0.405092 0.097005
0.159406 -0.100275 -0.537761 58 52 89 0.025317 0.004385 -0.999670
0.104727 -0.040694 -0.552271 58 52 89 0.183100 0.091669 -0.978811
0.105777 0.072224 -0.497418 192 154 114 0.057035 -0.021900 0.998132
0.122622 0.083782 -0.538083 192 154 114 -0.413970 0.028037 -0.909859
0.067357 0.090845 -0.496490 192 154 114 -0.004143 0.013310 0.999903
0.062008 0.134862 -0.544170 192 154 114 -0.283181 0.150496 -0.947185
0.133422 0.046106 -0.509759 192 154 114 0.966176 0.257539 -0.013312
0.132917 0.171310 -0.512037 192 154 114 0.992093 -0.125468 -0.003158
0.082010 0.084101 -0.496903 192 154 114 0.044182 0.016820 0.998882
0.085933 0.190249 -0.501120 192 154 114 -0.138037 0.115960 0.983615
0.069799 0.192445 -0.522354 192 154 114 -0.972775 0.229433 0.032689
0.133135 0.046206 -0.501654 192 154 114 0.963986 0.255925 0.072342
0.124653 0.169655 -0.528604 192 154 114 -0.098377 0.131306 -0.986449
0.088047 0.061748 -0.496794 192 154 114 0.044182 0.016820 0.998882
0.059109 0.108114 -0.505938 192 154 114 -0.997318 -0.070125 0.020981
0.101974 0.043039 -0.497376 192 154 114 0.057478 0.004948 0.998335
0.128200 0.084922 -0.521013 192 154 114 0.997589 0.069323 0.003200
0.078305 0.147775 -0.498024 192 154 114 -0.137849 0.085237 0.986779
0.069663 0.150705 -0.499585 192 154 114 -0.172007 0.089500 0.981022
0.074889 0.134451 -0.497350 192 154 114 -0.137849 0.085237 0.986779
0.095126 0.091890 -0.534671 192 154 114 0.018176 0.060472 -0.998004
0.118413 0.170024 -0.495212 192 154 114 -0.122633 -0.030476 0.991984
0.062743 0.059548 -0.510424 192 154 114 -0.965175 -0.259054 0.036452
0.067496 0.138931 -0.498879 192 154 114 -0.044589 0.092787 0.994687
0.127397 0.092394 -0.532150 192 154 114 0.997113 0.069533 -0.030504
0.102123 0.106580 -0.496957 192 154 114 0.011725 -0.005443 0.999916
0.061235 0.078230 -0.507125 192 154 114 -0.997022 -0.072053 0.027495
0.067541 0.180207 -0.509680 192 154 114 -0.969938 0.238013 0.050702
0.087136 0.151075 -0.529365 192 154 114 0.021005 0.115049 -0.993138
0.099321 0.144488 -0.497090 192 154 114 0.011995 0.007891 0.999897
0.074258 0.039262 -0.496334 192 154 114 -0.005020 -0.012286 0.999912
0.058755 0.113093 -0.506115 192 154 114 -0.997318 -0.070125 0.020981
0.063981 0.164324 -0.531554 192 154 114 -0.990779 0.131924 0.030875
0.132917 0.046036 -0.527153 192 154 114 0.968858 0.244449 -0.039486
0.132364 0.166786 -0.506214 192 154 114 0.992093 -0.125468 -0.003158
0.073500 0.111452 -0.538901 192 154 114 0.985868 0.058470 -0.156991
0.126189 0.117933 -0.513641 192 154 114 0.992161 -0.124967 -0.000361
0.110197 0.067761 -0.497769 192 154 114 0.057035 -0.021900 0.998132
0.062932 0.150727 -0.507323 192 154 114 -0.989236 0.138534 0.047116
0.061458 0.142352 -0.517545 192 154 114 -0.990817 0.132929 0.024713
0.112349 0.044430 -0.497982 192 154 114 0.057913 0.005256 0.998308
0.119045 0.129192 -0.533431 192 154 114 -0.098377 0.131306 -0.986449
0.058790 0.101809 -0.543918 192 154 114 -0.997442 -0.069190 0.017926
0.063741 0.149770 -0.500058 192 154 114 -0.044589 0.092787 0.994687
0.128026 0.133276 -0.501219 192 154 114 0.986394 -0.132037 0.097943
0.112781 0.131050 -0.497106 192 154 114 -0.122633 -0.030476 0.991984
0.114577 0.149689 -0.530256 192 154 114 -0.098377 0.131306 -0.986449
0.104525 0.194629 -0.523345 192 154 114 0.020289 0.147608 -0.988838
0.065545 0.169729 -0.508324 192 154 114 -0.989236 0.138534 0.047116
0.084752 0.162901 -0.529350 192 154 114 0.459090 0.034333 -0.887726
0.061890 0.137486 -0.499647 192 154 114 -0.981000 0.146051 0.127700
0.127239 0.098504 -0.521693 192 154 114 0.997180 0.070654 -0.025289
0.094625 0.056872 -0.497061 192 154 114 0.043693 0.000905 0.999045
0.127179 0.125956 -0.519913 192 154 114 0.992069 -0.122260 -0.029173
0.106242 0.148993 -0.529530 192 154 114 -0.096508 0.131654 -0.986587
0.103693 0.138716 -0.497097 192 154 114 0.011995 0.007891 0.999897
0.060059 0.132524 -0.520762 192 154 114 -0.990817 0.132929 0.024713
0.127234 0.093283 -0.535473 192 154 114 0.997113 0.069533 -0.030504
0.092327 0.102829 -0.496877 192 154 114 -0.002270 -0.006460 0.999977
0.133158 0.173075 -0.506634 192 154 114 0.992093 -0.125468 -0.003158
0.065985 0.049401 -0.550308 192 154 114 -0.100680 -0.000873 -0.994918
0.126602 0.102781 -0.534472 192 154 114 0.997113 0.069533 -0.030504
0.125846 0.189524 -0.525508 192 154 114 -0.098490 0.174452 -0.979728
0.064278 0.086045 -0.548678 192 154 114 -0.094383 0.052091 -0.994172
0.076125 0.090125 -0.537772 192 154 114 0.447105 0.073675 -0.891442
0.122390 0.173888 -0.527815 192 154 114 -0.098377 0.131306 -0.986449
0.069051 0.167863 -0.501257 192 154 114 -0.172007 0.089500 0.981022
0.073089 0.120079 -0.541473 192 154 114 0.978772 -0.142635 -0.147174
0.076258 0.197125 -0.503461 192 154 114 -0.171985 0.123495 0.977328
0.089499 0.137086 -0.496990 192 154 114 -0.001935 0.009732 0.999951
0.129530 0.062008 -0.531699 192 154 114 0.997113 0.069533 -0.030504
0.082220 0.166559 -0.499100 192 154 114 -0.137849 0.085237 0.986779
0.093946 0.106930 -0.496860 192 154 114 0.011725 -0.005443 0.999916
0.080072 0.159954 -0.532996 192 154 114 0.981606 -0.142507 -0.127050
0.076149 0.099807 -0.536960 192 154 114 0.447105 0.073675 -0.891442
0.060278 0.131668 -0.507391 192 154 114 -0.990817 0.132929 0.024713
0.133786 0.037837 -0.541688 192 154 114 0.920569 0.235890 -0.311301
0.109901 0.098369 -0.497094 192 154 114 0.011725 -0.005443 0.999916
0.121063 0.036252 -0.498445 192 154 114 0.057913 0.005256 0.998308
0.133698 0.176915 -0.510834 192 154 114 0.976754 -0.214279 -0.006053
0.125941 0.112517 -0.533736 192 154 114 0.997180 0.070654 -0.025289
0.059986 0.134612 -0.535093 192 154 114 -0.991412 0.129626 0.017304
0.096844 0.159223 -0.497192 192 154 114 -0.001935 0.009732 0.999951
0.058849 0.103334 -0.534757 192 154 114 -0.997442 -0.069190 0.017926
0.079483 0.087882 -0.496855 192 154 114 0.044182 0.016820 0.998882
0.074847 0.135586 -0.497454 192 154 114 -0.137849 0.085237 0.986779
0.080271 0.050847 -0.496427 192 154 114 0.043693 0.000905 0.999045
0.129556 0.062135 -0.530544 192 154 114 0.997113 0.069533 -0.030504
0.123213 0.172971 -0.494528 192 154 114 -0.122633 -0.030476 0.991984
0.065724 0.176092 -0.528864 192 154 114 -0.972775 0.229433 0.032689
0.113372 0.097945 -0.497288 192 154 114 0.057035 -0.021900 0.998132
0.131162 0.160723 -0.495791 192 154 114 0.986838 -0.131465 0.094166
0.087995 0.179949 -0.527090 192 154 114 0.459600 0.016699 -0.887969
0.099996 0.200070 -0.499448 192 154 114 -0.307414 0.079533 0.948246
0.077200 0.146170 -0.539422 192 154 114 0.978772 -0.142635 -0.147174
0.063746 0.157187 -0.509225 192 154 114 -0.989236 0.138534 0.047116
0.127666 0.130680 -0.523131 192 154 114 0.992069 -0.122260 -0.029173
0.198825 -0.267810 0.541286 250 20 209 0.999144 0.003731 0.041201
0.153664 -0.264147 0.533722 250 20 209 -0.017630 0.983785 0.178481
0.159299 -0.289539 0.538069 250 20 209 -0.070599 0.038478 0.996762
0.158368 -0.283940 0.539462 250 20 209 -0.035357 -0.998513 -0.041488
0.130703 -0.221443 0.542623 250 20 209 -0.966240 -0.051052 0.252534
0.134377 -0.288158 0.536158 250 20 209 -0.078029 0.017773 0.996793
0.184147 -0.247613 0.533693 250 20 209 -0.720044 0.115000 0.684333
0.198410 -0.243016 0.545340 250 20 209 0.989608 -0.006580 0.143638
0.190253 -0.296977 0.511951 250 20 209 0.004034 -0.999976 0.005691
0.127256 -0.177654 0.517419 250 20 209 -0.994806 -0.099710 0.020477
0.175521 -0.130677 0.533312 250 20 209 -0.113169 -0.037612 0.992864
0.118845 -0.131759 0.513855 250 20 209 -0.974344 -0.216210 -0.062508
0.199544 -0.232738 0.520658 250 20 209 0.999144 0.003731 0.041201
0.137584 -0.244312 0.544000 250 20 209 -0.069241 -0.021339 0.997372
0.189618 -0.147588 0.510011 250 20 209 0.980115 0.194833 -0.037621
0.126586 -0.171751 0.532789 250 20 209 -0.993632 -0.112504 -0.006174
0.188362 -0.296839 0.537595 250 20 209 0.004034 -0.999976 0.005691
0.152033 -0.213746 0.532632 250 20 209 0.496799 -0.006927 0.867838
0.174626 -0.296894 0.537687 250 20 209 0.004034 -0.999976 0.005691
0.122228 -0.147284 0.530448 250 20 209 -0.969049 -0.245894 0.021925
0.166224 -0.297063 0.514021 250 20 209 0.004034 -0.999976 0.005691
0.124889 -0.157842 0.529647 250 20 209 -0.969049 -0.245894 0.021925
0.154993 -0.222591 0.530290 250 20 209 0.584124 -0.023508 0.811324
0.198996 -0.275440 0.537811 250 20 209 0.999144 0.003731 0.041201
0.198250 -0.255469 0.545867 250 20 209 0.989608 -0.006580 0.143638
0.185499 -0.162620 0.533338 250 20 209 -0.112490 -0.018731 0.993476
0.173807 -0.257767 0.530631 250 20 209 -0.236492 0.320256 0.917337
0.185734 -0.131967 0.520261 250 20 209 0.973720 0.216528 0.070603
0.160094 -0.277672 0.544639 250 20 209 -0.065664 0.029253 0.997413
0.189395 -0.296875 0.530468 250 20 209 0.004034 -0.999976 0.005691
0.187000 -0.135164 0.509734 250 20 209 0.975132 0.217339 0.043384
0.186645 -0.296939 0.521222 250 20 209 0.004034 -0.999976 0.005691
0.198444 -0.249381 0.544819 250 20 209 0.989608 -0.006580 0.143638
0.172272 -0.264188 0.537708 250 20 209 -0.042702 0.990789 0.128505
0.132558 -0.272577 0.513224 250 20 209 -0.999248 -0.009783 -0.037522
0.132353 -0.251929 0.543194 250 20 209 -0.205787 -0.024377 0.978293
0.197591 -0.203951 0.513581 250 20 209 0.992851 0.112339 -0.040345
0.148214 -0.205649 0.540989 250 20 209 0.990184 0.036078 0.135034
0.177935 -0.158971 0.532550 250 20 209 -0.112490 -0.018731 0.993476
0.199212 -0.264317 0.531573 250 20 209 0.999144 0.003731 0.041201
0.131440 -0.195542 0.544626 250 20 209 -0.070301 -0.024517 0.997224
0.125164 -0.159943 0.518259 250 20 209 -0.969049 -0.245894 0.021925
0.182757 -0.192451 0.532310 250 20 209 -0.133452 -0.031925 0.990541
0.130073 -0.206599 0.532846 250 20 209 -0.998945 -0.040811 -0.021059
0.132247 -0.286699 0.525206 250 20 209 -0.999248 -0.009783 -0.037522
0.160513 -0.296960 0.536129 250 20 209 0.004034 -0.999976 0.005691
0.165306 -0.248072 0.529058 250 20 209 -0.063570 0.063017 0.995986
0.158187 -0.184459 0.531191 250 20 209 0.017181 -0.014765 0.999743
0.194894 -0.262415 0.545777 250 20 209 -0.067127 0.016450 0.997609
0.125971 -0.165868 0.524653 250 20 209 -0.993632 -0.112504 -0.006174
0.131823 -0.249201 0.527294 250 20 209 -0.999295 -0.009858 -0.036220
0.150116 -0.203863 0.533809 250 20 209 0.496799 -0.006927 0.867838
0.198335 -0.253553 0.545375 250 20 209 0.989608 -0.006580 0.143638
0.147614 -0.195126 0.540795 250 20 209 0.976495 0.117054 0.180984
0.154945 -0.220132 0.530396 250 20 209 0.584124 -0.023508 0.811324
0.142045 -0.297137 0.518359 250 20 209 0.004123 -0.999975 0.005825
0.183812 -0.256437 0.542499 250 20 209 -0.986937 0.135804 0.086675
0.148021 -0.297222 0.499604 250 20 209 0.004123 -0.999975 0.005825
0.131710 -0.272209 0.537311 250 20 209 -0.995025 -0.025499 0.096308
0.191520 -0.296919 0.521281 250 20 209 0.004034 -0.999976 0.005691
0.169482 -0.231621 0.529268 250 20 209 0.018160 -0.042601 0.998927
0.146351 -0.155151 0.533707 250 20 209 0.478263 0.134220 0.867899
0.144449 -0.297213 0.503699 250 20 209 0.004123 -0.999975 0.005825
0.198447 -0.216293 0.541644 250 20 209 0.998999 0.019108 0.040440
0.192924 -0.162401 0.532222 250 20 209 0.990471 0.137704 0.001980
0.128673 -0.190368 0.524357 250 20 209 -0.994806 -0.099710 0.020477
0.157306 -0.147937 0.531646 250 20 209 0.017667 -0.002885 0.999840
0.159092 -0.237816 0.529594 250 20 209 0.053054 -0.029824 0.998146
0.197766 -0.261647 0.545958 250 20 209 -0.067127 0.016450 0.997609
0.131951 -0.281351 0.532308 250 20 209 -0.999422 -0.007270 -0.033194
0.141248 -0.177215 0.545543 250 20 209 -0.024792 -0.012246 0.999618
0.124714 0.034621 0.499430 129 28 5 0.965322 0.256304 -0.049613
0.075528 -0.011807 0.545847 129 28 5 -0.099898 -0.033960 0.994418
0.107045 0.005711 0.492156 129 28 5 0.065655 0.007291 -0.997816
0.120450 -0.011340 0.533202 129 28 5 -0.106341 -0.043668 0.993370
0.108239 -0.067068 0.536230 129 28 5 0.885694 0.439693 0.149050
0.080849 -0.038033 0.534136 129 28 5 -0.910982 -0.395750 -0.116167
0.133112 -0.112810 0.490230 129 28 5 0.046594 0.038396 -0.998176
0.181733 -0.111667 0.510387 129 28 5 0.975132 0.217339 0.043384
0.131750 -0.031736 0.492751 129 28 5 0.062216 0.027158 -0.997693
0.126476 -0.096925 0.490471 129 28 5 0.046314 0.029986 -0.998477
0.114645 -0.115907 0.524497 129 28 5 -0.974344 -0.216210 -0.062508
0.146361 -0.031644 0.523440 129 28 5 0.909445 0.401577 0.107916
0.178093 -0.107194 0.533933 129 28 5 0.904429 0.402783 0.140619
0.113167 -0.078010 0.539216 129 28 5 0.885694 0.439693 0.149050
0.167502 -0.105253 0.492387 129 28 5 0.059687 0.035527 -0.997585
0.103438 -0.060995 0.490533 129 28 5 -0.000215 0.009545 -0.999954
0.112446 0.000485 0.492377 129 28 5 0.066252 0.027160 -0.997433
0.131388 -0.119852 0.544138 129 28 5 0.944098 0.283690 0.167923
0.164036 -0.066458 0.494046 129 28 5 0.109353 0.057783 -0.992322
0.115681 -0.119932 0.522253 129 28 5 -0.974344 -0.216210 -0.062508
0.142205 -0.017643 0.503679 129 28 5 0.905373 0.409458 0.112441
0.162017 -0.062549 0.504611 129 28 5 0.917623 0.382984 0.106261
0.116358 -0.116796 0.496909 129 28 5 -0.980694 -0.195034 0.014170
0.143650 -0.027010 0.493884 129 28 5 0.116709 0.052692 -0.991767
0.148412 -0.085656 0.491943 129 28 5 0.059687 0.035527 -0.997585
0.108498 -0.049952 0.491007 129 28 5 0.048905 0.029953 -0.998354
0.108322 -0.093414 0.504414 129 28 5 -0.913940 -0.396909 -0.084713
0.151373 -0.038633 0.506298 129 28 5 0.905373 0.409458 0.112441
0.161839 -0.069075 0.529291 129 28 5 0.904429 0.402783 0.140619
0.150599 -0.091034 0.491882 129 28 5 0.059687 0.035527 -0.997585
0.102020 -0.076782 0.498368 129 28 5 -0.915150 -0.383005 -0.125731
0.153360 -0.099329 0.491752 129 28 5 0.059687 0.035527 -0.997585
0.122884 -0.084065 0.490688 129 28 5 0.048905 0.029953 -0.998354
0.131264 -0.122198 0.489775 129 28 5 0.049776 0.040156 -0.997953
0.180841 -0.106541 0.500841 129 28 5 0.915968 0.395340 0.068624
0.060531 0.019285 0.517705 129 28 5 -0.964334 -0.253384 -0.076526
0.104214 -0.087179 0.519512 129 28 5 -0.913940 -0.396909 -0.084713
0.106713 -0.091385 0.545729 129 28 5 -0.065201 -0.036283 0.997212
0.104707 -0.091784 0.533323 129 28 5 -0.906969 -0.404353 -0.117921
0.086598 -0.000587 0.490849 129 28 5 0.052651 0.020936 -0.998393
0.112160 -0.076090 0.539539 129 28 5 0.885694 0.439693 0.149050
0.124935 0.033289 0.496786 129 28 5 0.965437 0.259658 -0.022561
0.117263 -0.102186 0.490152 129 28 5 -0.003046 0.007942 -0.999964
0.130264 -0.116875 0.545424 129 28 5 0.944098 0.283690 0.167923
0.129673 0.006563 0.493962 129 28 5 0.115393 0.021260 -0.993092
0.098220 -0.043758 0.490651 129 28 5 -0.000602 -0.005305 -0.999986
0.072703 0.019322 0.536598 129 28 5 0.958368 0.236929 0.159362
0.092983 -0.064970 0.531548 129 28 5 -0.906969 -0.404353 -0.117921
0.105851 -0.090622 0.517987 129 28 5 -0.913940 -0.396909 -0.084713
0.092096 -0.050065 0.492203 129 28 5 -0.903925 -0.377659 -0.200731
0.116337 -0.122557 0.521116 129 28 5 -0.974344 -0.216210 -0.062508
0.096712 -0.064498 0.499577 129 28 5 -0.915150 -0.383005 -0.125731
0.117741 -0.124667 0.506522 129 28 5 -0.974344 -0.216210 -0.062508
0.101869 -0.049698 0.534891 129 28 5 0.445287 0.207708 0.870963
0.167862 -0.084079 0.533529 129 28 5 0.904429 0.402783 0.140619
0.077549 -0.003972 0.543064 129 28 5 0.893921 0.415582 0.167922
0.124315 0.010150 0.535323 129 28 5 -0.424219 -0.087222 0.901349
0.112002 -0.081136 0.546215 129 28 5 0.185000 0.084775 0.979075
0.065844 0.008076 0.492498 129 28 5 -0.951989 -0.259229 -0.162839
0.140324 -0.097283 0.532010 129 28 5 0.019117 0.002483 0.999814
0.068704 0.034455 0.538151 129 28 5 0.958368 0.236929 0.159362
0.108422 -0.035666 0.491284 129 28 5 0.048513 0.017202 -0.998674
0.137397 -0.050572 0.533293 129 28 5 -0.106447 -0.043679 0.993359
0.129966 -0.000549 0.536948 129 28 5 -0.424219 -0.087222 0.901349
0.123600 0.034826 0.520668 129 28 5 0.964261 0.250388 0.086645
0.066737 0.002195 0.502352 129 28 5 -0.910426 -0.402349 -0.096124
0.127169 -0.124495 0.546034 129 28 5 -0.064316 -0.022646 0.997673
0.114577 0.010675 0.533039 129 28 5 -0.106433 -0.006037 0.994302
0.177228 -0.097756 0.495331 129 28 5 0.923788 0.382755 -0.010679
0.156411 -0.098839 0.532708 129 28 5 -0.108811 -0.058114 0.992362
0.125338 0.025529 0.528850 129 28 5 0.967756 0.244122 0.062069
0.161243 -0.122265 0.532058 129 28 5 -0.108163 -0.038254 0.993397
0.141266 -0.055254 0.492630 129 28 5 0.062570 0.037916 -0.997320
0.160164 -0.058006 0.494113 129 28 5 0.109353 0.057783 -0.992322
0.101292 -0.073502 0.494884 129 28 5 -0.903925 -0.377659 -0.200731
0.099181 -0.069191 0.496280 129 28 5 -0.903925 -0.377659 -0.200731
0.131230 -0.113226 0.535483 129 28 5 0.470222 0.133353 0.872415
0.127026 -0.084767 0.532199 129 28 5 0.014020 0.001811 0.999900
0.133089 -0.002253 0.525925 129 28 5 0.909445 0.401577 0.107916
0.088954 -0.050571 0.513261 129 28 5 -0.902445 -0.410234 -0.131533
0.085734 -0.042510 0.510214 129 28 5 -0.902445 -0.410234 -0.131533
0.105279 0.027192 0.532144 129 28 5 -0.106433 -0.006037 0.994302
0.130080 0.013465 0.506675 129 28 5 0.966321 0.250488 0.058986
0.103308 0.005648 0.491909 129 28 5 0.065655 0.007291 -0.997816
0.114196 -0.028932 0.491710 129 28 5 0.052651 0.020936 -0.998393
0.141410 -0.017072 0.508497 129 28 5 0.911813 0.402580 0.080792
0.077001 0.024985 0.532298 129 28 5 0.429078 0.123450 0.894792
0.063665 0.012620 0.500287 129 28 5 -0.964334 -0.253384 -0.076526
0.116261 -0.050658 0.491367 129 28 5 0.048905 0.029953 -0.998354
0.112082 -0.108656 0.535235 129 28 5 -0.907955 -0.411619 -0.078659
0.124611 -0.090940 0.490564 129 28 5 0.046314 0.029986 -0.998477
0.108559 -0.043619 0.532224 129 28 5 0.014193 0.011694 0.999831
0.168949 -0.080758 0.511047 129 28 5 0.915968 0.395340 0.068624
0.117414 -0.124501 0.511039 129 28 5 -0.974344 -0.216210 -0.062508
0.074021 -0.023953 0.540539 129 28 5 -0.914649 -0.393722 -0.091651
0.087640 0.025592 0.531423 129 28 5 0.008603 0.022378 0.999713
0.167692 -0.076743 0.506775 129 28 5 0.917623 0.382984 0.106261
0.092539 -0.044050 0.490656 129 28 5 -0.000602 -0.005305 -0.999986
0.136084 -0.075879 0.532037 129 28 5 0.019117 0.002483 0.999814
0.092706 -0.055925 0.502627 129 28 5 -0.915150 -0.383005 -0.125731
0.144194 -0.089098 0.491568 129 28 5 0.059687 0.035527 -0.997585
0.155711 -0.047855 0.504949 129 28 5 0.905373 0.409458 0.112441
0.082930 -0.038398 0.518890 129 28 5 -0.910426 -0.402349 -0.096124
0.159502 -0.097708 0.492177 129 28 5 0.059687 0.035527 -0.997585
0.076665 0.125703 0.490943 76 67 147 0.008154 0.012846 -0.999884
0.095717 0.183137 0.519458 76 67 147 0.013060 0.144504 0.989418
0.115633 0.093614 0.507010 76 67 147 0.997393 0.069285 0.020192
0.048154 0.078168 0.528671 76 67 147 -0.996578 -0.070032 -0.043903
0.102112 0.068065 0.531438 76 67 147 -0.107220 0.050887 0.992932
0.060681 0.102125 0.490605 76 67 147 0.054066 0.019620 -0.998345
0.054985 0.065191 0.489818 76 67 147 0.006538 0.016163 -0.999848
0.098799 0.086989 0.530111 76 67 147 -0.107220 0.050887 0.992932
0.063521 0.056402 0.536684 76 67 147 0.958368 0.236929 0.159362
0.083547 0.145576 0.524063 76 67 147 0.009373 0.113073 0.993542
0.101620 0.042218 0.492070 76 67 147 0.066758 0.008071 -0.997737
0.110118 0.144562 0.490092 76 67 147 -0.056584 -0.034969 -0.997785
0.098858 0.110628 0.491253 76 67 147 0.020659 -0.002624 -0.999783
0.126147 0.197396 0.508622 76 67 147 0.975618 -0.210795 0.061115
0.062506 0.073137 0.536173 76 67 147 0.985873 0.053434 0.158743
0.115363 0.095853 0.512622 76 67 147 0.997393 0.069285 0.020192
0.090145 0.184927 0.491999 76 67 147 -0.297914 0.082508 -0.951020
0.054538 0.045681 0.504844 76 67 147 -0.964134 -0.258772 -0.059014
0.116356 0.133633 0.501793 76 67 147 0.991882 -0.124946 0.023642
0.070900 0.080377 0.490731 76 67 147 0.054066 0.019620 -0.998345
0.099353 0.133069 0.491433 76 67 147 0.020938 0.011157 -0.999719
0.093033 0.059686 0.491637 76 67 147 0.066758 0.008071 -0.997737
0.123422 0.039478 0.501258 76 67 147 0.965649 0.257370 0.035816
0.123534 0.200863 0.487101 76 67 147 -0.217913 -0.030729 -0.975484
0.059722 0.200006 0.512873 76 67 147 -0.967264 0.233905 -0.098436
0.048315 0.074166 0.531406 76 67 147 -0.996578 -0.070032 -0.043903
0.070516 0.069057 0.530153 76 67 147 0.007141 0.057227 0.998336
0.091995 0.068527 0.530322 76 67 147 -0.107697 0.051009 0.992874
0.121458 0.173985 0.491306 76 67 147 0.988413 -0.131936 -0.075054
0.108627 0.165858 0.489600 76 67 147 -0.114071 -0.027332 -0.993097
0.080106 0.164249 0.521992 76 67 147 0.011713 0.111996 0.993640
0.116818 0.077860 0.497167 76 67 147 0.995633 0.068090 -0.063872
0.121577 0.175444 0.504268 76 67 147 0.991748 -0.125450 0.026435
0.080425 0.144102 0.491211 76 67 147 0.008154 0.012846 -0.999884
0.072622 0.115022 0.490805 76 67 147 0.007817 -0.003558 -0.999963
0.097926 0.135241 0.491428 76 67 147 0.020938 0.011157 -0.999719
0.052054 0.162739 0.513390 76 67 147 -0.989963 0.132990 -0.047819
0.116713 0.078102 0.495796 76 67 147 0.995633 0.068090 -0.063872
0.121563 0.040262 0.529767 76 67 147 0.967756 0.244122 0.062069
0.093240 0.149079 0.523795 76 67 147 -0.105658 0.128905 0.986012
0.048366 0.071592 0.534338 76 67 147 -0.996578 -0.070032 -0.043903
0.084125 0.111993 0.490944 76 67 147 0.020659 -0.002624 -0.999783
0.115250 0.133081 0.527267 76 67 147 0.991047 -0.120478 0.057535
0.049887 0.060130 0.518102 76 67 147 -0.996578 -0.070032 -0.043903
0.116573 0.077682 0.515220 76 67 147 0.997393 0.069285 0.020192
0.106394 0.165900 0.523017 76 67 147 -0.106912 0.128674 0.985907
0.047056 0.115546 0.495929 76 67 147 -0.986801 -0.069293 -0.146366
0.066011 0.042417 0.542448 76 67 147 0.956580 0.234515 0.173081
0.082521 0.146238 0.523996 76 67 147 0.009373 0.113073 0.993542
0.068948 0.171471 0.529688 76 67 147 0.978440 -0.142678 0.149323
0.054329 0.176650 0.509979 76 67 147 -0.968471 0.238066 -0.073400
0.061275 0.088870 0.538345 76 67 147 0.982044 0.057876 0.179555
0.093599 0.076067 0.491374 76 67 147 0.065883 -0.019061 -0.997645
0.087077 0.080604 0.529364 76 67 147 0.008555 0.057741 0.998295
0.119904 0.167535 0.519256 76 67 147 0.991047 -0.120478 0.057535
0.074700 0.158709 0.492001 76 67 147 -0.128101 0.088410 -0.987813
0.073108 0.135106 0.491035 76 67 147 0.008154 0.012846 -0.999884
0.116722 0.066666 0.527866 76 67 147 0.996139 0.069395 0.053777
0.045323 0.118502 0.530798 76 67 147 -0.990599 0.130012 -0.042545
0.052105 0.097138 0.490426 76 67 147 -0.035624 0.019627 -0.999173
0.049491 0.057137 0.538816 76 67 147 -0.967624 -0.246669 -0.053464
0.118442 0.150742 0.504682 76 67 147 0.991882 -0.124946 0.023642
0.119830 0.160865 0.500625 76 67 147 0.991748 -0.125450 0.026435
0.073293 0.139883 0.524818 76 67 147 0.011713 0.111996 0.993640
0.114403 0.118662 0.504598 76 67 147 0.991882 -0.124946 0.023642
0.077160 0.087047 0.490940 76 67 147 0.007817 -0.003558 -0.999963
0.115684 0.135928 0.525764 76 67 147 0.991047 -0.120478 0.057535
0.088503 0.095888 0.491077 76 67 147 0.020659 -0.002624 -0.999783
0.099961 0.145642 0.491151 76 67 147 -0.114071 -0.027332 -0.993097
0.070816 0.057408 0.530819 76 67 147 0.007141 0.057227 0.998336
0.062746 0.083535 0.490352 76 67 147 0.054066 0.019620 -0.998345
0.085673 0.053543 0.530808 76 67 147 0.006782 0.022520 0.999723
0.047741 0.084017 0.528724 76 67 147 -0.996578 -0.070032 -0.043903
0.086987 0.104111 0.528006 76 67 147 0.008555 0.057741 0.998295
0.048752 0.130442 0.496454 76 67 147 -0.977733 0.146272 -0.150475
0.092549 0.096813 0.528928 76 67 147 -0.107697 0.051009 0.992874
0.048510 0.127600 0.495262 76 67 147 -0.977733 0.146272 -0.150475
0.047044 0.087583 0.540038 76 67 147 -0.906873 -0.037185 0.419760
0.047452 0.106697 0.499356 76 67 147 -0.996116 -0.071909 -0.050823
0.118719 0.151876 0.499645 76 67 147 0.991748 -0.125450 0.026435
0.114084 0.112999 0.515658 76 67 147 0.996322 0.070509 0.048701
0.127715 0.202960 0.498715 76 67 147 0.976350 -0.214245 0.028964
0.070008 0.176479 0.527945 76 67 147 0.960354 -0.239765 0.142245
0.074929 0.088492 0.529007 76 67 147 0.007141 0.057227 0.998336
0.124217 0.187187 0.499967 76 67 147 0.976350 -0.214245 0.028964
0.083777 0.062600 0.491078 76 67 147 0.007817 -0.003558 -0.999963
0.063151 0.087165 0.490445 76 67 147 0.054066 0.019620 -0.998345
0.052743 0.046283 0.530029 76 67 147 -0.967624 -0.246669 -0.053464
0.063074 0.055253 0.541080 76 67 147 0.958368 0.236929 0.159362
0.061556 0.185098 0.496581 76 67 147 -0.161517 0.126648 -0.978710
0.125718 0.194440 0.502999 76 67 147 0.976261 -0.214913 0.026961
0.083275 0.065597 0.530260 76 67 147 0.007141 0.057227 0.998336
0.074274 0.199915 0.496546 76 67 147 -0.128304 0.119350 -0.984527
0.085356 0.099169 0.491003 76 67 147 0.020659 -0.002624 -0.999783
0.087357 0.069080 0.530029 76 67 147 0.008555 0.057741 0.998295
0.074440 0.145891 0.524128 76 67 147 0.011713 0.111996 0.993640
0.122746 0.187141 0.522810 76 67 147 0.922288 -0.156802 0.353268
0.054329 0.176923 0.510860 76 67 147 -0.968471 0.238066 -0.073400
0.512933 -0.241132 -0.491877 173 76 129 0.331380 0.038130 -0.942727
0.443650 -0.265882 -0.484533 173 76 129 -0.029873 0.037560 -0.998848
0.473066 -0.231624 -0.500766 173 76 129 0.081268 0.041123 -0.995844
0.502241 -0.247785 -0.495905 173 76 129 0.331380 0.038130 -0.942727
0.491882 -0.314490 -0.395836 173 76 129 -0.345085 -0.467178 0.814040
0.510671 -0.304448 -0.408767 173 76 129 -0.004025 0.999952 0.008980
0.536464 -0.257779 -0.477357 173 76 129 0.558267 0.032757 -0.829014
0.559890 -0.257814 -0.447658 173 76 129 0.874963 0.018492 -0.483836
0.526859 -0.278549 -0.484661 173 76 129 0.560862 0.033403 -0.827235
0.463929 -0.293192 -0.479350 173 76 129 -0.011400 -0.974107 -0.225799
0.459669 -0.305480 -0.485580 173 76 129 -0.241097 0.970495 0.003412
0.485721 -0.304379 -0.446674 173 76 129 -0.012077 0.999913 0.005307
0.519049 -0.223083 -0.487715 173 76 129 0.560862 0.033403 -0.827235
0.482493 -0.304382 -0.453473 173 76 129 -0.012077 0.999913 0.005307
0.478129 -0.304310 -0.477315 173 76 129 -0.009214 0.999954 0.002528
0.556610 -0.233129 -0.452645 173 76 129 0.874963 0.018492 -0.483836
0.524997 -0.314299 -0.420064 173 76 129 0.000000 -1.000000 0.000000
0.495538 -0.314300 -0.452863 173 76 129 0.000000 -1.000000 0.000000
0.569388 -0.252228 -0.428149 173 76 129 0.958056 0.010597 -0.286385
0.461606 -0.305229 -0.479827 173 76 129 -0.196329 0.980068 0.030344
0.496703 -0.304449 -0.419989 173 76 129 -0.008364 0.999925 0.008990
0.576815 -0.256538 -0.375326 173 76 129 0.182043 -0.030658 0.982813
0.542984 -0.304096 -0.433599 173 76 129 -0.002370 0.999986 0.004629
0.532966 -0.266804 -0.480068 173 76 129 0.558267 0.032757 -0.829014
0.574778 -0.254999 -0.374901 173 76 129 0.182043 -0.030658 0.982813
0.551129 -0.214516 -0.459507 173 76 129 0.740832 0.025665 -0.671200
0.577167 -0.217988 -0.395132 173 76 129 0.995893 0.003207 -0.090480
0.540079 -0.304062 -0.456079 173 76 129 0.094365 0.995367 -0.018437
0.574366 -0.283721 -0.412665 173 76 129 0.957466 0.010131 -0.288367
0.545449 -0.294477 -0.468882 173 76 129 0.743105 0.026365 -0.668655
0.575543 -0.276309 -0.408495 173 76 129 0.957466 0.010131 -0.288367
0.550830 -0.304893 -0.446562 173 76 129 0.090826 0.995684 -0.019067
0.457909 -0.306053 -0.477149 173 76 129 -0.196329 0.980068 0.030344
0.566324 -0.253484 -0.367328 173 76 129 0.999842 0.000726 -0.017752
0.495185 -0.244657 -0.498277 173 76 129 0.334290 0.038792 -0.941672
0.511932 -0.285309 -0.494016 173 76 129 0.331380 0.038130 -0.942727
0.526065 -0.314299 -0.400318 173 76 129 0.000000 -1.000000 0.000000
0.488562 -0.271449 -0.501147 173 76 129 0.080526 0.040901 -0.995913
0.571676 -0.237201 -0.419961 173 76 129 0.957466 0.010131 -0.288367
0.523796 -0.314299 -0.389741 173 76 129 0.000000 -1.000000 0.000000
0.561651 -0.295818 -0.372489 173 76 129 0.352613 -0.029659 0.935299
0.478087 -0.320801 -0.414419 173 76 129 -0.538380 -0.651583 0.534403
0.566295 -0.232121 -0.362830 173 76 129 0.999811 0.007820 -0.017807
0.566302 -0.262873 -0.368900 173 76 129 0.999842 0.000726 -0.017752
0.472393 -0.231551 -0.500818 173 76 129 0.081268 0.041123 -0.995844
0.483859 -0.294615 -0.502415 173 76 129 0.081707 0.035341 -0.996030
0.468492 -0.237149 -0.501368 173 76 129 0.081268 0.041123 -0.995844
0.572304 -0.221600 -0.417330 173 76 129 0.957466 0.010131 -0.288367
0.531640 -0.314299 -0.402175 173 76 129 0.000000 -1.000000 0.000000
0.499875 -0.306521 -0.393109 173 76 129 -0.078703 0.980303 0.181141
0.467137 -0.273100 -0.502963 173 76 129 0.081268 0.041123 -0.995844
0.472144 -0.332315 -0.439290 173 76 129 -0.904493 -0.235954 0.355271
0.566323 -0.258496 -0.367572 173 76 129 0.999842 0.000726 -0.017752
0.445125 -0.308108 -0.485975 173 76 129 -0.029921 -0.048256 -0.998387
0.566516 -0.258610 -0.356673 173 76 129 0.999842 0.000726 -0.017752
0.548460 -0.285406 -0.465178 173 76 129 0.743105 0.026365 -0.668655
0.558932 -0.256469 -0.449338 173 76 129 0.874963 0.018492 -0.483836
0.561152 -0.287051 -0.446492 173 76 129 0.874963 0.018492 -0.483836
0.513402 -0.304450 -0.407535 173 76 129 -0.002827 0.999940 0.010582
0.531854 -0.314299 -0.369557 173 76 129 0.000000 -1.000000 0.000000
0.566198 -0.212261 -0.358003 173 76 129 0.999808 0.011594 -0.015803
0.551315 -0.217547 -0.359856 173 76 129 -0.030087 -0.999508 0.008848
0.507606 -0.314299 -0.439580 173 76 129 0.000000 -1.000000 0.000000
0.571743 -0.263559 -0.420687 173 76 129 0.958056 0.010597 -0.286385
0.454929 -0.266503 -0.484894 173 76 129 -0.029873 0.037560 -0.998848
0.480464 -0.304452 -0.444805 173 76 129 -0.012077 0.999913 0.005307
0.563780 -0.253994 -0.372838 173 76 129 0.181477 -0.030765 0.982914
0.464570 -0.269910 -0.491820 173 76 129 -0.993765 0.004114 -0.111418
0.464917 -0.292843 -0.482258 173 76 129 -0.964552 -0.015358 -0.263446
0.456408 -0.300287 -0.485912 173 76 129 -0.006773 0.975042 -0.221916
0.522727 -0.249193 -0.486276 173 76 129 0.560862 0.033403 -0.827235
0.564614 -0.224727 -0.437940 173 76 129 0.873516 0.017855 -0.486468
0.566339 -0.247758 -0.366223 173 76 129 0.999842 0.000726 -0.017752
0.542086 -0.294042 -0.472601 173 76 129 0.743105 0.026365 -0.668655
0.559498 -0.240350 -0.447701 173 76 129 0.873516 0.017855 -0.486468
0.464378 -0.251886 -0.484626 173 76 129 -0.029873 0.037560 -0.998848
0.531864 -0.217544 -0.424469 173 76 129 -0.033498 -0.999375 0.011279
0.572892 -0.225856 -0.415525 173 76 129 0.957466 0.010131 -0.288367
0.573162 -0.297551 -0.417203 173 76 129 0.958056 0.010597 -0.286385
0.566387 -0.259592 -0.364033 173 76 129 0.999842 0.000726 -0.017752
0.444475 -0.269251 -0.484679 173 76 129 -0.031152 0.035395 -0.998888
