ply
format ascii 1.0
element vertex 706
property float x
property float y
property float z
property uchar red
property uchar green
property uchar blue
property float nx
property float ny
property float nz
end_header
0.383496 -0.379197 0.435601 218 169 83 0.000000 -0.794576 0.607165
0.453563 -0.347319 0.219688 218 169 83 1.000000 0.000000 0.000000
0.407920 -0.377002 0.438475 218 169 83 0.000000 -0.794576 0.607165
0.293524 -0.315368 0.283092 218 169 83 -1.000000 0.000000 0.000000
0.352881 -0.395441 0.237657 218 169 83 0.000000 -0.625219 -0.780449
0.293524 -0.336085 0.253426 218 169 83 -1.000000 0.000000 0.000000
0.312180 -0.392245 0.423130 218 169 83 0.000000 -0.682723 0.730677
0.421956 -0.371062 0.446248 218 169 83 0.000000 -0.794576 0.607165
-0.453563 -0.108060 -0.399002 23 80 191 -1.000000 0.000000 0.000000
-0.453563 -0.143415 -0.403633 23 80 191 -1.000000 0.000000 0.000000
-0.140923 -0.103823 -0.111291 23 80 191 0.000000 1.000000 0.000000
-0.174416 -0.291986 -0.445872 23 80 191 0.000000 -1.000000 0.000000
-0.243140 -0.200618 -0.453563 23 80 191 0.000000 0.000000 -1.000000
-0.332764 -0.222315 -0.453563 23 80 191 0.000000 0.000000 -1.000000
-0.006938 -0.103823 -0.090487 23 80 191 0.000000 1.000000 0.000000
-0.453563 -0.272691 -0.104970 23 80 191 -1.000000 0.000000 0.000000
-0.232751 -0.291986 -0.107388 23 80 191 0.000000 -1.000000 0.000000
-0.083495 -0.103823 -0.049628 23 80 191 0.000000 1.000000 0.000000
-0.161875 -0.291986 -0.444285 23 80 191 0.000000 -1.000000 0.000000
-0.268786 -0.080437 -0.077258 23 80 191 0.000000 1.000000 0.000000
-0.306839 -0.085399 -0.453563 23 80 191 0.000000 0.000000 -1.000000
-0.453563 -0.109120 -0.261171 23 80 191 -1.000000 0.000000 0.000000
-0.242939 -0.080437 -0.326974 23 80 191 0.000000 1.000000 0.000000
-0.002250 -0.233319 -0.453563 23 80 191 0.000000 0.000000 -1.000000
-0.122545 -0.243347 -0.453563 23 80 191 0.000000 0.000000 -1.000000
-0.453563 -0.121584 -0.395202 23 80 191 -1.000000 0.000000 0.000000
-0.199514 -0.244617 -0.453563 23 80 191 0.000000 0.000000 -1.000000
-0.169162 -0.080437 -0.054320 23 80 191 0.000000 1.000000 0.000000
-0.124809 -0.080437 -0.344499 23 80 191 0.000000 1.000000 0.000000
-0.203503 -0.080437 -0.386515 23 80 191 0.000000 1.000000 0.000000
-0.189759 -0.193078 -0.453563 23 80 191 0.000000 0.000000 -1.000000
-0.170867 -0.284109 -0.453563 23 80 191 0.000000 0.000000 -1.000000
-0.255691 -0.291986 -0.027780 23 80 191 0.000000 -1.000000 0.000000
-0.052207 -0.103823 -0.037860 23 80 191 0.000000 1.000000 0.000000
-0.359604 -0.080437 -0.391378 23 80 191 0.000000 1.000000 0.000000
-0.125777 -0.260166 -0.453563 23 80 191 0.000000 0.000000 -1.000000
-0.235823 -0.291986 -0.146695 23 80 191 0.000000 -1.000000 0.000000
-0.423372 -0.291986 -0.152892 23 80 191 0.000000 -1.000000 0.000000
-0.023721 -0.291986 -0.170321 23 80 191 0.000000 -1.000000 0.000000
-0.295860 -0.291986 -0.128059 23 80 191 0.000000 -1.000000 0.000000
-0.348775 -0.080437 -0.421702 23 80 191 0.000000 1.000000 0.000000
-0.121226 -0.291986 -0.006923 23 80 191 0.000000 -1.000000 0.000000
-0.321085 -0.291986 -0.206825 23 80 191 0.000000 -1.000000 0.000000
-0.242937 -0.080437 -0.335715 23 80 191 0.000000 1.000000 0.000000
-0.453563 -0.241614 -0.005831 23 80 191 -1.000000 0.000000 0.000000
-0.248456 -0.080437 -0.227626 23 80 191 0.000000 1.000000 0.000000
-0.453563 -0.197028 -0.375801 23 80 191 -1.000000 0.000000 0.000000
-0.453563 -0.145538 -0.360160 23 80 191 -1.000000 0.000000 0.000000
-0.003017 -0.291986 -0.210254 23 80 191 0.000000 -1.000000 0.000000
-0.068314 -0.103823 -0.113306 23 80 191 0.000000 1.000000 0.000000
-0.108045 -0.103823 -0.050962 23 80 191 0.000000 1.000000 0.000000
-0.323486 -0.156690 -0.453563 23 80 191 0.000000 0.000000 -1.000000
-0.318558 -0.080437 -0.445426 23 80 191 0.000000 1.000000 0.000000
-0.296489 -0.257362 -0.453563 23 80 191 0.000000 0.000000 -1.000000
-0.256011 -0.187717 -0.453563 23 80 191 0.000000 0.000000 -1.000000
-0.453563 -0.118201 -0.131120 23 80 191 -1.000000 0.000000 0.000000
-0.025799 -0.291986 -0.195762 23 80 191 0.000000 -1.000000 0.000000
-0.316884 -0.183073 -0.453563 23 80 191 0.000000 0.000000 -1.000000
-0.281849 -0.239721 -0.453563 23 80 191 0.000000 0.000000 -1.000000
-0.052761 -0.291986 -0.276845 23 80 191 0.000000 -1.000000 0.000000
-0.088115 -0.125345 -0.453563 23 80 191 0.000000 0.000000 -1.000000
-0.321621 -0.291986 -0.211811 23 80 191 0.000000 -1.000000 0.000000
-0.405201 -0.080437 -0.422794 23 80 191 0.000000 1.000000 0.000000
-0.195575 -0.080437 -0.308231 23 80 191 0.000000 1.000000 0.000000
-0.370816 -0.080437 -0.413008 23 80 191 0.000000 1.000000 0.000000
-0.150617 -0.291986 -0.238997 23 80 191 0.000000 -1.000000 0.000000
-0.453563 -0.291964 -0.345349 23 80 191 -1.000000 0.000000 0.000000
-0.453563 -0.146615 -0.072867 23 80 191 -1.000000 0.000000 0.000000
-0.453563 -0.186172 -0.139360 23 80 191 -1.000000 0.000000 0.000000
-0.453563 -0.137746 -0.015210 23 80 191 -1.000000 0.000000 0.000000
-0.322342 -0.080437 -0.425920 23 80 191 0.000000 1.000000 0.000000
-0.058557 -0.103823 -0.221923 23 80 191 0.000000 1.000000 0.000000
-0.202203 -0.291986 -0.153834 23 80 191 0.000000 -1.000000 0.000000
-0.439707 -0.302411 -0.239410 23 80 191 0.000000 0.000000 1.000000
-0.150761 -0.291986 -0.426424 23 80 191 0.000000 -1.000000 0.000000
-0.041678 -0.103823 -0.231521 23 80 191 0.000000 1.000000 0.000000
-0.113356 -0.169778 -0.453563 23 80 191 0.000000 0.000000 -1.000000
-0.211890 -0.080437 -0.318407 23 80 191 0.000000 1.000000 0.000000
-0.180304 -0.080437 -0.295772 23 80 191 0.000000 1.000000 0.000000
-0.171728 -0.080437 -0.398147 23 80 191 0.000000 1.000000 0.000000
-0.056042 -0.201013 -0.453563 23 80 191 0.000000 0.000000 -1.000000
-0.083469 -0.291986 -0.027209 23 80 191 0.000000 -1.000000 0.000000
-0.112161 -0.080437 -0.360722 23 80 191 0.000000 1.000000 0.000000
-0.309325 -0.287120 -0.453563 23 80 191 0.000000 0.000000 -1.000000
-0.404100 -0.291986 -0.219350 23 80 191 0.000000 -1.000000 0.000000
-0.408263 -0.080437 -0.450939 23 80 191 0.000000 1.000000 0.000000
-0.453563 -0.222624 -0.102330 23 80 191 -1.000000 0.000000 0.000000
-0.450317 -0.080437 -0.073825 23 80 191 0.000000 1.000000 0.000000
-0.080046 -0.103823 -0.333056 23 80 191 0.000000 1.000000 0.000000
-0.123973 -0.135683 -0.453563 23 80 191 0.000000 0.000000 -1.000000
-0.250630 -0.126043 -0.453563 23 80 191 0.000000 0.000000 -1.000000
-0.453563 -0.262398 -0.177009 23 80 191 -1.000000 0.000000 0.000000
-0.128373 -0.291986 -0.395960 23 80 191 0.000000 -1.000000 0.000000
-0.290923 -0.241655 -0.453563 23 80 191 0.000000 0.000000 -1.000000
-0.019428 -0.103823 -0.278383 23 80 191 0.000000 1.000000 0.000000
-0.248686 -0.080437 -0.139154 23 80 191 0.000000 1.000000 0.000000
-0.309143 -0.291986 -0.053787 23 80 191 0.000000 -1.000000 0.000000
-0.076926 -0.291986 -0.258982 23 80 191 0.000000 -1.000000 0.000000
-0.231029 -0.291986 -0.394108 23 80 191 0.000000 -1.000000 0.000000
-0.110462 -0.103823 -0.131937 23 80 191 0.000000 1.000000 0.000000
-0.453563 -0.099235 -0.381540 23 80 191 -1.000000 0.000000 0.000000
-0.049642 -0.291986 -0.431947 23 80 191 0.000000 -1.000000 0.000000
-0.453563 -0.242296 -0.113794 23 80 191 -1.000000 0.000000 0.000000
-0.453563 -0.123186 -0.271852 23 80 191 -1.000000 0.000000 0.000000
-0.248928 -0.135472 -0.453563 23 80 191 0.000000 0.000000 -1.000000
-0.235891 -0.080437 -0.151928 23 80 191 0.000000 1.000000 0.000000
-0.266704 -0.080437 -0.399002 23 80 191 0.000000 1.000000 0.000000
-0.453563 -0.215794 -0.249933 23 80 191 -1.000000 0.000000 0.000000
-0.453563 -0.100164 -0.109986 23 80 191 -1.000000 0.000000 0.000000
-0.113119 -0.080437 -0.389366 23 80 191 0.000000 1.000000 0.000000
-0.453563 -0.115268 -0.108140 23 80 191 -1.000000 0.000000 0.000000
-0.067356 -0.291986 -0.338258 23 80 191 0.000000 -1.000000 0.000000
-0.171360 -0.291986 -0.447461 23 80 191 0.000000 -1.000000 0.000000
-0.207654 -0.291986 -0.179110 23 80 191 0.000000 -1.000000 0.000000
-0.313679 -0.291986 -0.133720 23 80 191 0.000000 -1.000000 0.000000
-0.194406 -0.291986 -0.117825 23 80 191 0.000000 -1.000000 0.000000
-0.166583 -0.291986 -0.098059 23 80 191 0.000000 -1.000000 0.000000
-0.041780 -0.291986 -0.060130 23 80 191 0.000000 -1.000000 0.000000
-0.265606 -0.291986 -0.062660 23 80 191 0.000000 -1.000000 0.000000
-0.453563 -0.110998 -0.004362 23 80 191 -1.000000 0.000000 0.000000
-0.017116 -0.088579 -0.341230 23 80 191 0.000000 0.000000 1.000000
-0.340865 -0.291986 -0.095524 23 80 191 0.000000 -1.000000 0.000000
-0.280490 -0.271124 -0.453563 23 80 191 0.000000 0.000000 -1.000000
-0.003591 -0.291986 -0.210250 23 80 191 0.000000 -1.000000 0.000000
-0.453563 -0.100771 -0.237449 23 80 191 -1.000000 0.000000 0.000000
-0.167462 -0.291986 -0.113893 23 80 191 0.000000 -1.000000 0.000000
-0.453563 -0.121256 -0.201334 23 80 191 -1.000000 0.000000 0.000000
-0.377384 -0.080437 -0.043076 23 80 191 0.000000 1.000000 0.000000
-0.137484 -0.291986 -0.365837 23 80 191 0.000000 -1.000000 0.000000
-0.179679 -0.291986 -0.424076 23 80 191 0.000000 -1.000000 0.000000
-0.223307 -0.291986 -0.184417 23 80 191 0.000000 -1.000000 0.000000
-0.110924 -0.291986 -0.349689 23 80 191 0.000000 -1.000000 0.000000
-0.275166 -0.291986 -0.033572 23 80 191 0.000000 -1.000000 0.000000
-0.198441 -0.080437 -0.423671 23 80 191 0.000000 1.000000 0.000000
-0.124401 -0.291986 -0.369631 23 80 191 0.000000 -1.000000 0.000000
-0.453563 -0.183600 -0.303349 23 80 191 -1.000000 0.000000 0.000000
-0.430298 -0.291986 -0.050378 23 80 191 0.000000 -1.000000 0.000000
-0.089323 -0.080437 -0.400857 23 80 191 0.000000 1.000000 0.000000
-0.423045 -0.291986 -0.003333 23 80 191 0.000000 -1.000000 0.000000
-0.026543 -0.291986 -0.315180 23 80 191 0.000000 -1.000000 0.000000
-0.453563 -0.201452 -0.237212 23 80 191 -1.000000 0.000000 0.000000
-0.068710 -0.291986 -0.175205 23 80 191 0.000000 -1.000000 0.000000
-0.453563 -0.124598 -0.425181 23 80 191 -1.000000 0.000000 0.000000
-0.096696 -0.291986 -0.352640 23 80 191 0.000000 -1.000000 0.000000
-0.354052 -0.232261 -0.453563 23 80 191 0.000000 0.000000 -1.000000
-0.402193 -0.080437 -0.138578 23 80 191 0.000000 1.000000 0.000000
-0.048057 -0.291986 -0.179431 23 80 191 0.000000 -1.000000 0.000000
-0.368990 -0.291986 -0.174360 23 80 191 0.000000 -1.000000 0.000000
-0.164022 -0.087302 -0.068816 23 80 191 1.000000 0.000000 0.000000
-0.365447 -0.080437 -0.441984 23 80 191 0.000000 1.000000 0.000000
-0.387648 -0.080437 -0.375665 23 80 191 0.000000 1.000000 0.000000
-0.187174 -0.092592 -0.453563 23 80 191 0.000000 0.000000 -1.000000
-0.295362 -0.291986 -0.139504 23 80 191 0.000000 -1.000000 0.000000
-0.187904 -0.263204 -0.453563 23 80 191 0.000000 0.000000 -1.000000
-0.182832 -0.080437 -0.443716 23 80 191 0.000000 1.000000 0.000000
-0.178830 -0.291986 -0.272108 23 80 191 0.000000 -1.000000 0.000000
-0.172900 -0.080437 -0.141677 23 80 191 0.000000 1.000000 0.000000
-0.010402 -0.138200 -0.453563 23 80 191 0.000000 0.000000 -1.000000
-0.409470 -0.286643 -0.453563 23 80 191 0.000000 0.000000 -1.000000
-0.351982 -0.261565 -0.453563 23 80 191 0.000000 0.000000 -1.000000
-0.138581 -0.103823 -0.332378 23 80 191 0.000000 1.000000 0.000000
-0.453563 -0.136804 -0.040395 23 80 191 -1.000000 0.000000 0.000000
-0.453563 -0.265373 -0.396041 23 80 191 -1.000000 0.000000 0.000000
-0.253142 -0.080437 -0.059547 23 80 191 0.000000 1.000000 0.000000
-0.007319 -0.103823 -0.286042 23 80 191 0.000000 1.000000 0.000000
-0.453563 -0.187049 -0.272832 23 80 191 -1.000000 0.000000 0.000000
-0.453563 -0.163871 -0.022343 23 80 191 -1.000000 0.000000 0.000000
-0.105458 -0.286328 -0.453563 23 80 191 0.000000 0.000000 -1.000000
-0.414878 -0.291986 -0.031647 23 80 191 0.000000 -1.000000 0.000000
-0.040644 -0.103823 -0.272679 23 80 191 0.000000 1.000000 0.000000
-0.166703 -0.080437 -0.243034 23 80 191 0.000000 1.000000 0.000000
-0.359429 -0.080437 -0.156516 23 80 191 0.000000 1.000000 0.000000
-0.125860 -0.103823 -0.257323 23 80 191 0.000000 1.000000 0.000000
-0.164022 -0.086309 -0.054390 23 80 191 1.000000 0.000000 0.000000
-0.168657 -0.291986 -0.441734 23 80 191 0.000000 -1.000000 0.000000
-0.164022 -0.094823 -0.052411 23 80 191 1.000000 0.000000 0.000000
-0.361286 -0.291986 -0.129297 23 80 191 0.000000 -1.000000 0.000000
-0.000246 -0.291986 -0.414631 23 80 191 0.000000 -1.000000 0.000000
-0.272329 -0.080437 -0.120165 23 80 191 0.000000 1.000000 0.000000
-0.023822 -0.291986 -0.262986 23 80 191 0.000000 -1.000000 0.000000
-0.218279 -0.080437 -0.435063 23 80 191 0.000000 1.000000 0.000000
-0.453563 -0.102300 -0.435064 23 80 191 -1.000000 0.000000 0.000000
-0.006749 -0.080437 -0.366329 23 80 191 0.000000 1.000000 0.000000
-0.165379 -0.080437 -0.043021 23 80 191 0.000000 1.000000 0.000000
-0.033855 -0.220380 -0.453563 23 80 191 0.000000 0.000000 -1.000000
-0.311216 -0.080437 -0.398189 23 80 191 0.000000 1.000000 0.000000
-0.250631 -0.291986 -0.034884 23 80 191 0.000000 -1.000000 0.000000
-0.259724 -0.080437 -0.181427 23 80 191 0.000000 1.000000 0.000000
-0.164022 -0.093643 -0.079744 23 80 191 1.000000 0.000000 0.000000
-0.067557 -0.087462 -0.453563 23 80 191 0.000000 0.000000 -1.000000
-0.315130 -0.080437 -0.051173 23 80 191 0.000000 1.000000 0.000000
-0.453563 -0.155259 -0.380459 23 80 191 -1.000000 0.000000 0.000000
-0.151397 -0.173704 -0.453563 23 80 191 0.000000 0.000000 -1.000000
-0.073826 -0.291986 -0.432669 23 80 191 0.000000 -1.000000 0.000000
-0.287937 -0.291986 -0.133013 23 80 191 0.000000 -1.000000 0.000000
-0.112211 -0.291986 -0.330488 23 80 191 0.000000 -1.000000 0.000000
-0.402695 -0.186680 -0.453563 23 80 191 0.000000 0.000000 -1.000000
-0.187496 -0.080437 -0.310819 23 80 191 0.000000 1.000000 0.000000
-0.194091 -0.080437 -0.444458 23 80 191 0.000000 1.000000 0.000000
-0.157640 -0.103823 -0.193053 23 80 191 0.000000 1.000000 0.000000
-0.143836 -0.291986 -0.338336 23 80 191 0.000000 -1.000000 0.000000
-0.064101 -0.080437 -0.374170 23 80 191 0.000000 1.000000 0.000000
-0.453563 -0.245049 -0.000652 23 80 191 -1.000000 0.000000 0.000000
-0.168984 -0.080437 -0.062521 23 80 191 0.000000 1.000000 0.000000
-0.110244 -0.291986 -0.138400 23 80 191 0.000000 -1.000000 0.000000
-0.364139 -0.171668 -0.453563 23 80 191 0.000000 0.000000 -1.000000
-0.052019 -0.135149 -0.453563 23 80 191 0.000000 0.000000 -1.000000
-0.116133 -0.291986 -0.025076 23 80 191 0.000000 -1.000000 0.000000
-0.453563 -0.165777 -0.177378 23 80 191 -1.000000 0.000000 0.000000
-0.026644 -0.291986 -0.364546 23 80 191 0.000000 -1.000000 0.000000
-0.205793 -0.080437 -0.291424 23 80 191 0.000000 1.000000 0.000000
-0.190577 -0.291986 -0.434373 23 80 191 0.000000 -1.000000 0.000000
-0.453563 -0.238723 -0.356199 23 80 191 -1.000000 0.000000 0.000000
-0.453563 -0.086466 -0.049360 23 80 191 -1.000000 0.000000 0.000000
-0.299045 -0.291986 -0.168615 23 80 191 0.000000 -1.000000 0.000000
-0.421402 -0.080437 -0.401731 23 80 191 0.000000 1.000000 0.000000
-0.453563 -0.236415 -0.439550 23 80 191 -1.000000 0.000000 0.000000
-0.179472 -0.291986 -0.183839 23 80 191 0.000000 -1.000000 0.000000
-0.453563 -0.098688 -0.091991 23 80 191 -1.000000 0.000000 0.000000
-0.018727 -0.080437 -0.449048 23 80 191 0.000000 1.000000 0.000000
-0.356357 -0.291986 -0.047102 23 80 191 0.000000 -1.000000 0.000000
-0.012732 -0.198738 -0.453563 23 80 191 0.000000 0.000000 -1.000000
-0.294763 -0.177847 -0.453563 23 80 191 0.000000 0.000000 -1.000000
-0.437732 -0.080437 -0.044730 23 80 191 0.000000 1.000000 0.000000
-0.040798 -0.103823 -0.088228 23 80 191 0.000000 1.000000 0.000000
-0.153469 -0.103823 -0.322379 23 80 191 0.000000 1.000000 0.000000
-0.453563 -0.094374 -0.372404 23 80 191 -1.000000 0.000000 0.000000
-0.037388 -0.103823 -0.034007 23 80 191 0.000000 1.000000 0.000000
-0.331949 -0.131795 -0.453563 23 80 191 0.000000 0.000000 -1.000000
-0.065744 -0.103823 -0.290733 23 80 191 0.000000 1.000000 0.000000
-0.424240 -0.080437 -0.050877 23 80 191 0.000000 1.000000 0.000000
-0.408852 -0.080437 -0.384016 23 80 191 0.000000 1.000000 0.000000
-0.097306 -0.171975 -0.453563 23 80 191 0.000000 0.000000 -1.000000
-0.311191 -0.080437 -0.111046 23 80 191 0.000000 1.000000 0.000000
-0.453563 -0.197577 -0.404125 23 80 191 -1.000000 0.000000 0.000000
-0.453563 -0.145217 -0.119407 23 80 191 -1.000000 0.000000 0.000000
-0.000093 -0.291986 -0.038162 23 80 191 0.000000 -1.000000 0.000000
-0.193077 -0.291986 -0.153915 23 80 191 0.000000 -1.000000 0.000000
-0.414076 -0.080437 -0.033470 23 80 191 0.000000 1.000000 0.000000
-0.453563 -0.158069 -0.414881 23 80 191 -1.000000 0.000000 0.000000
-0.009778 -0.080437 -0.432764 23 80 191 0.000000 1.000000 0.000000
-0.453563 -0.227082 -0.024034 23 80 191 -1.000000 0.000000 0.000000
-0.271120 -0.080437 -0.382840 23 80 191 0.000000 1.000000 0.000000
-0.413797 -0.291986 -0.235518 23 80 191 0.000000 -1.000000 0.000000
-0.031887 -0.103823 -0.056669 23 80 191 0.000000 1.000000 0.000000
-0.277063 -0.291986 -0.136076 23 80 191 0.000000 -1.000000 0.000000
-0.248067 -0.080437 -0.231441 23 80 191 0.000000 1.000000 0.000000
-0.068286 -0.223201 -0.453563 23 80 191 0.000000 0.000000 -1.000000
-0.308412 -0.291986 -0.194767 23 80 191 0.000000 -1.000000 0.000000
-0.442324 -0.291986 -0.173336 23 80 191 0.000000 -1.000000 0.000000
-0.390361 -0.270164 -0.453563 23 80 191 0.000000 0.000000 -1.000000
-0.262601 -0.247078 -0.453563 23 80 191 0.000000 0.000000 -1.000000
-0.275846 -0.291986 -0.055974 23 80 191 0.000000 -1.000000 0.000000
-0.235819 -0.080437 -0.072198 23 80 191 0.000000 1.000000 0.000000
-0.453563 -0.106464 -0.088234 23 80 191 -1.000000 0.000000 0.000000
-0.318111 -0.080437 -0.377004 23 80 191 0.000000 1.000000 0.000000
-0.198114 -0.108314 -0.453563 23 80 191 0.000000 0.000000 -1.000000
-0.289161 -0.133117 -0.453563 23 80 191 0.000000 0.000000 -1.000000
-0.272182 -0.080437 -0.421160 23 80 191 0.000000 1.000000 0.000000
-0.453563 -0.198849 -0.412860 23 80 191 -1.000000 0.000000 0.000000
-0.453563 -0.157840 -0.306008 23 80 191 -1.000000 0.000000 0.000000
-0.421722 -0.080437 -0.051707 23 80 191 0.000000 1.000000 0.000000
-0.309474 -0.291986 -0.071511 23 80 191 0.000000 -1.000000 0.000000
-0.161177 -0.291986 -0.305531 23 80 191 0.000000 -1.000000 0.000000
-0.399495 -0.114315 -0.453563 23 80 191 0.000000 0.000000 -1.000000
-0.009282 -0.183542 -0.453563 23 80 191 0.000000 0.000000 -1.000000
-0.048740 -0.103823 -0.053604 23 80 191 0.000000 1.000000 0.000000
-0.103000 -0.080437 -0.406348 23 80 191 0.000000 1.000000 0.000000
-0.403720 -0.080437 -0.103758 23 80 191 0.000000 1.000000 0.000000
-0.453563 -0.197112 -0.227608 23 80 191 -1.000000 0.000000 0.000000
-0.055938 -0.291986 -0.096627 23 80 191 0.000000 -1.000000 0.000000
-0.217843 -0.080437 -0.052648 23 80 191 0.000000 1.000000 0.000000
-0.327894 -0.295313 -0.239410 23 80 191 0.000000 0.000000 1.000000
-0.110712 -0.291986 -0.110436 23 80 191 0.000000 -1.000000 0.000000
-0.453563 -0.158443 -0.416043 23 80 191 -1.000000 0.000000 0.000000
-0.127497 -0.080437 -0.371722 23 80 191 0.000000 1.000000 0.000000
-0.388137 -0.197577 -0.453563 23 80 191 0.000000 0.000000 -1.000000
-0.095193 -0.081804 -0.453563 23 80 191 0.000000 0.000000 -1.000000
-0.350397 -0.080437 -0.102252 23 80 191 0.000000 1.000000 0.000000
-0.411468 -0.080437 -0.423050 23 80 191 0.000000 1.000000 0.000000
-0.367757 -0.304979 -0.239410 23 80 191 0.000000 0.000000 1.000000
-0.197464 -0.291986 -0.055677 23 80 191 0.000000 -1.000000 0.000000
-0.393198 -0.291986 -0.167733 23 80 191 0.000000 -1.000000 0.000000
-0.018865 -0.291986 -0.404871 23 80 191 0.000000 -1.000000 0.000000
-0.362643 -0.080437 -0.126372 23 80 191 0.000000 1.000000 0.000000
-0.303135 -0.173167 -0.453563 23 80 191 0.000000 0.000000 -1.000000
-0.366748 -0.080437 -0.194126 23 80 191 0.000000 1.000000 0.000000
-0.453563 -0.233033 -0.190724 23 80 191 -1.000000 0.000000 0.000000
-0.319566 -0.308266 -0.453563 23 80 191 0.000000 0.000000 -1.000000
-0.170796 -0.080437 -0.028787 23 80 191 0.000000 1.000000 0.000000
-0.341481 -0.080437 -0.079182 23 80 191 0.000000 1.000000 0.000000
-0.110299 -0.291986 -0.214340 23 80 191 0.000000 -1.000000 0.000000
-0.453563 -0.147679 -0.248624 23 80 191 -1.000000 0.000000 0.000000
-0.418372 -0.154021 -0.453563 23 80 191 0.000000 0.000000 -1.000000
-0.150750 -0.291986 -0.323448 23 80 191 0.000000 -1.000000 0.000000
-0.157433 -0.103823 -0.231132 23 80 191 0.000000 1.000000 0.000000
-0.092112 -0.080437 -0.449386 23 80 191 0.000000 1.000000 0.000000
-0.007570 -0.291986 -0.091689 23 80 191 0.000000 -1.000000 0.000000
-0.453563 -0.256469 -0.219894 23 80 191 -1.000000 0.000000 0.000000
-0.203581 -0.291986 -0.435470 23 80 191 0.000000 -1.000000 0.000000
-0.028640 -0.103823 -0.093951 23 80 191 0.000000 1.000000 0.000000
-0.453563 -0.226564 -0.077499 23 80 191 -1.000000 0.000000 0.000000
-0.074567 -0.291986 -0.369760 23 80 191 0.000000 -1.000000 0.000000
-0.004234 -0.103823 -0.158392 23 80 191 0.000000 1.000000 0.000000
-0.270497 -0.080437 -0.116982 23 80 191 0.000000 1.000000 0.000000
-0.020379 -0.103823 -0.323033 23 80 191 0.000000 1.000000 0.000000
-0.127657 -0.084205 -0.453563 23 80 191 0.000000 0.000000 -1.000000
-0.148945 -0.080437 -0.427271 23 80 191 0.000000 1.000000 0.000000
-0.147190 -0.291986 -0.079195 23 80 191 0.000000 -1.000000 0.000000
-0.453563 -0.275893 -0.260215 23 80 191 -1.000000 0.000000 0.000000
-0.428254 -0.272589 -0.453563 23 80 191 0.000000 0.000000 -1.000000
-0.381101 -0.088821 -0.453563 23 80 191 0.000000 0.000000 -1.000000
-0.164022 -0.100669 -0.075112 23 80 191 1.000000 0.000000 0.000000
-0.060916 -0.291986 -0.122572 23 80 191 0.000000 -1.000000 0.000000
-0.249358 -0.080437 -0.437873 23 80 191 0.000000 1.000000 0.000000
-0.098783 -0.105612 -0.453563 23 80 191 0.000000 0.000000 -1.000000
-0.410682 -0.080437 -0.154738 23 80 191 0.000000 1.000000 0.000000
-0.207267 -0.291986 -0.290749 23 80 191 0.000000 -1.000000 0.000000
-0.453563 -0.258360 -0.021424 23 80 191 -1.000000 0.000000 0.000000
-0.188600 -0.080437 -0.088576 23 80 191 0.000000 1.000000 0.000000
-0.430254 -0.080437 -0.403717 23 80 191 0.000000 1.000000 0.000000
-0.180172 -0.080437 -0.056900 23 80 191 0.000000 1.000000 0.000000
-0.384747 -0.080437 -0.386697 23 80 191 0.000000 1.000000 0.000000
-0.110431 -0.291986 -0.376448 23 80 191 0.000000 -1.000000 0.000000
-0.121564 -0.103823 -0.056554 23 80 191 0.000000 1.000000 0.000000
-0.079278 -0.291986 -0.262200 23 80 191 0.000000 -1.000000 0.000000
-0.132667 -0.291986 -0.290178 23 80 191 0.000000 -1.000000 0.000000
-0.165776 -0.291986 -0.107681 23 80 191 0.000000 -1.000000 0.000000
-0.057999 -0.103823 -0.231457 23 80 191 0.000000 1.000000 0.000000
-0.183771 -0.080437 -0.277908 23 80 191 0.000000 1.000000 0.000000
-0.453563 -0.290112 -0.167200 23 80 191 -1.000000 0.000000 0.000000
-0.445823 -0.291986 -0.004271 23 80 191 0.000000 -1.000000 0.000000
-0.188603 -0.188843 -0.453563 23 80 191 0.000000 0.000000 -1.000000
-0.121735 -0.119666 -0.453563 23 80 191 0.000000 0.000000 -1.000000
-0.119286 -0.103823 -0.221346 23 80 191 0.000000 1.000000 0.000000
-0.024264 -0.291986 -0.001110 23 80 191 0.000000 -1.000000 0.000000
-0.164022 -0.086453 -0.010395 23 80 191 1.000000 0.000000 0.000000
-0.118371 -0.080437 -0.373536 23 80 191 0.000000 1.000000 0.000000
-0.288710 -0.108529 -0.453563 23 80 191 0.000000 0.000000 -1.000000
-0.121081 -0.103823 -0.091316 23 80 191 0.000000 1.000000 0.000000
-0.208258 -0.080437 -0.144958 23 80 191 0.000000 1.000000 0.000000
-0.067912 -0.291986 -0.333538 23 80 191 0.000000 -1.000000 0.000000
-0.388019 -0.080437 -0.158570 23 80 191 0.000000 1.000000 0.000000
-0.336449 -0.266922 -0.453563 23 80 191 0.000000 0.000000 -1.000000
-0.066622 -0.103823 -0.323783 23 80 191 0.000000 1.000000 0.000000
-0.045580 -0.103823 -0.050796 23 80 191 0.000000 1.000000 0.000000
-0.207125 -0.291986 -0.430317 23 80 191 0.000000 -1.000000 0.000000
-0.025603 -0.291986 -0.417509 23 80 191 0.000000 -1.000000 0.000000
-0.453563 -0.213832 -0.196410 23 80 191 -1.000000 0.000000 0.000000
-0.453563 -0.264613 -0.166761 23 80 191 -1.000000 0.000000 0.000000
-0.183298 -0.080437 -0.242761 23 80 191 0.000000 1.000000 0.000000
-0.225905 -0.080437 -0.317827 23 80 191 0.000000 1.000000 0.000000
-0.096296 -0.291986 -0.361057 23 80 191 0.000000 -1.000000 0.000000
-0.341615 -0.080437 -0.331781 23 80 191 0.000000 1.000000 0.000000
-0.200212 -0.080437 -0.299865 23 80 191 0.000000 1.000000 0.000000
-0.292828 -0.080437 -0.039835 23 80 191 0.000000 1.000000 0.000000
-0.049846 -0.291986 -0.402393 23 80 191 0.000000 -1.000000 0.000000
-0.085942 -0.103823 -0.138548 23 80 191 0.000000 1.000000 0.000000
-0.365916 -0.291986 -0.106054 23 80 191 0.000000 -1.000000 0.000000
-0.110904 -0.080437 -0.356611 23 80 191 0.000000 1.000000 0.000000
-0.444327 -0.253389 -0.453563 23 80 191 0.000000 0.000000 -1.000000
-0.453563 -0.254789 -0.271503 23 80 191 -1.000000 0.000000 0.000000
-0.221929 -0.291986 -0.401602 23 80 191 0.000000 -1.000000 0.000000
-0.453563 -0.163049 -0.049175 23 80 191 -1.000000 0.000000 0.000000
-0.379747 -0.308285 -0.239410 23 80 191 0.000000 0.000000 1.000000
-0.164341 -0.291986 -0.084194 23 80 191 0.000000 -1.000000 0.000000
-0.453563 -0.260486 -0.288874 23 80 191 -1.000000 0.000000 0.000000
-0.453563 -0.272945 -0.131567 23 80 191 -1.000000 0.000000 0.000000
-0.121102 -0.080437 -0.378687 23 80 191 0.000000 1.000000 0.000000
-0.055219 -0.263464 -0.453563 23 80 191 0.000000 0.000000 -1.000000
-0.183823 -0.291986 -0.118497 23 80 191 0.000000 -1.000000 0.000000
-0.275540 -0.291986 -0.225704 23 80 191 0.000000 -1.000000 0.000000
-0.453563 -0.283272 -0.226527 23 80 191 -1.000000 0.000000 0.000000
-0.311875 -0.224801 -0.453563 23 80 191 0.000000 0.000000 -1.000000
-0.308403 -0.297604 -0.453563 23 80 191 0.000000 0.000000 -1.000000
-0.080465 -0.291986 -0.160199 23 80 191 0.000000 -1.000000 0.000000
-0.453563 -0.192561 -0.163955 23 80 191 -1.000000 0.000000 0.000000
-0.139177 -0.291986 -0.328806 23 80 191 0.000000 -1.000000 0.000000
-0.172005 -0.163680 -0.453563 23 80 191 0.000000 0.000000 -1.000000
-0.041145 -0.103823 -0.152132 23 80 191 0.000000 1.000000 0.000000
-0.437078 -0.162918 -0.453563 23 80 191 0.000000 0.000000 -1.000000
-0.174400 -0.291986 -0.237803 23 80 191 0.000000 -1.000000 0.000000
-0.453563 -0.171143 -0.132653 23 80 191 -1.000000 0.000000 0.000000
-0.278643 -0.291986 -0.105124 23 80 191 0.000000 -1.000000 0.000000
-0.453563 -0.250312 -0.326674 23 80 191 -1.000000 0.000000 0.000000
-0.047836 -0.230161 -0.453563 23 80 191 0.000000 0.000000 -1.000000
-0.301875 -0.080437 -0.370209 23 80 191 0.000000 1.000000 0.000000
-0.238311 -0.291986 -0.077625 23 80 191 0.000000 -1.000000 0.000000
-0.453563 -0.187470 -0.157772 23 80 191 -1.000000 0.000000 0.000000
-0.173609 -0.156439 -0.453563 23 80 191 0.000000 0.000000 -1.000000
-0.123019 -0.291986 -0.097757 23 80 191 0.000000 -1.000000 0.000000
-0.068863 -0.291986 -0.181461 23 80 191 0.000000 -1.000000 0.000000
-0.253338 -0.291986 -0.221674 23 80 191 0.000000 -1.000000 0.000000
-0.372458 -0.211927 -0.453563 23 80 191 0.000000 0.000000 -1.000000
-0.329136 -0.080437 -0.053903 23 80 191 0.000000 1.000000 0.000000
-0.111337 -0.103823 -0.110084 23 80 191 0.000000 1.000000 0.000000
-0.198539 -0.080437 -0.205008 23 80 191 0.000000 1.000000 0.000000
-0.050694 -0.291986 -0.323078 23 80 191 0.000000 -1.000000 0.000000
-0.359491 -0.080437 -0.339205 23 80 191 0.000000 1.000000 0.000000
-0.306486 -0.291986 -0.030251 23 80 191 0.000000 -1.000000 0.000000
-0.162026 -0.291986 -0.198370 23 80 191 0.000000 -1.000000 0.000000
-0.439912 -0.211379 -0.453563 23 80 191 0.000000 0.000000 -1.000000
-0.453563 -0.081135 -0.385052 23 80 191 -1.000000 0.000000 0.000000
-0.068255 -0.080437 -0.441687 23 80 191 0.000000 1.000000 0.000000
-0.453563 -0.136772 -0.215512 23 80 191 -1.000000 0.000000 0.000000
-0.046203 -0.291986 -0.240745 23 80 191 0.000000 -1.000000 0.000000
-0.066849 -0.103823 -0.052571 23 80 191 0.000000 1.000000 0.000000
-0.344028 -0.291986 -0.126732 23 80 191 0.000000 -1.000000 0.000000
-0.453563 -0.125915 -0.449897 23 80 191 -1.000000 0.000000 0.000000
-0.341797 -0.080437 -0.441490 23 80 191 0.000000 1.000000 0.000000
-0.014551 -0.197091 -0.453563 23 80 191 0.000000 0.000000 -1.000000
-0.332796 -0.290250 -0.453563 23 80 191 0.000000 0.000000 -1.000000
-0.346571 -0.304828 -0.453563 23 80 191 0.000000 0.000000 -1.000000
-0.152745 -0.103823 -0.201894 23 80 191 0.000000 1.000000 0.000000
-0.112019 -0.103823 -0.043612 23 80 191 0.000000 1.000000 0.000000
-0.204721 -0.291986 -0.126692 23 80 191 0.000000 -1.000000 0.000000
-0.328797 -0.150767 -0.453563 23 80 191 0.000000 0.000000 -1.000000
-0.453563 -0.273411 -0.109209 23 80 191 -1.000000 0.000000 0.000000
-0.065053 -0.291986 -0.449090 23 80 191 0.000000 -1.000000 0.000000
-0.002969 -0.103823 -0.202531 23 80 191 0.000000 1.000000 0.000000
-0.164022 -0.088481 -0.261993 23 80 191 1.000000 0.000000 0.000000
-0.273361 -0.241035 -0.453563 23 80 191 0.000000 0.000000 -1.000000
-0.453563 -0.210746 -0.288329 23 80 191 -1.000000 0.000000 0.000000
-0.104333 -0.291986 -0.158210 23 80 191 0.000000 -1.000000 0.000000
-0.362944 -0.080437 -0.130855 23 80 191 0.000000 1.000000 0.000000
-0.245289 -0.298331 -0.312759 23 80 191 1.000000 0.000000 0.000000
-0.192108 -0.080437 -0.357629 23 80 191 0.000000 1.000000 0.000000
-0.453563 -0.185172 -0.250549 23 80 191 -1.000000 0.000000 0.000000
-0.453563 -0.143339 -0.286572 23 80 191 -1.000000 0.000000 0.000000
-0.286745 -0.139243 -0.453563 23 80 191 0.000000 0.000000 -1.000000
-0.140187 -0.291986 -0.216641 23 80 191 0.000000 -1.000000 0.000000
-0.269351 -0.210036 -0.453563 23 80 191 0.000000 0.000000 -1.000000
-0.178229 -0.080437 -0.072199 23 80 191 0.000000 1.000000 0.000000
-0.404327 -0.080437 -0.402625 23 80 191 0.000000 1.000000 0.000000
-0.453563 -0.121295 -0.276776 23 80 191 -1.000000 0.000000 0.000000
-0.064396 -0.103823 -0.016495 23 80 191 0.000000 1.000000 0.000000
-0.205278 -0.291986 -0.427159 23 80 191 0.000000 -1.000000 0.000000
-0.272660 -0.080437 -0.032276 23 80 191 0.000000 1.000000 0.000000
-0.453563 -0.163314 -0.133452 23 80 191 -1.000000 0.000000 0.000000
-0.342540 -0.080437 -0.037503 23 80 191 0.000000 1.000000 0.000000
-0.376268 -0.080437 -0.395869 23 80 191 0.000000 1.000000 0.000000
-0.087125 -0.103823 -0.166288 23 80 191 0.000000 1.000000 0.000000
-0.112725 -0.080437 -0.390208 23 80 191 0.000000 1.000000 0.000000
-0.453563 -0.092336 -0.059980 23 80 191 -1.000000 0.000000 0.000000
-0.095390 -0.106568 -0.453563 23 80 191 0.000000 0.000000 -1.000000
-0.439646 -0.304442 -0.239410 23 80 191 0.000000 0.000000 1.000000
-0.131259 -0.229183 -0.453563 23 80 191 0.000000 0.000000 -1.000000
-0.310702 -0.291986 -0.122530 23 80 191 0.000000 -1.000000 0.000000
-0.272712 -0.080437 -0.087296 23 80 191 0.000000 1.000000 0.000000
-0.285060 -0.291986 -0.021027 23 80 191 0.000000 -1.000000 0.000000
-0.217845 -0.291986 -0.003592 23 80 191 0.000000 -1.000000 0.000000
-0.030644 -0.103823 -0.032330 23 80 191 0.000000 1.000000 0.000000
-0.141357 -0.103823 -0.206100 23 80 191 0.000000 1.000000 0.000000
-0.207454 -0.286068 -0.453563 23 80 191 0.000000 0.000000 -1.000000
-0.292491 -0.291986 -0.161642 23 80 191 0.000000 -1.000000 0.000000
-0.094490 -0.103823 -0.053366 23 80 191 0.000000 1.000000 0.000000
-0.082969 -0.221881 -0.453563 23 80 191 0.000000 0.000000 -1.000000
-0.104090 -0.291986 -0.087820 23 80 191 0.000000 -1.000000 0.000000
-0.012692 -0.237050 -0.453563 23 80 191 0.000000 0.000000 -1.000000
-0.453563 -0.152342 -0.312861 23 80 191 -1.000000 0.000000 0.000000
-0.057623 -0.291986 -0.332118 23 80 191 0.000000 -1.000000 0.000000
-0.453563 -0.160500 -0.146966 23 80 191 -1.000000 0.000000 0.000000
-0.453563 -0.235689 -0.083897 23 80 191 -1.000000 0.000000 0.000000
-0.044891 -0.291986 -0.090308 23 80 191 0.000000 -1.000000 0.000000
-0.165325 -0.080437 -0.097927 23 80 191 0.000000 1.000000 0.000000
-0.427660 -0.080437 -0.148024 23 80 191 0.000000 1.000000 0.000000
-0.185433 -0.080437 -0.307399 23 80 191 0.000000 1.000000 0.000000
-0.117367 -0.085101 -0.341230 23 80 191 0.000000 0.000000 1.000000
-0.068712 -0.291986 -0.368050 23 80 191 0.000000 -1.000000 0.000000
-0.425301 -0.125861 -0.453563 23 80 191 0.000000 0.000000 -1.000000
-0.014314 -0.080437 -0.346002 23 80 191 0.000000 1.000000 0.000000
-0.129321 -0.291986 -0.198035 23 80 191 0.000000 -1.000000 0.000000
-0.235409 -0.101360 -0.453563 23 80 191 0.000000 0.000000 -1.000000
-0.115473 -0.080437 -0.375991 23 80 191 0.000000 1.000000 0.000000
-0.453563 -0.110086 -0.436657 23 80 191 -1.000000 0.000000 0.000000
-0.124230 -0.166317 -0.453563 23 80 191 0.000000 0.000000 -1.000000
-0.127661 -0.103823 -0.228204 23 80 191 0.000000 1.000000 0.000000
-0.370116 -0.291986 -0.051422 23 80 191 0.000000 -1.000000 0.000000
-0.341154 -0.191606 -0.453563 23 80 191 0.000000 0.000000 -1.000000
-0.128727 -0.102161 -0.341230 23 80 191 0.000000 0.000000 1.000000
-0.118289 -0.253616 -0.453563 23 80 191 0.000000 0.000000 -1.000000
-0.453563 -0.084334 -0.294409 23 80 191 -1.000000 0.000000 0.000000
-0.451461 -0.231790 -0.453563 23 80 191 0.000000 0.000000 -1.000000
-0.453563 -0.202340 -0.107538 23 80 191 -1.000000 0.000000 0.000000
-0.433175 -0.080437 -0.048946 23 80 191 0.000000 1.000000 0.000000
-0.400800 -0.080437 -0.390904 23 80 191 0.000000 1.000000 0.000000
-0.453563 -0.197876 -0.335477 23 80 191 -1.000000 0.000000 0.000000
-0.411071 -0.080437 -0.064930 23 80 191 0.000000 1.000000 0.000000
-0.022481 -0.089898 -0.453563 23 80 191 0.000000 0.000000 -1.000000
-0.305256 -0.291986 -0.192745 23 80 191 0.000000 -1.000000 0.000000
-0.395158 -0.229164 -0.453563 23 80 191 0.000000 0.000000 -1.000000
-0.083850 -0.171773 -0.453563 23 80 191 0.000000 0.000000 -1.000000
-0.121597 -0.080437 -0.452211 23 80 191 0.000000 1.000000 0.000000
-0.303767 -0.302485 -0.239410 23 80 191 0.000000 0.000000 1.000000
-0.419333 -0.080437 -0.429806 23 80 191 0.000000 1.000000 0.000000
-0.152571 -0.103823 -0.331432 23 80 191 0.000000 1.000000 0.000000
-0.294564 -0.305027 -0.239410 23 80 191 0.000000 0.000000 1.000000
-0.396949 -0.080437 -0.045225 23 80 191 0.000000 1.000000 0.000000
-0.292840 -0.226298 -0.453563 23 80 191 0.000000 0.000000 -1.000000
-0.453563 -0.157076 -0.361516 23 80 191 -1.000000 0.000000 0.000000
-0.245289 -0.298776 -0.266482 23 80 191 1.000000 0.000000 0.000000
-0.345454 -0.201541 -0.453563 23 80 191 0.000000 0.000000 -1.000000
-0.180938 -0.291986 -0.087597 23 80 191 0.000000 -1.000000 0.000000
-0.326788 -0.080437 -0.373818 23 80 191 0.000000 1.000000 0.000000
-0.453563 -0.207962 -0.072044 23 80 191 -1.000000 0.000000 0.000000
-0.453563 -0.232923 -0.050679 23 80 191 -1.000000 0.000000 0.000000
-0.320207 -0.115354 -0.453563 23 80 191 0.000000 0.000000 -1.000000
-0.367655 -0.080437 -0.188475 23 80 191 0.000000 1.000000 0.000000
-0.354919 -0.080437 -0.039503 23 80 191 0.000000 1.000000 0.000000
-0.108389 -0.103823 -0.028499 23 80 191 0.000000 1.000000 0.000000
-0.453563 -0.166701 -0.195495 23 80 191 -1.000000 0.000000 0.000000
-0.365726 -0.168608 -0.453563 23 80 191 0.000000 0.000000 -1.000000
-0.116461 -0.100538 -0.453563 23 80 191 0.000000 0.000000 -1.000000
-0.158102 -0.103823 -0.306328 23 80 191 0.000000 1.000000 0.000000
-0.106068 -0.103823 -0.329032 23 80 191 0.000000 1.000000 0.000000
-0.187918 -0.291986 -0.106775 23 80 191 0.000000 -1.000000 0.000000
-0.214180 -0.080437 -0.138935 23 80 191 0.000000 1.000000 0.000000
-0.405442 -0.291986 -0.239122 23 80 191 0.000000 -1.000000 0.000000
-0.041534 -0.103823 -0.143796 23 80 191 0.000000 1.000000 0.000000
-0.453563 -0.253219 -0.072849 23 80 191 -1.000000 0.000000 0.000000
-0.083326 -0.291986 -0.377146 23 80 191 0.000000 -1.000000 0.000000
-0.154629 -0.291986 -0.145177 23 80 191 0.000000 -1.000000 0.000000
-0.250581 -0.291986 -0.090309 23 80 191 0.000000 -1.000000 0.000000
-0.018161 -0.080437 -0.452240 23 80 191 0.000000 1.000000 0.000000
-0.127168 -0.169145 -0.453563 23 80 191 0.000000 0.000000 -1.000000
-0.201234 -0.275995 -0.453563 23 80 191 0.000000 0.000000 -1.000000
-0.393903 -0.080437 -0.098084 23 80 191 0.000000 1.000000 0.000000
-0.453563 -0.289994 -0.292704 23 80 191 -1.000000 0.000000 0.000000
-0.388976 -0.305168 -0.453563 23 80 191 0.000000 0.000000 -1.000000
-0.197996 -0.291986 -0.115257 23 80 191 0.000000 -1.000000 0.000000
-0.424865 -0.124211 -0.453563 23 80 191 0.000000 0.000000 -1.000000
-0.038013 -0.103823 -0.241076 23 80 191 0.000000 1.000000 0.000000
-0.245289 -0.292366 -0.396999 23 80 191 1.000000 0.000000 0.000000
-0.453563 -0.263868 -0.065335 23 80 191 -1.000000 0.000000 0.000000
-0.162233 -0.291986 -0.399931 23 80 191 0.000000 -1.000000 0.000000
-0.069768 -0.103823 -0.025322 23 80 191 0.000000 1.000000 0.000000
-0.193734 -0.080437 -0.441139 23 80 191 0.000000 1.000000 0.000000
-0.453563 -0.234190 -0.338608 23 80 191 -1.000000 0.000000 0.000000
-0.453563 -0.116829 -0.425589 23 80 191 -1.000000 0.000000 0.000000
-0.173550 -0.115233 -0.453563 23 80 191 0.000000 0.000000 -1.000000
-0.200720 -0.080437 -0.348169 23 80 191 0.000000 1.000000 0.000000
-0.209080 -0.080437 -0.199145 23 80 191 0.000000 1.000000 0.000000
-0.164022 -0.097472 -0.130124 23 80 191 1.000000 0.000000 0.000000
-0.356357 -0.080437 -0.125809 23 80 191 0.000000 1.000000 0.000000
-0.177411 -0.117690 -0.453563 23 80 191 0.000000 0.000000 -1.000000
-0.230803 -0.163481 -0.453563 23 80 191 0.000000 0.000000 -1.000000
-0.274294 -0.291986 -0.198170 23 80 191 0.000000 -1.000000 0.000000
-0.241236 -0.291986 -0.313148 23 80 191 0.000000 -1.000000 0.000000
-0.453563 -0.245247 -0.048259 23 80 191 -1.000000 0.000000 0.000000
-0.197239 -0.291986 -0.238225 23 80 191 0.000000 -1.000000 0.000000
-0.266287 -0.114887 -0.453563 23 80 191 0.000000 0.000000 -1.000000
-0.130100 -0.261605 -0.453563 23 80 191 0.000000 0.000000 -1.000000
-0.236139 -0.080437 -0.298116 23 80 191 0.000000 1.000000 0.000000
-0.153866 -0.155130 -0.453563 23 80 191 0.000000 0.000000 -1.000000
-0.329149 -0.085311 -0.453563 23 80 191 0.000000 0.000000 -1.000000
-0.092007 -0.291986 -0.053789 23 80 191 0.000000 -1.000000 0.000000
-0.407482 -0.171284 -0.453563 23 80 191 0.000000 0.000000 -1.000000
-0.425886 -0.291986 -0.126036 23 80 191 0.000000 -1.000000 0.000000
-0.140278 -0.080437 -0.350601 23 80 191 0.000000 1.000000 0.000000
-0.042397 -0.094999 -0.453563 23 80 191 0.000000 0.000000 -1.000000
-0.254914 -0.236097 -0.453563 23 80 191 0.000000 0.000000 -1.000000
-0.453563 -0.222322 -0.122414 23 80 191 -1.000000 0.000000 0.000000
-0.068065 -0.291986 -0.144092 23 80 191 0.000000 -1.000000 0.000000
-0.451633 -0.113568 -0.453563 23 80 191 0.000000 0.000000 -1.000000
-0.333891 -0.267372 -0.453563 23 80 191 0.000000 0.000000 -1.000000
-0.164022 -0.090403 -0.116008 23 80 191 1.000000 0.000000 0.000000
-0.104830 -0.103823 -0.076169 23 80 191 0.000000 1.000000 0.000000
-0.453563 -0.206572 -0.069991 23 80 191 -1.000000 0.000000 0.000000
-0.453563 -0.223574 -0.221284 23 80 191 -1.000000 0.000000 0.000000
-0.132317 -0.291986 -0.032236 23 80 191 0.000000 -1.000000 0.000000
-0.453563 -0.299119 -0.419810 23 80 191 -1.000000 0.000000 0.000000
-0.453563 -0.144237 -0.239312 23 80 191 -1.000000 0.000000 0.000000
-0.210952 -0.080994 -0.453563 23 80 191 0.000000 0.000000 -1.000000
-0.209237 -0.276894 -0.453563 23 80 191 0.000000 0.000000 -1.000000
-0.453563 -0.191942 -0.341080 23 80 191 -1.000000 0.000000 0.000000
-0.203841 -0.263171 -0.453563 23 80 191 0.000000 0.000000 -1.000000
-0.323649 -0.165830 -0.453563 23 80 191 0.000000 0.000000 -1.000000
-0.442519 -0.291986 -0.131054 23 80 191 0.000000 -1.000000 0.000000
-0.127446 -0.103823 -0.117655 23 80 191 0.000000 1.000000 0.000000
-0.035439 -0.278909 -0.453563 23 80 191 0.000000 0.000000 -1.000000
-0.189200 -0.080437 -0.176205 23 80 191 0.000000 1.000000 0.000000
-0.099184 -0.103823 -0.196946 23 80 191 0.000000 1.000000 0.000000
-0.069956 -0.215165 -0.453563 23 80 191 0.000000 0.000000 -1.000000
-0.453563 -0.262956 -0.307149 23 80 191 -1.000000 0.000000 0.000000
-0.023912 -0.291986 -0.148285 23 80 191 0.000000 -1.000000 0.000000
-0.023668 -0.103823 -0.161202 23 80 191 0.000000 1.000000 0.000000
-0.243756 -0.291986 -0.082039 23 80 191 0.000000 -1.000000 0.000000
-0.156140 -0.291986 -0.171414 23 80 191 0.000000 -1.000000 0.000000
-0.453563 -0.239621 -0.297256 23 80 191 -1.000000 0.000000 0.000000
-0.038174 -0.268033 -0.453563 23 80 191 0.000000 0.000000 -1.000000
-0.439680 -0.240754 -0.453563 23 80 191 0.000000 0.000000 -1.000000
-0.185793 -0.080437 -0.215527 23 80 191 0.000000 1.000000 0.000000
-0.284992 -0.304392 -0.239410 23 80 191 0.000000 0.000000 1.000000
-0.182389 -0.291986 -0.090939 23 80 191 0.000000 -1.000000 0.000000
-0.113906 -0.103823 -0.188539 23 80 191 0.000000 1.000000 0.000000
-0.201376 -0.291986 -0.300371 23 80 191 0.000000 -1.000000 0.000000
-0.232481 -0.291986 -0.056228 23 80 191 0.000000 -1.000000 0.000000
-0.453563 -0.199963 -0.052530 23 80 191 -1.000000 0.000000 0.000000
-0.453563 -0.248537 -0.239946 23 80 191 -1.000000 0.000000 0.000000
-0.213279 -0.080437 -0.452846 23 80 191 0.000000 1.000000 0.000000
-0.125286 -0.178529 -0.453563 23 80 191 0.000000 0.000000 -1.000000
-0.453563 -0.259476 -0.247943 23 80 191 -1.000000 0.000000 0.000000
-0.343545 -0.080437 -0.025888 23 80 191 0.000000 1.000000 0.000000
-0.201629 -0.080437 -0.327137 23 80 191 0.000000 1.000000 0.000000
-0.043972 -0.291986 -0.259346 23 80 191 0.000000 -1.000000 0.000000
-0.164022 -0.095107 -0.082236 23 80 191 1.000000 0.000000 0.000000
-0.252905 -0.080437 -0.444175 23 80 191 0.000000 1.000000 0.000000
-0.178505 -0.291986 -0.030537 23 80 191 0.000000 -1.000000 0.000000
-0.146782 -0.291986 -0.404737 23 80 191 0.000000 -1.000000 0.000000
-0.074366 -0.103823 -0.039626 23 80 191 0.000000 1.000000 0.000000
-0.414476 -0.080437 -0.372861 23 80 191 0.000000 1.000000 0.000000
-0.035873 -0.103823 -0.169914 23 80 191 0.000000 1.000000 0.000000
-0.453563 -0.149994 -0.177437 23 80 191 -1.000000 0.000000 0.000000
-0.453563 -0.228310 -0.136232 23 80 191 -1.000000 0.000000 0.000000
-0.226455 -0.291986 -0.219576 23 80 191 0.000000 -1.000000 0.000000
-0.269239 -0.232308 -0.453563 23 80 191 0.000000 0.000000 -1.000000
-0.130097 -0.291986 -0.425338 23 80 191 0.000000 -1.000000 0.000000
-0.161169 -0.291986 -0.109753 23 80 191 0.000000 -1.000000 0.000000
-0.382298 -0.207609 -0.453563 23 80 191 0.000000 0.000000 -1.000000
-0.306347 -0.080437 -0.037802 23 80 191 0.000000 1.000000 0.000000
-0.008347 -0.291986 -0.028194 23 80 191 0.000000 -1.000000 0.000000
-0.018399 -0.090448 -0.453563 23 80 191 0.000000 0.000000 -1.000000
-0.056026 -0.291986 -0.365439 23 80 191 0.000000 -1.000000 0.000000
-0.453563 -0.129404 -0.390459 23 80 191 -1.000000 0.000000 0.000000
-0.366561 -0.080437 -0.031519 23 80 191 0.000000 1.000000 0.000000
-0.280090 -0.291986 -0.035170 23 80 191 0.000000 -1.000000 0.000000
-0.257975 -0.291986 -0.147449 23 80 191 0.000000 -1.000000 0.000000
-0.012975 -0.291986 -0.180306 23 80 191 0.000000 -1.000000 0.000000
-0.453563 -0.192324 -0.145408 23 80 191 -1.000000 0.000000 0.000000
-0.453563 -0.170339 -0.379046 23 80 191 -1.000000 0.000000 0.000000
-0.257634 -0.291986 -0.093781 23 80 191 0.000000 -1.000000 0.000000
-0.312544 -0.291986 -0.112142 23 80 191 0.000000 -1.000000 0.000000
-0.387957 -0.080437 -0.162558 23 80 191 0.000000 1.000000 0.000000
-0.137183 -0.280749 -0.453563 23 80 191 0.000000 0.000000 -1.000000
-0.131892 -0.253189 -0.453563 23 80 191 0.000000 0.000000 -1.000000
-0.399061 -0.291986 -0.098691 23 80 191 0.000000 -1.000000 0.000000
-0.453563 -0.181221 -0.097977 23 80 191 -1.000000 0.000000 0.000000
-0.453563 -0.271272 -0.152973 23 80 191 -1.000000 0.000000 0.000000
-0.052842 -0.291986 -0.293479 23 80 191 0.000000 -1.000000 0.000000
-0.190321 -0.080437 -0.056815 23 80 191 0.000000 1.000000 0.000000
-0.004704 -0.291986 -0.419768 23 80 191 0.000000 -1.000000 0.000000
-0.230044 -0.202863 -0.453563 23 80 191 0.000000 0.000000 -1.000000
-0.227144 -0.161190 -0.453563 23 80 191 0.000000 0.000000 -1.000000
-0.453563 -0.106369 -0.128242 23 80 191 -1.000000 0.000000 0.000000
-0.343135 -0.291986 -0.016491 23 80 191 0.000000 -1.000000 0.000000
-0.298459 -0.291986 -0.186382 23 80 191 0.000000 -1.000000 0.000000
-0.340578 -0.246802 -0.453563 23 80 191 0.000000 0.000000 -1.000000
-0.190042 -0.085126 -0.453563 23 80 191 0.000000 0.000000 -1.000000
-0.453563 -0.104438 -0.061376 23 80 191 -1.000000 0.000000 0.000000
-0.311289 -0.121628 -0.453563 23 80 191 0.000000 0.000000 -1.000000
-0.209985 -0.291986 -0.086400 23 80 191 0.000000 -1.000000 0.000000
-0.217025 -0.291986 -0.193272 23 80 191 0.000000 -1.000000 0.000000
-0.112501 -0.265135 -0.453563 23 80 191 0.000000 0.000000 -1.000000
-0.453563 -0.149238 -0.359655 23 80 191 -1.000000 0.000000 0.000000
-0.016484 -0.229444 -0.453563 23 80 191 0.000000 0.000000 -1.000000
-0.246251 -0.080437 -0.181892 23 80 191 0.000000 1.000000 0.000000
-0.453563 -0.110903 -0.108894 23 80 191 -1.000000 0.000000 0.000000
-0.010280 -0.291986 -0.322598 23 80 191 0.000000 -1.000000 0.000000
-0.071106 -0.291986 -0.107857 23 80 191 0.000000 -1.000000 0.000000
-0.164022 -0.097519 -0.093681 23 80 191 1.000000 0.000000 0.000000
-0.175546 -0.291986 -0.258753 23 80 191 0.000000 -1.000000 0.000000
-0.352858 -0.080437 -0.413884 23 80 191 0.000000 1.000000 0.000000
-0.240286 -0.080437 -0.111066 23 80 191 0.000000 1.000000 0.000000
-0.245496 -0.200699 -0.453563 23 80 191 0.000000 0.000000 -1.000000
-0.285216 -0.309526 -0.239410 23 80 191 0.000000 0.000000 1.000000
-0.072804 -0.291986 -0.058937 23 80 191 0.000000 -1.000000 0.000000
-0.332884 -0.294449 -0.453563 23 80 191 0.000000 0.000000 -1.000000
-0.075352 -0.080437 -0.367054 23 80 191 0.000000 1.000000 0.000000
-0.453563 -0.256520 -0.412395 23 80 191 -1.000000 0.000000 0.000000
-0.259442 -0.080437 -0.052654 23 80 191 0.000000 1.000000 0.000000
-0.138122 -0.291986 -0.391227 23 80 191 0.000000 -1.000000 0.000000
-0.363031 -0.080437 -0.183546 23 80 191 0.000000 1.000000 0.000000
-0.453563 -0.234399 -0.181171 23 80 191 -1.000000 0.000000 0.000000
-0.245289 -0.300546 -0.389831 23 80 191 1.000000 0.000000 0.000000
-0.040351 -0.291986 -0.121563 23 80 191 0.000000 -1.000000 0.000000
-0.453563 -0.111310 -0.428996 23 80 191 -1.000000 0.000000 0.000000
-0.453563 -0.286841 -0.337847 23 80 191 -1.000000 0.000000 0.000000
-0.453563 -0.223635 -0.263753 23 80 191 -1.000000 0.000000 0.000000
-0.149993 -0.291986 -0.433590 23 80 191 0.000000 -1.000000 0.000000
-0.248842 -0.291986 -0.148987 23 80 191 0.000000 -1.000000 0.000000
-0.204896 -0.080437 -0.084086 23 80 191 0.000000 1.000000 0.000000
-0.033565 -0.083500 -0.341230 23 80 191 0.000000 0.000000 1.000000
-0.453563 -0.081640 -0.071870 23 80 191 -1.000000 0.000000 0.000000
-0.165996 -0.080437 -0.444282 23 80 191 0.000000 1.000000 0.000000
-0.114436 -0.103823 -0.229824 23 80 191 0.000000 1.000000 0.000000
-0.271279 -0.249062 -0.453563 23 80 191 0.000000 0.000000 -1.000000
-0.344622 -0.080437 -0.032160 23 80 191 0.000000 1.000000 0.000000
-0.066941 -0.291986 -0.089073 23 80 191 0.000000 -1.000000 0.000000
-0.453563 -0.287075 -0.188603 23 80 191 -1.000000 0.000000 0.000000
-0.097992 -0.291986 -0.262814 23 80 191 0.000000 -1.000000 0.000000
-0.336918 -0.080437 -0.056534 23 80 191 0.000000 1.000000 0.000000
-0.331652 -0.080437 -0.416605 23 80 191 0.000000 1.000000 0.000000
-0.247413 -0.080437 -0.122471 23 80 191 0.000000 1.000000 0.000000
-0.250110 -0.290807 -0.453563 23 80 191 0.000000 0.000000 -1.000000
-0.097340 -0.291986 -0.026829 23 80 191 0.000000 -1.000000 0.000000
-0.453563 -0.269345 -0.275589 23 80 191 -1.000000 0.000000 0.000000
-0.092933 -0.291986 -0.016555 23 80 191 0.000000 -1.000000 0.000000
-0.164022 -0.087347 -0.089187 23 80 191 1.000000 0.000000 0.000000
-0.193915 -0.291986 -0.327002 23 80 191 0.000000 -1.000000 0.000000
-0.056559 -0.151842 -0.453563 23 80 191 0.000000 0.000000 -1.000000
-0.164976 -0.291986 -0.365426 23 80 191 0.000000 -1.000000 0.000000
-0.088506 -0.103823 -0.073154 23 80 191 0.000000 1.000000 0.000000
-0.453563 -0.099602 -0.213927 23 80 191 -1.000000 0.000000 0.000000
-0.453563 -0.086938 -0.201042 23 80 191 -1.000000 0.000000 0.000000
-0.432757 -0.080437 -0.134265 23 80 191 0.000000 1.000000 0.000000
-0.215050 -0.291986 -0.393065 23 80 191 0.000000 -1.000000 0.000000
