ply
format ascii 1.0
element vertex 723
property float x
property float y
property float z
property uchar red
property uchar green
property uchar blue
property float nx
property float ny
property float nz
end_header
0.646315 -0.163538 0.120723 80 29 236 0.269977 0.962662 0.019846
0.172373 -0.221353 0.029388 80 29 236 0.000000 -1.000000 0.000000
0.258069 -0.221353 0.272757 80 29 236 0.000000 -1.000000 0.000000
0.322721 -0.158208 0.514957 80 29 236 0.001388 0.988574 0.150728
0.665707 -0.280328 0.524736 80 29 236 -0.064103 0.797191 -0.600314
0.415369 -0.145771 0.037655 80 29 236 0.000000 1.000000 0.000000
0.166949 -0.221353 0.113737 80 29 236 0.000000 -1.000000 0.000000
0.473207 -0.146896 0.053871 80 29 236 0.024855 0.999691 -0.000167
0.149452 -0.221353 0.319481 80 29 236 0.000000 -1.000000 0.000000
0.522707 -0.149301 0.091468 80 29 236 0.056719 0.998389 0.001492
0.346173 -0.145771 0.208324 80 29 236 0.000000 1.000000 0.000000
0.600315 -0.155551 0.004096 80 29 236 0.107103 0.994248 -0.000254
0.168633 -0.221353 0.365864 80 29 236 0.000000 -1.000000 0.000000
0.662260 -0.166661 0.044553 80 29 236 0.263843 0.964560 0.003304
0.641183 -0.260708 0.126914 80 29 236 -0.991111 -0.106796 -0.079327
0.269026 -0.145771 0.255138 80 29 236 0.000000 1.000000 0.000000
0.494293 -0.290188 0.542133 80 29 236 -0.006603 -0.000049 -0.999978
0.676488 -0.196149 0.269268 80 29 236 0.812997 0.553813 0.179796
0.520000 -0.160303 0.519350 80 29 236 0.070270 0.983821 0.164797
0.535638 -0.325812 0.437738 80 29 236 -0.004207 0.551184 -0.834373
0.179403 -0.155701 0.500347 80 29 236 0.000449 0.987676 0.156509
0.537674 -0.292843 0.640052 80 29 236 -0.055703 -0.019829 0.998250
0.421762 -0.155956 0.499351 80 29 236 -0.000537 0.988602 0.150551
0.135880 -0.239623 0.537775 80 29 236 0.002951 -0.261642 -0.965160
0.612941 -0.157001 0.070166 80 29 236 0.108470 0.994096 0.002853
0.264145 -0.320173 0.622128 80 29 236 0.179938 -0.983676 0.001718
0.180215 -0.221353 0.274412 80 29 236 0.000000 -1.000000 0.000000
0.326059 -0.221353 0.468987 80 29 236 0.000000 -1.000000 0.000000
0.393684 -0.154628 0.490819 80 29 236 0.001388 0.988574 0.150728
0.316155 -0.221353 0.394636 80 29 236 0.000000 -1.000000 0.000000
0.725889 -0.314684 0.250692 80 29 236 0.040584 0.984927 -0.168144
0.194002 -0.221353 0.501963 80 29 236 0.000000 -1.000000 0.000000
0.724683 -0.299358 0.216239 80 29 236 0.974870 0.138626 0.174391
0.664828 -0.337398 0.519980 80 29 236 -0.059716 -0.841039 -0.537668
0.335256 -0.145771 0.301873 80 29 236 0.000000 1.000000 0.000000
0.561352 -0.265824 0.497575 80 29 236 -0.341390 -0.078672 -0.936623
0.736874 -0.297419 0.134552 80 29 236 0.986271 0.140107 0.087406
0.609583 -0.168467 0.379399 80 29 236 0.316143 0.948272 0.028868
0.259317 -0.145771 0.225023 80 29 236 0.000000 1.000000 0.000000
0.596164 -0.155192 0.077805 80 29 236 0.108470 0.994096 0.002853
0.670226 -0.348641 0.178179 80 29 236 -0.069965 -0.958604 0.276015
0.697612 -0.339673 0.226012 80 29 236 -0.045675 -0.974182 0.221096
0.608363 -0.221353 0.181175 80 29 236 0.000000 -1.000000 0.000000
0.436915 -0.221353 0.276321 80 29 236 0.000000 -1.000000 0.000000
0.346872 -0.207917 0.615546 80 29 236 -0.000972 0.481129 0.876649
0.511263 -0.221353 0.210741 80 29 236 0.000000 -1.000000 0.000000
0.126146 -0.342728 0.578302 80 29 236 0.062903 -0.998019 0.001353
0.320007 -0.145771 0.141283 80 29 236 0.000000 1.000000 0.000000
0.289824 -0.315507 0.593810 80 29 236 0.180385 -0.983595 0.001372
0.733149 -0.380995 0.011301 80 29 236 0.000151 -0.999750 0.022359
0.648107 -0.298069 0.025336 80 29 236 -0.999781 -0.020201 -0.005518
0.401432 -0.147116 0.413402 80 29 236 0.000615 0.999570 0.029332
0.430840 -0.251520 0.646108 80 29 236 -0.808369 -0.588458 0.015995
0.402763 -0.267111 0.636351 80 29 236 0.004382 0.199341 0.979920
0.202899 -0.151523 0.473362 80 29 236 0.001286 0.996581 0.082607
0.540595 -0.160377 0.514229 80 29 236 0.029409 0.980897 0.192290
0.496242 -0.221353 0.077373 80 29 236 0.000000 -1.000000 0.000000
0.715214 -0.240645 0.195566 80 29 236 0.928729 0.323605 0.180947
0.595465 -0.225944 0.309936 80 29 236 -0.900609 -0.352826 -0.253805
0.343631 -0.146815 0.404348 80 29 236 0.000615 0.999570 0.029332
0.449225 -0.275609 0.651547 80 29 236 -0.792123 -0.610206 0.013781
0.589342 -0.221353 0.075128 80 29 236 0.000000 -1.000000 0.000000
0.215267 -0.221353 0.501317 80 29 236 0.000000 -1.000000 0.000000
0.152601 -0.327424 0.544845 80 29 236 0.009653 -0.046867 -0.998854
0.252512 -0.145771 0.301745 80 29 236 0.000000 1.000000 0.000000
0.430781 -0.145809 0.349452 80 29 236 0.027736 0.999615 -0.000039
0.207029 -0.330447 0.598881 80 29 236 0.157378 -0.987537 0.001503
0.621960 -0.241349 0.222875 80 29 236 -0.956661 -0.211779 -0.199875
0.316859 -0.145771 0.041650 80 29 236 0.000000 1.000000 0.000000
0.398751 -0.221353 0.314958 80 29 236 0.000000 -1.000000 0.000000
0.176903 -0.159466 0.524059 80 29 236 0.000825 0.959495 0.281724
0.261047 -0.223873 0.533038 80 29 236 -0.006162 -0.392502 -0.919731
0.514932 -0.148880 0.153770 80 29 236 0.060551 0.998154 0.004769
0.662145 -0.198013 0.327561 80 29 236 0.786930 0.581766 0.205643
0.277685 -0.145771 0.045237 80 29 236 0.000000 1.000000 0.000000
0.576888 -0.221353 0.071063 80 29 236 0.000000 -1.000000 0.000000
0.658778 -0.336313 0.233249 80 29 236 -0.036432 -0.988615 0.145993
0.602890 -0.182314 0.564736 80 29 236 0.216795 0.941722 0.257216
0.455792 -0.221353 0.077909 80 29 236 0.000000 -1.000000 0.000000
0.507543 -0.309633 0.542046 80 29 236 -0.006640 -0.000023 -0.999978
0.675043 -0.250167 0.552698 80 29 236 0.899220 0.437379 0.010171
0.724228 -0.375082 0.090533 80 29 236 -0.014753 -0.993007 0.117130
0.289439 -0.221353 0.017529 80 29 236 0.000000 -1.000000 0.000000
0.174950 -0.145771 0.020092 80 29 236 0.000000 1.000000 0.000000
0.176051 -0.221353 0.279226 80 29 236 0.000000 -1.000000 0.000000
0.340473 -0.221353 0.027478 80 29 236 0.000000 -1.000000 0.000000
0.754974 -0.358945 0.092251 80 29 236 0.985417 0.168614 0.022842
0.648371 -0.163782 0.104540 80 29 236 0.269977 0.962662 0.019846
0.263576 -0.221353 0.454840 80 29 236 0.000000 -1.000000 0.000000
0.373130 -0.145771 0.148496 80 29 236 0.000000 1.000000 0.000000
0.400736 -0.145771 0.283946 80 29 236 0.000000 1.000000 0.000000
0.540442 -0.221353 0.360320 80 29 236 0.000000 -1.000000 0.000000
0.588762 -0.155201 0.177256 80 29 236 0.114928 0.993333 0.009051
0.534924 -0.171774 0.558939 80 29 236 0.024715 0.957515 0.287321
0.674260 -0.281856 0.467733 80 29 236 0.984694 0.172077 -0.027710
0.133285 -0.221353 0.354036 80 29 236 0.000000 -1.000000 0.000000
0.629379 -0.168260 0.283091 80 29 236 0.291180 0.953886 0.072904
0.409980 -0.192898 0.600419 80 29 236 0.004599 0.725883 0.687803
0.341183 -0.145771 0.231481 80 29 236 0.000000 1.000000 0.000000
0.140640 -0.221353 0.511624 80 29 236 0.000000 -1.000000 0.000000
0.154524 -0.146443 0.396018 80 29 236 0.001066 0.999550 0.029965
0.206736 -0.309857 0.641652 80 29 236 -0.035499 0.195065 0.980148
0.425333 -0.145771 0.175218 80 29 236 0.000000 1.000000 0.000000
0.692571 -0.310394 0.474335 80 29 236 0.786918 0.600720 -0.141052
0.361556 -0.270889 0.637339 80 29 236 0.006473 0.196467 0.980489
0.209559 -0.221353 0.228362 80 29 236 0.000000 -1.000000 0.000000
0.498796 -0.221353 0.407657 80 29 236 0.000000 -1.000000 0.000000
0.245887 -0.149705 0.450758 80 29 236 0.001286 0.996581 0.082607
0.360287 -0.145771 0.363896 80 29 236 0.000000 1.000000 0.000000
0.513382 -0.221353 0.228885 80 29 236 0.000000 -1.000000 0.000000
0.353184 -0.145771 0.025804 80 29 236 0.000000 1.000000 0.000000
0.177403 -0.161396 0.530632 80 29 236 0.000825 0.959495 0.281724
0.328788 -0.221353 0.385085 80 29 236 0.000000 -1.000000 0.000000
0.232492 -0.221353 0.137046 80 29 236 0.000000 -1.000000 0.000000
0.566862 -0.221353 0.308812 80 29 236 0.000000 -1.000000 0.000000
0.623286 -0.298015 0.235751 80 29 236 -0.970908 -0.040615 -0.235983
0.466119 -0.146709 0.115158 80 29 236 0.024855 0.999691 -0.000167
0.371360 -0.221353 0.530009 80 29 236 0.000000 -1.000000 0.000000
0.582228 -0.271550 0.403549 80 29 236 -0.991542 -0.042944 -0.122473
0.691317 -0.346128 0.490246 80 29 236 0.070242 -0.006671 0.997508
0.478351 -0.320871 0.474343 80 29 236 -0.838151 0.545380 0.008002
0.449054 -0.221353 0.360196 80 29 236 0.000000 -1.000000 0.000000
0.330147 -0.145771 0.148169 80 29 236 0.000000 1.000000 0.000000
0.283544 -0.221353 0.412817 80 29 236 0.000000 -1.000000 0.000000
0.574823 -0.156990 0.326244 80 29 236 0.151402 0.988323 0.017157
0.234680 -0.145865 0.374305 80 29 236 0.000477 0.999550 0.029987
0.572948 -0.292904 0.524276 80 29 236 -0.210892 0.928968 -0.304209
0.627960 -0.274629 0.543119 80 29 236 -0.177778 0.917132 -0.356742
0.475988 -0.221353 0.023574 80 29 236 0.000000 -1.000000 0.000000
0.206063 -0.221353 0.377151 80 29 236 0.000000 -1.000000 0.000000
0.410037 -0.249554 0.538788 80 29 236 -0.006573 -0.181444 -0.983379
0.389594 -0.221353 0.145648 80 29 236 0.000000 -1.000000 0.000000
0.532876 -0.149855 0.029014 80 29 236 0.056216 0.998419 -0.000378
0.139706 -0.145771 0.011296 80 29 236 0.000000 1.000000 0.000000
0.602522 -0.245786 0.300302 80 29 236 -0.954122 -0.131775 -0.268862
0.408628 -0.238776 0.536508 80 29 236 -0.006451 -0.261629 -0.965147
0.323839 -0.154045 0.487902 80 29 236 0.002397 0.988078 0.153935
0.570553 -0.221353 0.291088 80 29 236 0.000000 -1.000000 0.000000
0.610742 -0.324864 0.300867 80 29 236 -0.897482 -0.390094 -0.205796
0.503342 -0.221353 0.383959 80 29 236 0.000000 -1.000000 0.000000
0.606421 -0.259343 0.293152 80 29 236 -0.954193 -0.135311 -0.266847
0.695744 -0.377231 0.068729 80 29 236 -0.014753 -0.993007 0.117130
0.223259 -0.324509 0.653925 80 29 236 0.049001 -0.231957 0.971491
0.577476 -0.276386 0.589659 80 29 236 -0.357896 0.917481 -0.173606
0.702035 -0.333748 0.257736 80 29 236 -0.038027 -0.984685 0.170146
0.622174 -0.273585 0.236809 80 29 236 -0.969871 -0.031975 -0.241513
0.521456 -0.306614 0.495072 80 29 236 0.040337 0.999186 -0.000510
0.164796 -0.200370 0.609456 80 29 236 -0.002250 0.725737 0.687969
0.486836 -0.313526 0.550835 80 29 236 -0.597931 0.801530 -0.005306
0.671197 -0.373699 0.091008 80 29 236 -0.027886 -0.967056 0.253032
0.547709 -0.151179 0.216031 80 29 236 0.066535 0.997742 0.009191
0.540004 -0.306914 0.575467 80 29 236 -0.802335 0.596870 0.001935
0.717398 -0.233547 0.165840 80 29 236 0.937639 0.320709 0.134088
0.647090 -0.191734 0.375833 80 29 236 0.803791 0.579352 0.135174
0.457347 -0.322237 0.608640 80 29 236 -0.331848 -0.943330 0.002207
0.449664 -0.221353 0.330888 80 29 236 0.000000 -1.000000 0.000000
0.590687 -0.304637 0.362695 80 29 236 -0.983029 -0.047296 -0.177249
0.511704 -0.327601 0.593344 80 29 236 0.398783 0.917044 -0.001471
0.697698 -0.336631 0.439510 80 29 236 0.898758 0.310704 -0.309350
0.155237 -0.221353 0.394259 80 29 236 0.000000 -1.000000 0.000000
0.420027 -0.221353 0.072818 80 29 236 0.000000 -1.000000 0.000000
0.652063 -0.168796 0.201108 80 29 236 0.269967 0.961295 0.055052
0.692522 -0.301995 0.379167 80 29 236 0.504120 0.855927 0.115116
0.423817 -0.150045 0.451390 80 29 236 0.007426 0.996671 0.081185
0.314751 -0.221353 0.128919 80 29 236 0.000000 -1.000000 0.000000
0.434947 -0.221353 0.152990 80 29 236 0.000000 -1.000000 0.000000
0.412087 -0.221353 0.138047 80 29 236 0.000000 -1.000000 0.000000
0.694416 -0.380724 0.023691 80 29 236 0.000151 -0.999750 0.022359
0.478703 -0.147036 0.036564 80 29 236 0.024854 0.999691 -0.000167
0.201502 -0.145771 0.119385 80 29 236 0.000000 1.000000 0.000000
0.273690 -0.145771 0.069876 80 29 236 0.000000 1.000000 0.000000
0.156424 -0.338487 0.617562 80 29 236 0.158964 -0.987280 0.002871
0.740794 -0.339396 0.149964 80 29 236 0.066634 0.965171 -0.252993
0.252890 -0.146035 0.379688 80 29 236 0.000477 0.999550 0.029987
0.584614 -0.250546 0.375038 80 29 236 -0.975390 -0.128571 -0.179120
0.520070 -0.221353 0.125363 80 29 236 0.000000 -1.000000 0.000000
0.510489 -0.360531 0.543541 80 29 236 0.001984 -0.999998 0.000066
0.677800 -0.306279 0.441440 80 29 236 0.997009 0.038213 0.067181
0.211628 -0.262017 0.634511 80 29 236 -0.017656 0.200681 0.979498
0.477664 -0.349407 0.583827 80 29 236 -0.623463 -0.781849 0.002559
0.324962 -0.291131 0.543468 80 29 236 -0.001955 -0.063248 -0.997996
0.290971 -0.145882 0.373998 80 29 236 0.000477 0.999550 0.029987
0.331856 -0.244134 0.631296 80 29 236 -0.008162 0.263397 0.964653
0.292453 -0.221353 0.236332 80 29 236 0.000000 -1.000000 0.000000
0.126170 -0.258668 0.632207 80 29 236 -0.027461 0.200808 0.979246
0.129950 -0.294889 0.637738 80 29 236 -0.025676 0.127174 0.991548
0.152928 -0.339089 0.604280 80 29 236 0.158964 -0.987280 0.002871
0.656899 -0.170411 0.205578 80 29 236 0.269967 0.961295 0.055052
0.721893 -0.226743 0.106546 80 29 236 0.868633 0.490242 0.071687
0.323447 -0.145771 0.196063 80 29 236 0.000000 1.000000 0.000000
0.486327 -0.221353 0.333117 80 29 236 0.000000 -1.000000 0.000000
0.644323 -0.161728 0.037163 80 29 236 0.263843 0.964560 0.003304
0.517301 -0.221353 0.428958 80 29 236 0.000000 -1.000000 0.000000
0.365348 -0.302543 0.544138 80 29 236 -0.007081 -0.068260 -0.997642
0.487100 -0.221353 0.148849 80 29 236 0.000000 -1.000000 0.000000
0.387294 -0.308546 0.624091 80 29 236 -0.007339 -0.999973 0.000000
0.628091 -0.181536 0.445314 80 29 236 0.548920 0.834562 0.046841
0.543376 -0.302692 0.536383 80 29 236 -0.740536 0.671941 -0.010137
0.332321 -0.221353 0.454117 80 29 236 0.000000 -1.000000 0.000000
0.611630 -0.330055 0.435643 80 29 236 0.001986 0.246307 -0.969190
0.592346 -0.281111 0.546895 80 29 236 -0.230324 0.931233 -0.282411
0.234236 -0.221353 0.361990 80 29 236 0.000000 -1.000000 0.000000
0.397205 -0.145771 0.321147 80 29 236 0.000000 1.000000 0.000000
0.729989 -0.325961 0.258195 80 29 236 0.945195 -0.180973 0.271762
0.268564 -0.255234 0.540696 80 29 236 -0.006609 -0.175006 -0.984545
0.169583 -0.145771 0.193153 80 29 236 0.000000 1.000000 0.000000
0.126181 -0.221353 0.203735 80 29 236 0.000000 -1.000000 0.000000
0.205183 -0.294825 0.639224 80 29 236 -0.021400 0.146351 0.989001
0.650107 -0.194818 0.371114 80 29 236 0.803791 0.579352 0.135174
0.331887 -0.145771 0.001159 80 29 236 0.000000 1.000000 0.000000
0.513794 -0.172864 0.563634 80 29 236 0.041021 0.901055 0.431761
0.524340 -0.306684 0.613833 80 29 236 0.042332 0.999104 -0.000372
0.675421 -0.182295 0.206622 80 29 236 0.582284 0.805683 0.108717
0.575844 -0.221353 0.140624 80 29 236 0.000000 -1.000000 0.000000
0.196496 -0.265678 0.542472 80 29 236 0.006306 -0.162853 -0.986630
0.607087 -0.314693 0.446559 80 29 236 -0.013317 0.801604 -0.597706
0.514081 -0.221353 0.427900 80 29 236 0.000000 -1.000000 0.000000
0.488791 -0.356990 0.534642 80 29 236 -0.333538 -0.942735 0.001672
0.305885 -0.221353 0.459378 80 29 236 0.000000 -1.000000 0.000000
0.634088 -0.221353 0.009180 80 29 236 0.000000 -1.000000 0.000000
0.557487 -0.151723 0.192702 80 29 236 0.114928 0.993333 0.009051
0.130072 -0.276726 0.635412 80 29 236 -0.025676 0.127174 0.991548
0.287588 -0.146635 0.399424 80 29 236 0.000615 0.999570 0.029332
0.475547 -0.347150 0.583603 80 29 236 -0.936135 -0.351618 0.004005
0.410100 -0.221358 0.489374 80 29 236 -0.000185 -0.999985 0.005549
0.658505 -0.216424 0.537499 80 29 236 0.883056 0.466420 0.051618
0.140132 -0.163558 0.537895 80 29 236 -0.006469 0.958791 0.284037
0.710088 -0.380363 0.039942 80 29 236 -0.000874 -0.999774 0.021253
0.243242 -0.221353 0.001804 80 29 236 0.000000 -1.000000 0.000000
0.392170 -0.163247 0.535487 80 29 236 0.002577 0.960079 0.279718
0.225029 -0.255299 0.540864 80 29 236 -0.002907 -0.162800 -0.986655
0.312271 -0.221353 0.193092 80 29 236 0.000000 -1.000000 0.000000
0.350124 -0.221353 0.408069 80 29 236 0.000000 -1.000000 0.000000
0.264725 -0.221353 0.393371 80 29 236 0.000000 -1.000000 0.000000
0.472626 -0.327707 0.568065 80 29 236 -0.331848 -0.943330 0.002207
0.325716 -0.221353 0.156964 80 29 236 0.000000 -1.000000 0.000000
0.174746 -0.145771 0.062700 80 29 236 0.000000 1.000000 0.000000
0.495309 -0.231656 0.533998 80 29 236 -0.006479 -0.261544 -0.965170
0.537091 -0.221586 0.622248 80 29 236 0.010739 0.507411 0.861637
0.346614 -0.221353 0.169368 80 29 236 0.000000 -1.000000 0.000000
0.282823 -0.293881 0.543725 80 29 236 -0.001955 -0.063248 -0.997996
0.645475 -0.302013 0.096249 80 29 236 -0.996517 -0.021343 -0.080607
0.335009 -0.145771 0.052436 80 29 236 0.000000 1.000000 0.000000
0.275863 -0.180796 0.582786 80 29 236 0.003039 0.891119 0.453760
0.538989 -0.172531 0.560928 80 29 236 -0.011156 0.898753 0.438313
0.535948 -0.185940 0.589974 80 29 236 0.016360 0.908045 0.418553
0.266008 -0.145771 0.272031 80 29 236 0.000000 1.000000 0.000000
0.602543 -0.278097 0.311933 80 29 236 -0.961965 -0.038071 -0.270506
0.336157 -0.221353 0.061918 80 29 236 0.000000 -1.000000 0.000000
0.552562 -0.221353 0.093817 80 29 236 0.000000 -1.000000 0.000000
0.683711 -0.323598 0.407491 80 29 236 0.005648 -0.997270 -0.073622
0.344278 -0.156308 0.502291 80 29 236 0.001388 0.988574 0.150728
0.346798 -0.309020 0.581155 80 29 236 0.111333 -0.993783 0.000511
0.484567 -0.329930 0.660330 80 29 236 -0.297115 0.310736 0.902865
0.304826 -0.313695 0.610854 80 29 236 0.110917 -0.993829 0.000770
0.512095 -0.360525 0.483879 80 29 236 0.374886 -0.927066 -0.003022
0.482751 -0.221353 -0.001341 80 29 236 0.000000 -1.000000 0.000000
0.152526 -0.145771 0.217177 80 29 236 0.000000 1.000000 0.000000
0.618952 -0.355341 0.446444 80 29 236 -0.005538 -0.784565 -0.620022
0.201590 -0.145771 0.362678 80 29 236 0.000000 1.000000 0.000000
0.422509 -0.176364 0.573103 80 29 236 0.003034 0.891132 0.453734
0.718541 -0.309449 0.255043 80 29 236 0.964573 0.154040 0.214175
0.324278 -0.221353 0.410537 80 29 236 0.000000 -1.000000 0.000000
0.456931 -0.146473 0.159798 80 29 236 0.024855 0.999691 -0.000167
0.507667 -0.352239 0.669083 80 29 236 -0.112758 0.229641 0.966722
0.439373 -0.146049 0.087181 80 29 236 0.024855 0.999691 -0.000167
0.221766 -0.145771 0.018837 80 29 236 0.000000 1.000000 0.000000
0.313323 -0.145771 0.315705 80 29 236 0.000000 1.000000 0.000000
0.408047 -0.255137 0.633791 80 29 236 0.045812 0.199154 0.978897
0.597203 -0.267441 0.330019 80 29 236 -0.965989 -0.037787 -0.255806
0.525054 -0.221353 0.310594 80 29 236 0.000000 -1.000000 0.000000
0.738023 -0.279381 0.092417 80 29 236 0.989478 0.139246 0.039298
0.428145 -0.274223 0.541773 80 29 236 -0.008212 -0.052030 -0.998612
0.616646 -0.221353 0.057143 80 29 236 0.000000 -1.000000 0.000000
0.271128 -0.161432 0.530361 80 29 236 0.001892 0.959267 0.282495
0.561621 -0.221353 0.410173 80 29 236 0.000000 -1.000000 0.000000
0.422774 -0.157533 0.509708 80 29 236 -0.000537 0.988602 0.150551
0.243105 -0.221353 0.147336 80 29 236 0.000000 -1.000000 0.000000
0.223684 -0.145771 0.180043 80 29 236 0.000000 1.000000 0.000000
0.386079 -0.185607 0.591499 80 29 236 0.003034 0.891132 0.453734
0.341523 -0.221353 0.214695 80 29 236 0.000000 -1.000000 0.000000
0.616771 -0.349572 0.489335 80 29 236 0.003533 -0.536705 0.843763
0.607006 -0.221353 0.195497 80 29 236 0.000000 -1.000000 0.000000
0.598337 -0.281588 0.541232 80 29 236 -0.210892 0.928968 -0.304209
0.130952 -0.221353 0.022084 80 29 236 0.000000 -1.000000 0.000000
0.200935 -0.145771 0.224094 80 29 236 0.000000 1.000000 0.000000
0.409350 -0.221353 0.296699 80 29 236 0.000000 -1.000000 0.000000
0.268675 -0.282112 0.543135 80 29 236 -0.002920 -0.050528 -0.998718
0.710121 -0.226544 0.196486 80 29 236 0.928729 0.323605 0.180947
0.189923 -0.221353 0.235518 80 29 236 0.000000 -1.000000 0.000000
0.467761 -0.221353 0.461432 80 29 236 0.000000 -1.000000 0.000000
0.479654 -0.221353 0.278928 80 29 236 0.000000 -1.000000 0.000000
0.718745 -0.273561 0.226650 80 29 236 0.957856 0.218936 0.185955
0.238238 -0.245698 0.539204 80 29 236 -0.006609 -0.175006 -0.984545
0.200613 -0.221353 0.376097 80 29 236 0.000000 -1.000000 0.000000
0.601530 -0.221353 0.212814 80 29 236 0.000000 -1.000000 0.000000
0.243664 -0.221353 0.060078 80 29 236 0.000000 -1.000000 0.000000
0.415684 -0.268439 0.636140 80 29 236 0.045812 0.199154 0.978897
0.404470 -0.221353 0.497155 80 29 236 0.000000 -1.000000 0.000000
0.528613 -0.344938 0.508063 80 29 236 0.998114 0.060812 -0.008358
0.666614 -0.226866 0.387207 80 29 236 0.914291 0.376212 0.150120
0.378494 -0.145771 0.361269 80 29 236 0.000000 1.000000 0.000000
0.659941 -0.165974 0.029141 80 29 236 0.263843 0.964560 0.003304
0.201826 -0.221353 0.041928 80 29 236 0.000000 -1.000000 0.000000
0.736442 -0.355417 0.169848 80 29 236 -0.057404 -0.962675 0.264503
0.652703 -0.164038 0.042064 80 29 236 0.263843 0.964560 0.003304
0.598606 -0.221353 0.263271 80 29 236 0.000000 -1.000000 0.000000
0.648835 -0.328267 -0.005656 80 29 236 -0.999482 -0.026137 0.018771
0.430797 -0.145814 0.254986 80 29 236 0.027736 0.999615 -0.000039
0.253408 -0.312859 0.655174 80 29 236 0.048712 -0.228340 0.972362
0.728039 -0.339055 0.235028 80 29 236 -0.050607 -0.973839 0.221534
0.687395 -0.189271 0.194186 80 29 236 0.582284 0.805683 0.108717
0.133654 -0.223071 0.622968 80 29 236 -0.020703 0.418908 0.907793
0.677053 -0.217081 0.322147 80 29 236 0.895555 0.381952 0.228241
0.394944 -0.221353 0.083796 80 29 236 0.000000 -1.000000 0.000000
0.231835 -0.147955 0.429627 80 29 236 0.001684 0.996767 0.080331
0.634571 -0.338975 0.214366 80 29 236 -0.044868 -0.978543 0.201096
0.168808 -0.145771 0.015920 80 29 236 0.000000 1.000000 0.000000
0.520534 -0.221353 0.240838 80 29 236 0.000000 -1.000000 0.000000
0.454795 -0.283147 0.637892 80 29 236 -0.792123 -0.610206 0.013781
0.472410 -0.221353 0.527635 80 29 236 0.000000 -1.000000 0.000000
0.602557 -0.247295 0.300918 80 29 236 -0.954122 -0.131775 -0.268862
0.152214 -0.221353 0.398883 80 29 236 0.000000 -1.000000 0.000000
0.557124 -0.223996 0.623841 80 29 236 -0.007060 0.525759 0.850604
0.590801 -0.221353 0.111457 80 29 236 0.000000 -1.000000 0.000000
0.211174 -0.307658 0.544484 80 29 236 0.009653 -0.046867 -0.998854
0.270983 -0.145771 0.264893 80 29 236 0.000000 1.000000 0.000000
0.223792 -0.221353 0.342512 80 29 236 0.000000 -1.000000 0.000000
0.718538 -0.258882 0.210427 80 29 236 0.957856 0.218936 0.185955
0.475838 -0.347825 0.592469 80 29 236 -0.936135 -0.351618 0.004005
0.619713 -0.227189 0.218631 80 29 236 -0.956661 -0.211779 -0.199875
0.293572 -0.146263 0.386664 80 29 236 0.000477 0.999550 0.029987
0.607257 -0.345027 0.532827 80 29 236 -0.023352 -0.667304 -0.744419
0.161872 -0.221353 0.288802 80 29 236 0.000000 -1.000000 0.000000
0.579134 -0.310223 0.455787 80 29 236 -0.999994 -0.003310 0.001315
0.624568 -0.168424 0.304143 80 29 236 0.294599 0.952202 0.080765
0.648633 -0.344909 0.490435 80 29 236 0.004295 0.074816 0.997188
0.648184 -0.347863 0.068421 80 29 236 -0.998965 -0.026441 -0.037004
0.527605 -0.221353 0.398856 80 29 236 0.000000 -1.000000 0.000000
0.361628 -0.221353 0.198723 80 29 236 0.000000 -1.000000 0.000000
0.723990 -0.376167 0.081300 80 29 236 -0.014753 -0.993007 0.117130
0.507444 -0.311698 0.630876 80 29 236 0.002922 -0.901969 0.431791
0.511337 -0.221353 0.470166 80 29 236 0.000000 -1.000000 0.000000
0.547316 -0.330579 0.609272 80 29 236 -0.267427 -0.962319 -0.049248
0.146522 -0.150027 0.455986 80 29 236 0.000373 0.996528 0.083255
0.397148 -0.145771 0.000065 80 29 236 0.000000 1.000000 0.000000
0.635551 -0.266271 0.171938 80 29 236 -0.983136 -0.115604 -0.141699
0.526093 -0.359653 0.476816 80 29 236 0.001691 -0.924794 0.380464
0.516153 -0.149533 0.272233 80 29 236 0.070448 0.997512 0.002550
0.719154 -0.309304 0.286345 80 29 236 0.538779 0.842290 -0.016278
0.279770 -0.145771 0.277200 80 29 236 0.000000 1.000000 0.000000
0.592925 -0.221353 0.136056 80 29 236 0.000000 -1.000000 0.000000
0.150934 -0.221353 0.421222 80 29 236 0.000000 -1.000000 0.000000
0.677634 -0.330098 0.275523 80 29 236 -0.025268 -0.986464 0.162019
0.497954 -0.360164 0.554764 80 29 236 -0.328363 -0.944549 0.002037
0.678065 -0.256297 0.563001 80 29 236 0.893428 0.448845 -0.018004
0.484221 -0.293335 0.669390 80 29 236 0.002874 -0.901993 0.431741
0.247981 -0.221353 0.095377 80 29 236 0.000000 -1.000000 0.000000
0.257234 -0.145771 0.360252 80 29 236 0.000000 1.000000 0.000000
0.245462 -0.153248 0.484006 80 29 236 0.002397 0.988078 0.153935
0.561950 -0.151483 0.049988 80 29 236 0.055778 0.998443 -0.000132
0.640903 -0.360544 0.463407 80 29 236 0.000105 -1.000000 0.000652
0.584426 -0.153877 0.065869 80 29 236 0.108470 0.994096 0.002853
0.195572 -0.221353 0.205797 80 29 236 0.000000 -1.000000 0.000000
0.571294 -0.152733 0.128195 80 29 236 0.114928 0.993333 0.009051
0.552796 -0.155224 0.423751 80 29 236 0.170531 0.985033 0.025079
0.564752 -0.151710 0.045839 80 29 236 0.107103 0.994248 -0.000254
0.450346 -0.146324 0.072273 80 29 236 0.024855 0.999691 -0.000167
0.523760 -0.149580 0.193041 80 29 236 0.062179 0.998063 0.001770
0.464783 -0.221353 0.137690 80 29 236 0.000000 -1.000000 0.000000
0.476696 -0.348430 0.645868 80 29 236 -0.619957 -0.784631 0.002822
0.381551 -0.145771 0.160352 80 29 236 0.000000 1.000000 0.000000
0.633897 -0.182671 0.387258 80 29 236 0.569024 0.820192 0.059128
0.552676 -0.221353 0.264189 80 29 236 0.000000 -1.000000 0.000000
0.525717 -0.325764 0.437820 80 29 236 -0.004207 0.551184 -0.834373
0.345450 -0.221353 0.316866 80 29 236 0.000000 -1.000000 0.000000
0.173152 -0.221353 0.135463 80 29 236 0.000000 -1.000000 0.000000
0.525438 -0.327651 0.474673 80 29 236 0.007779 0.778464 0.627641
0.217650 -0.221353 0.302708 80 29 236 0.000000 -1.000000 0.000000
0.473915 -0.332482 0.630242 80 29 236 -0.977458 0.211055 0.005641
0.578254 -0.264543 0.461650 80 29 236 -0.994704 -0.102763 0.001901
0.747492 -0.344210 0.169889 80 29 236 0.980611 0.172682 0.092645
0.407796 -0.145771 0.328022 80 29 236 0.000000 1.000000 0.000000
0.162077 -0.337752 0.557290 80 29 236 0.158964 -0.987280 0.002871
0.688264 -0.351597 0.172484 80 29 236 -0.069965 -0.958604 0.276015
0.654011 -0.164354 0.029977 80 29 236 0.263843 0.964560 0.003304
0.222801 -0.221401 0.492929 80 29 236 0.000107 -0.999956 0.009413
0.607199 -0.169372 0.435218 80 29 236 0.311893 0.949744 0.026615
0.658065 -0.243372 0.610440 80 29 236 0.624636 0.589614 0.512040
0.741138 -0.288130 0.049330 80 29 236 0.990334 0.130380 0.047323
0.318351 -0.168066 0.552572 80 29 236 0.001892 0.959267 0.282495
0.176065 -0.323822 0.655175 80 29 236 -0.035395 0.228146 0.972983
0.507555 -0.360528 0.652116 80 29 236 0.001660 -0.999999 0.000090
0.655313 -0.203498 0.377376 80 29 236 0.802575 0.580801 0.136177
0.689045 -0.191791 0.200994 80 29 236 0.831274 0.531077 0.164135
0.498295 -0.148577 0.352459 80 29 236 0.078567 0.996908 0.001348
0.255476 -0.145771 0.110704 80 29 236 0.000000 1.000000 0.000000
0.152247 -0.221388 0.486658 80 29 236 0.000235 -0.999975 -0.007048
0.480844 -0.318435 0.547981 80 29 236 -0.820511 0.571411 0.015868
0.513079 -0.238017 0.628157 80 29 236 -0.007573 0.272419 0.962149
0.472980 -0.147561 0.412840 80 29 236 0.009770 0.999488 0.030475
0.363897 -0.221353 0.050525 80 29 236 0.000000 -1.000000 0.000000
0.693326 -0.316467 0.398942 80 29 236 0.967143 -0.210876 0.142009
0.303889 -0.206858 0.615247 80 29 236 0.005932 0.467074 0.884198
0.536171 -0.306721 0.487030 80 29 236 -0.001556 0.999123 0.041850
0.211952 -0.145771 0.093074 80 29 236 0.000000 1.000000 0.000000
0.627131 -0.180230 0.423025 80 29 236 0.582421 0.812630 0.020442
0.504457 -0.148249 0.044195 80 29 236 0.056216 0.998419 -0.000378
0.616702 -0.350699 0.488618 80 29 236 0.003533 -0.536705 0.843763
0.740106 -0.323827 0.120538 80 29 236 0.993729 0.075872 0.082138
0.350188 -0.145771 0.013405 80 29 236 0.000000 1.000000 0.000000
0.164002 -0.221353 0.164053 80 29 236 0.000000 -1.000000 0.000000
0.209916 -0.264193 0.634813 80 29 236 -0.011857 0.126920 0.991842
0.237299 -0.305453 0.644040 80 29 236 -0.182157 0.982870 0.028033
0.492181 -0.358245 0.503799 80 29 236 -0.333538 -0.942735 0.001672
0.468472 -0.326122 0.621068 80 29 236 -0.331872 -0.943322 0.002190
0.446807 -0.221353 0.465619 80 29 236 0.000000 -1.000000 0.000000
0.688071 -0.226623 0.295773 80 29 236 0.898138 0.366366 0.243154
0.317817 -0.312273 0.567138 80 29 236 0.111333 -0.993783 0.000511
0.279234 -0.221392 0.477364 80 29 236 0.000439 -0.999991 -0.004273
0.468877 -0.221353 0.269923 80 29 236 0.000000 -1.000000 0.000000
0.358024 -0.145771 0.322871 80 29 236 0.000000 1.000000 0.000000
0.742982 -0.299672 0.020136 80 29 236 0.991706 0.128461 0.004016
0.203896 -0.221353 0.498813 80 29 236 0.000000 -1.000000 0.000000
0.682787 -0.224051 0.311414 80 29 236 0.898138 0.366366 0.243154
0.331361 -0.145771 0.169342 80 29 236 0.000000 1.000000 0.000000
0.151195 -0.145771 0.341047 80 29 236 0.000000 1.000000 0.000000
0.362437 -0.221353 0.203760 80 29 236 0.000000 -1.000000 0.000000
0.179445 -0.334882 0.582248 80 29 236 0.158964 -0.987280 0.002871
0.164166 -0.154778 0.494558 80 29 236 0.000449 0.987676 0.156509
0.547325 -0.155901 0.465012 80 29 236 0.104257 0.990231 0.092588
0.635868 -0.224983 0.119928 80 29 236 -0.935377 -0.344805 -0.078606
0.402542 -0.221353 0.518282 80 29 236 0.000000 -1.000000 0.000000
0.481574 -0.147431 0.383562 80 29 236 0.028866 0.999534 0.009935
0.449152 -0.221353 0.523054 80 29 236 0.000000 -1.000000 0.000000
0.462537 -0.221353 0.296153 80 29 236 0.000000 -1.000000 0.000000
0.139145 -0.209829 0.616894 80 29 236 -0.002969 0.418872 0.908040
0.304773 -0.145771 0.011822 80 29 236 0.000000 1.000000 0.000000
0.629009 -0.283579 0.524339 80 29 236 -0.064103 0.797191 -0.600314
0.242393 -0.145771 0.345382 80 29 236 0.000000 1.000000 0.000000
0.508008 -0.357189 0.451818 80 29 236 -0.002926 -0.942791 -0.333371
0.632571 -0.287252 0.519082 80 29 236 -0.064103 0.797191 -0.600314
0.154922 -0.147716 0.428181 80 29 236 0.001286 0.996581 0.082607
0.712892 -0.212051 0.115140 80 29 236 0.868633 0.490242 0.071687
0.432828 -0.162911 0.534390 80 29 236 -0.004601 0.959737 0.280862
0.441482 -0.260282 0.540405 80 29 236 -0.011593 -0.169035 -0.985542
0.627567 -0.283037 0.214533 80 29 236 -0.978548 -0.031589 -0.203585
0.325358 -0.221353 0.420271 80 29 236 0.000000 -1.000000 0.000000
0.585538 -0.155052 0.192432 80 29 236 0.121906 0.992305 0.021669
0.628690 -0.221353 0.011976 80 29 236 0.000000 -1.000000 0.000000
0.576176 -0.286252 0.658296 80 29 236 -0.706554 -0.362679 0.607655
0.243016 -0.221353 0.408179 80 29 236 0.000000 -1.000000 0.000000
0.477091 -0.221353 0.037347 80 29 236 0.000000 -1.000000 0.000000
0.554686 -0.298787 0.519950 80 29 236 -0.307742 0.928883 -0.206088
0.524825 -0.308880 0.459643 80 29 236 -0.000576 0.952517 -0.304486
0.384850 -0.145771 0.158509 80 29 236 0.000000 1.000000 0.000000
0.636609 -0.261137 0.160388 80 29 236 -0.984576 -0.108042 -0.137612
0.640618 -0.224476 0.032910 80 29 236 -0.954005 -0.299745 -0.005314
0.633872 -0.262914 0.178748 80 29 236 -0.972104 -0.117351 -0.203081
0.677787 -0.332165 0.262964 80 29 236 -0.025268 -0.986464 0.162019
0.294048 -0.314896 0.613503 80 29 236 0.110917 -0.993829 0.000770
0.212417 -0.145771 0.257740 80 29 236 0.000000 1.000000 0.000000
0.450324 -0.242656 0.537246 80 29 236 -0.006573 -0.181444 -0.983379
0.149613 -0.221391 0.494863 80 29 236 0.000107 -0.999956 0.009413
0.578002 -0.352648 0.571253 80 29 236 -0.782911 -0.621993 -0.013277
0.303874 -0.221353 0.367953 80 29 236 0.000000 -1.000000 0.000000
0.621761 -0.330956 0.480560 80 29 236 0.002769 0.913441 0.406961
0.170258 -0.152756 0.481790 80 29 236 0.000702 0.987649 0.156681
0.701050 -0.201032 0.162175 80 29 236 0.858555 0.498542 0.119747
0.131600 -0.221353 0.032759 80 29 236 0.000000 -1.000000 0.000000
0.574475 -0.251245 0.635806 80 29 236 -0.038539 0.316325 0.947868
0.336410 -0.221353 0.321110 80 29 236 0.000000 -1.000000 0.000000
0.542576 -0.172182 0.559254 80 29 236 0.040725 0.957404 0.285864
0.607784 -0.268568 0.653612 80 29 236 0.580074 0.810618 0.080080
0.541977 -0.221353 0.094716 80 29 236 0.000000 -1.000000 0.000000
0.135267 -0.149575 0.450621 80 29 236 0.000373 0.996528 0.083255
0.495909 -0.309404 0.558033 80 29 236 -0.248646 0.968512 -0.012611
0.577933 -0.221353 0.182281 80 29 236 0.000000 -1.000000 0.000000
0.636458 -0.195448 0.563995 80 29 236 0.570287 0.775103 0.272007
0.356197 -0.152203 0.475577 80 29 236 0.002397 0.988078 0.153935
0.736487 -0.331520 0.161584 80 29 236 0.986748 0.122316 0.106619
0.529006 -0.149670 0.129406 80 29 236 0.057629 0.998338 -0.000169
0.174105 -0.331253 0.546884 80 29 236 0.056332 -0.331769 -0.941677
0.390947 -0.221353 0.192396 80 29 236 0.000000 -1.000000 0.000000
0.186915 -0.317313 0.544703 80 29 236 0.009653 -0.046867 -0.998854
0.156747 -0.250953 0.631255 80 29 236 -0.017656 0.200681 0.979498
0.296288 -0.221353 0.333792 80 29 236 0.000000 -1.000000 0.000000
0.743434 -0.303491 0.030711 80 29 236 0.991706 0.128461 0.004016
0.662263 -0.204514 0.346373 80 29 236 0.781493 0.594732 0.188577
0.495021 -0.187373 0.593964 80 29 236 0.012658 0.728521 0.684907
0.167154 -0.221353 0.146043 80 29 236 0.000000 -1.000000 0.000000
0.257003 -0.257674 0.541162 80 29 236 -0.002907 -0.162800 -0.986655
0.704356 -0.360831 0.144165 80 29 236 -0.051026 -0.962232 0.267407
0.283815 -0.145771 0.306074 80 29 236 0.000000 1.000000 0.000000
0.647713 -0.273147 0.005449 80 29 236 -0.999781 -0.020201 -0.005518
0.418026 -0.145771 0.053980 80 29 236 0.000000 1.000000 0.000000
0.229164 -0.306944 0.643463 80 29 236 -0.182157 0.982870 0.028033
0.142108 -0.271084 0.542597 80 29 236 0.005872 -0.038317 -0.999248
0.190463 -0.145771 0.004495 80 29 236 0.000000 1.000000 0.000000
0.619040 -0.174403 0.421891 80 29 236 0.582421 0.812630 0.020442
0.348800 -0.145771 0.090301 80 29 236 0.000000 1.000000 0.000000
0.467694 -0.310111 0.542945 80 29 236 -0.007817 -0.033073 -0.999422
0.693362 -0.230300 0.281769 80 29 236 0.906835 0.363159 0.213928
0.540309 -0.176884 0.570157 80 29 236 0.016360 0.908045 0.418553
0.648911 -0.353195 0.486895 80 29 236 0.003533 -0.536705 0.843763
0.647219 -0.355096 0.091753 80 29 236 -0.996639 -0.031274 -0.075715
0.528399 -0.149876 0.196998 80 29 236 0.062179 0.998063 0.001770
0.604506 -0.285598 0.526668 80 29 236 -0.117003 0.872795 -0.473856
0.571179 -0.221353 0.242864 80 29 236 0.000000 -1.000000 0.000000
0.737388 -0.274813 0.092195 80 29 236 0.989478 0.139246 0.039298
0.661721 -0.223636 0.550626 80 29 236 0.878168 0.477891 0.020989
0.633733 -0.159982 0.119335 80 29 236 0.269977 0.962662 0.019846
0.266890 -0.221353 0.304060 80 29 236 0.000000 -1.000000 0.000000
0.577717 -0.259583 0.448443 80 29 236 -0.994704 -0.102763 0.001901
0.209885 -0.221353 0.232041 80 29 236 0.000000 -1.000000 0.000000
0.411042 -0.310368 0.606785 80 29 236 -0.201228 -0.979544 -0.000026
0.316630 -0.221353 0.247669 80 29 236 0.000000 -1.000000 0.000000
0.618981 -0.176043 0.451977 80 29 236 0.531233 0.843824 0.075847
0.662436 -0.321730 0.379210 80 29 236 0.009592 -0.997793 -0.065699
0.525316 -0.318851 0.661842 80 29 236 -0.263936 0.127026 0.956139
0.519394 -0.221353 0.211787 80 29 236 0.000000 -1.000000 0.000000
0.539461 -0.150291 0.137768 80 29 236 0.060551 0.998154 0.004769
0.181359 -0.145771 0.005335 80 29 236 0.000000 1.000000 0.000000
0.506755 -0.148382 0.150298 80 29 236 0.057629 0.998338 -0.000169
0.573665 -0.221353 0.029308 80 29 236 0.000000 -1.000000 0.000000
0.405631 -0.145771 0.134646 80 29 236 0.000000 1.000000 0.000000
0.645248 -0.248093 0.013589 80 29 236 -0.995222 -0.097473 -0.005593
0.503918 -0.148232 0.008119 80 29 236 0.056216 0.998419 -0.000378
0.212548 -0.145771 0.207006 80 29 236 0.000000 1.000000 0.000000
0.308901 -0.145771 0.248840 80 29 236 0.000000 1.000000 0.000000
0.528195 -0.306493 0.641609 80 29 236 0.002874 -0.901993 0.431741
0.316734 -0.145771 -0.001315 80 29 236 0.000000 1.000000 0.000000
0.345592 -0.145771 0.189174 80 29 236 0.000000 1.000000 0.000000
0.723504 -0.225144 0.060854 80 29 236 0.871683 0.488819 0.035005
0.271524 -0.145771 0.333577 80 29 236 0.000000 1.000000 0.000000
0.560089 -0.325524 0.505841 80 29 236 -0.039720 -0.985964 -0.162164
0.476217 -0.348065 0.641143 80 29 236 -0.623463 -0.781849 0.002559
0.644283 -0.313949 0.114149 80 29 236 -0.996517 -0.021343 -0.080607
0.440996 -0.239999 0.536623 80 29 236 -0.006451 -0.261629 -0.965147
0.591541 -0.164014 0.427545 80 29 236 0.311893 0.949744 0.026615
0.363834 -0.146944 0.408333 80 29 236 0.000615 0.999570 0.029332
0.563518 -0.152977 0.222230 80 29 236 0.128595 0.991538 0.017764
0.696297 -0.380099 0.044849 80 29 236 -0.005582 -0.992177 0.124711
0.667475 -0.184200 0.254299 80 29 236 0.557222 0.818338 0.140804
0.515657 -0.221353 0.369717 80 29 236 0.000000 -1.000000 0.000000
0.708960 -0.199717 0.068386 80 29 236 0.872406 0.487417 0.036512
0.460881 -0.221353 0.014004 80 29 236 0.000000 -1.000000 0.000000
0.205511 -0.145771 0.282081 80 29 236 0.000000 1.000000 0.000000
0.376398 -0.146326 0.387429 80 29 236 0.000477 0.999550 0.029987
0.267312 -0.221353 0.329265 80 29 236 0.000000 -1.000000 0.000000
0.356286 -0.221353 0.099636 80 29 236 0.000000 -1.000000 0.000000
0.169507 -0.145771 0.366225 80 29 236 0.000000 1.000000 0.000000
0.737083 -0.263863 0.021904 80 29 236 0.955726 0.294223 0.004532
0.387442 -0.221353 0.431087 80 29 236 0.000000 -1.000000 0.000000
0.736072 -0.271912 0.102035 80 29 236 0.981415 0.163056 0.101176
0.730518 -0.242512 0.021791 80 29 236 0.956024 0.293236 0.005510
0.560761 -0.236990 0.491639 80 29 236 -0.335063 -0.294597 -0.894956
0.458858 -0.221353 0.369147 80 29 236 0.000000 -1.000000 0.000000
0.604835 -0.318094 0.442981 80 29 236 0.005412 0.562524 -0.826763
0.249849 -0.145771 0.297172 80 29 236 0.000000 1.000000 0.000000
0.311306 -0.150596 0.460483 80 29 236 0.001286 0.996581 0.082607
0.623310 -0.192461 0.575362 80 29 236 0.436027 0.809380 0.393426
0.231296 -0.251939 0.632211 80 29 236 0.001643 0.226597 0.973987
0.658725 -0.224359 0.470153 80 29 236 0.939476 0.342612 0.001242
0.401939 -0.156956 0.506012 80 29 236 0.001388 0.988574 0.150728
0.431840 -0.145866 0.063007 80 29 236 0.024855 0.999691 -0.000167
0.715885 -0.237205 0.185167 80 29 236 0.937639 0.320709 0.134088
0.182179 -0.221353 0.014328 80 29 236 0.000000 -1.000000 0.000000
0.532704 -0.304873 0.644964 80 29 236 0.002867 -0.901993 0.431740
0.610865 -0.319110 0.289100 80 29 236 -0.884305 -0.419492 -0.205017
0.477922 -0.221353 0.204590 80 29 236 0.000000 -1.000000 0.000000
0.167306 -0.221353 0.129020 80 29 236 0.000000 -1.000000 0.000000
0.656059 -0.341052 0.490114 80 29 236 0.004295 0.074816 0.997188
0.554426 -0.221353 0.296064 80 29 236 0.000000 -1.000000 0.000000
0.690418 -0.280096 0.347152 80 29 236 0.956055 0.158182 0.246854
0.605532 -0.220185 0.619497 80 29 236 0.146751 0.586728 0.796376
0.407486 -0.172628 0.565865 80 29 236 0.003034 0.891132 0.453734
0.159776 -0.337926 0.632674 80 29 236 0.157378 -0.987537 0.001503
0.474449 -0.184439 0.588614 80 29 236 0.003034 0.891132 0.453734
0.153958 -0.221263 0.622217 80 29 236 -0.002969 0.418872 0.908040
0.649339 -0.348916 0.016995 80 29 236 -0.999638 -0.026421 -0.005053
0.290805 -0.145771 0.172644 80 29 236 0.000000 1.000000 0.000000
0.406907 -0.145771 0.314870 80 29 236 0.000000 1.000000 0.000000
0.635889 -0.265294 0.564958 80 29 236 -0.210892 0.928968 -0.304209
0.468006 -0.245596 0.537668 80 29 236 -0.006602 -0.181157 -0.983432
0.405787 -0.221353 0.286470 80 29 236 0.000000 -1.000000 0.000000
0.187679 -0.145771 0.055944 80 29 236 0.000000 1.000000 0.000000
0.269274 -0.145771 0.230221 80 29 236 0.000000 1.000000 0.000000
0.353055 -0.221353 0.358451 80 29 236 0.000000 -1.000000 0.000000
0.653244 -0.379064 0.050939 80 29 236 -0.016009 -0.991699 0.127583
0.547096 -0.331629 0.666600 80 29 236 -0.414102 -0.714405 0.564043
0.594070 -0.345298 0.490699 80 29 236 0.004295 0.074816 0.997188
0.619416 -0.157722 0.075646 80 29 236 0.108470 0.994096 0.002853
0.601201 -0.354212 0.445172 80 29 236 -0.005538 -0.784565 -0.620022
0.322145 -0.221353 0.179773 80 29 236 0.000000 -1.000000 0.000000
0.262359 -0.221353 0.139322 80 29 236 0.000000 -1.000000 0.000000
0.238351 -0.145771 0.143141 80 29 236 0.000000 1.000000 0.000000
0.635570 -0.307605 0.179377 80 29 236 -0.978978 -0.036892 -0.200604
0.623679 -0.234181 0.625615 80 29 236 0.166940 0.512702 0.842181
0.164929 -0.200014 0.609081 80 29 236 -0.002250 0.725737 0.687969
0.178766 -0.145771 0.228003 80 29 236 0.000000 1.000000 0.000000
0.629615 -0.238528 0.183244 80 29 236 -0.956678 -0.211717 -0.199859
0.212406 -0.296580 0.543988 80 29 236 0.005872 -0.038317 -0.999248
0.678280 -0.187176 0.226424 80 29 236 0.572317 0.808978 0.134192
0.559919 -0.332803 0.547409 80 29 236 -0.559101 -0.827358 -0.053713
0.614612 -0.323534 0.400683 80 29 236 0.005705 -0.998061 -0.061983
0.629928 -0.235977 0.179042 80 29 236 -0.956678 -0.211717 -0.199859
0.670505 -0.283903 0.519725 80 29 236 -0.020093 0.671127 -0.741070
0.384238 -0.308522 0.553118 80 29 236 -0.007377 -0.999973 -0.000026
0.516139 -0.221353 0.231732 80 29 236 0.000000 -1.000000 0.000000
0.214432 -0.329292 0.582981 80 29 236 0.157378 -0.987537 0.001503
0.159231 -0.338144 0.579932 80 29 236 0.158964 -0.987280 0.002871
0.254932 -0.145771 0.079224 80 29 236 0.000000 1.000000 0.000000
0.338366 -0.145771 0.304166 80 29 236 0.000000 1.000000 0.000000
0.149414 -0.221353 0.326981 80 29 236 0.000000 -1.000000 0.000000
0.577248 -0.255416 0.436463 80 29 236 -0.988635 -0.134469 -0.067218
0.527942 -0.297445 0.632617 80 29 236 0.609605 0.771323 -0.182876
0.575752 -0.221353 -0.005050 80 29 236 0.000000 -1.000000 0.000000
0.589910 -0.317519 0.377289 80 29 236 -0.898436 -0.403790 -0.172529
0.197869 -0.145771 0.267819 80 29 236 0.000000 1.000000 0.000000
0.703346 -0.304007 0.320831 80 29 236 0.057667 0.993671 -0.096396
0.325739 -0.283047 0.543016 80 29 236 -0.002920 -0.050528 -0.998718
0.167789 -0.175615 0.572884 80 29 236 -0.001492 0.891131 0.453744
0.654481 -0.164813 0.075619 80 29 236 0.264364 0.964128 0.023847
0.198848 -0.177713 0.577106 80 29 236 -0.001485 0.891124 0.453757
0.617511 -0.160236 0.224054 80 29 236 0.275105 0.959463 0.061224
0.382032 -0.163251 0.535594 80 29 236 0.002577 0.960079 0.279718
0.601602 -0.360547 0.464840 80 29 236 0.000105 -1.000000 0.000652
0.502452 -0.174499 0.568122 80 29 236 0.041021 0.901055 0.431761
0.478780 -0.221353 0.367139 80 29 236 0.000000 -1.000000 0.000000
0.593369 -0.306416 0.475922 80 29 236 0.000408 0.996069 -0.088583
0.395130 -0.221353 0.269583 80 29 236 0.000000 -1.000000 0.000000
0.544350 -0.354303 0.445796 80 29 236 -0.005538 -0.784565 -0.620022
0.450995 -0.146333 0.116215 80 29 236 0.024855 0.999691 -0.000167
0.584471 -0.232800 0.628481 80 29 236 0.024267 0.467220 0.883808
0.495370 -0.326497 0.437488 80 29 236 -0.004207 0.551184 -0.834373
0.529453 -0.221353 0.074080 80 29 236 0.000000 -1.000000 0.000000
0.651215 -0.165966 0.151334 80 29 236 0.272754 0.961287 0.039143
0.450106 -0.319644 0.628028 80 29 236 -0.331848 -0.943330 0.002207
0.612717 -0.292664 0.278059 80 29 236 -0.961425 -0.040794 -0.272027
0.498079 -0.212594 0.616951 80 29 236 -0.018520 0.472725 0.881015
0.509943 -0.151121 0.442861 80 29 236 0.083312 0.995445 0.046356
0.505020 -0.307226 0.544235 80 29 236 -0.091957 0.995762 0.001096
0.581280 -0.351295 0.538720 80 29 236 0.033032 -0.587832 -0.808308
0.387741 -0.145771 0.046146 80 29 236 0.000000 1.000000 0.000000
0.138896 -0.145771 0.299627 80 29 236 0.000000 1.000000 0.000000
0.661836 -0.335805 0.237459 80 29 236 -0.036432 -0.988615 0.145993
0.250506 -0.318086 0.546090 80 29 236 0.056230 -0.388943 -0.919544
0.680486 -0.203277 0.273142 80 29 236 0.812997 0.553813 0.179796
0.470956 -0.221353 0.157952 80 29 236 0.000000 -1.000000 0.000000
0.524870 -0.334799 0.659943 80 29 236 0.521542 0.837136 0.164914
0.630963 -0.321469 0.362338 80 29 236 -0.008498 -0.998993 0.044057
0.744497 -0.311263 0.016764 80 29 236 0.991706 0.128461 0.004016
0.250372 -0.221353 0.294755 80 29 236 0.000000 -1.000000 0.000000
0.167699 -0.336735 0.595403 80 29 236 0.158964 -0.987280 0.002871
0.137970 -0.221353 0.313374 80 29 236 0.000000 -1.000000 0.000000
0.355742 -0.221353 0.182034 80 29 236 0.000000 -1.000000 0.000000
0.569066 -0.278956 0.602132 80 29 236 -0.475753 0.872629 -0.110350
0.644858 -0.246924 0.044185 80 29 236 -0.994436 -0.098187 -0.038150
0.570615 -0.306552 0.484311 80 29 236 -0.001556 0.999123 0.041850
0.605972 -0.159406 0.260056 80 29 236 0.137869 0.989845 0.034625
0.669923 -0.170067 0.116847 80 29 236 0.264364 0.964128 0.023847
0.135033 -0.246024 0.629853 80 29 236 -0.017656 0.200681 0.979498
0.478179 -0.338992 0.435095 80 29 236 -0.008265 -0.348881 -0.937131
0.395912 -0.221353 0.045121 80 29 236 0.000000 -1.000000 0.000000
0.731374 -0.247135 0.055264 80 29 236 0.954819 0.294614 0.039024
0.660208 -0.225045 0.433294 80 29 236 0.934587 0.345094 0.086350
0.327827 -0.145771 0.079027 80 29 236 0.000000 1.000000 0.000000
0.141530 -0.145771 0.085701 80 29 236 0.000000 1.000000 0.000000
0.294370 -0.221353 0.276641 80 29 236 0.000000 -1.000000 0.000000
0.363593 -0.221353 0.116832 80 29 236 0.000000 -1.000000 0.000000
0.395565 -0.207188 0.614839 80 29 236 0.005859 0.482008 0.876147
0.521802 -0.221353 0.233682 80 29 236 0.000000 -1.000000 0.000000
0.713646 -0.242409 0.206768 80 29 236 0.928729 0.323605 0.180947
0.143684 -0.221353 0.241055 80 29 236 0.000000 -1.000000 0.000000
0.386358 -0.221353 0.026981 80 29 236 0.000000 -1.000000 0.000000
0.602389 -0.295466 0.511397 80 29 236 -0.064103 0.797191 -0.600314
0.679376 -0.380979 0.012382 80 29 236 0.000151 -0.999750 0.022359
0.513392 -0.153059 0.468841 80 29 236 0.044690 0.995967 0.077800
0.749307 -0.359518 0.147392 80 29 236 0.487341 -0.819811 0.300681
0.630887 -0.158933 0.056702 80 29 236 0.108633 0.994081 0.001617
0.388656 -0.221353 0.477384 80 29 236 0.000000 -1.000000 0.000000
0.449036 -0.221353 0.476671 80 29 236 0.000000 -1.000000 0.000000
0.520858 -0.149817 0.262496 80 29 236 0.066535 0.997742 0.009191
0.228738 -0.238991 0.537772 80 29 236 -0.006479 -0.261591 -0.965157
0.541483 -0.331144 0.652781 80 29 236 -0.275956 -0.959980 -0.047814
0.612256 -0.357255 0.451088 80 29 236 -0.002926 -0.942791 -0.333371
0.571009 -0.221436 0.444494 80 29 236 -0.009395 -0.999944 -0.004910
0.448992 -0.275223 0.655209 80 29 236 -0.792123 -0.610206 0.013781
0.544898 -0.304715 0.507881 80 29 236 -0.285385 0.931243 -0.226586
0.146158 -0.152160 0.478141 80 29 236 0.000702 0.987649 0.156681
0.132919 -0.221372 0.477710 80 29 236 -0.000185 -0.999985 0.005549
0.312124 -0.178996 0.579008 80 29 236 0.003039 0.891119 0.453760
0.461627 -0.221353 0.023810 80 29 236 0.000000 -1.000000 0.000000
0.548129 -0.221353 0.084746 80 29 236 0.000000 -1.000000 0.000000
0.714878 -0.357696 0.157457 80 29 236 -0.051026 -0.962232 0.267407
0.414293 -0.233629 0.535075 80 29 236 -0.006466 -0.261488 -0.965185
0.274231 -0.247039 0.539201 80 29 236 -0.006609 -0.175006 -0.984545
0.645053 -0.290543 0.098424 80 29 236 -0.996517 -0.021343 -0.080607
0.524764 -0.150642 0.346276 80 29 236 0.074383 0.997194 0.008429
0.740731 -0.293043 0.072626 80 29 236 0.989478 0.139246 0.039298
0.263144 -0.221353 0.129540 80 29 236 0.000000 -1.000000 0.000000
0.143913 -0.190060 0.598513 80 29 236 -0.002250 0.725737 0.687969
0.430738 -0.156395 0.502256 80 29 236 -0.000537 0.988602 0.150551
0.735594 -0.354773 0.172008 80 29 236 -0.057404 -0.962675 0.264503
0.581569 -0.328331 0.513092 80 29 236 -0.053140 -0.961967 -0.267947
0.730626 -0.325063 0.203437 80 29 236 0.069184 0.973493 -0.218002
0.296107 -0.150821 0.463439 80 29 236 0.001286 0.996581 0.082607
0.641599 -0.325370 0.486834 80 29 236 -0.027445 -0.982914 -0.182006
0.230996 -0.221353 0.036165 80 29 236 0.000000 -1.000000 0.000000
0.543634 -0.302382 0.538149 80 29 236 -0.740536 0.671941 -0.010137
0.633399 -0.330470 0.510493 80 29 236 -0.053140 -0.961967 -0.267947
0.247834 -0.159368 0.523258 80 29 236 0.001388 0.988574 0.150728
0.296219 -0.263482 0.635469 80 29 236 -0.002861 0.174605 0.984634
0.320878 -0.235905 0.536318 80 29 236 -0.006466 -0.261488 -0.965185
0.602881 -0.176264 0.540528 80 29 236 0.297243 0.937992 0.178373
0.153100 -0.322012 0.653922 80 29 236 -0.035132 0.224138 0.973924
0.619436 -0.170944 0.362119 80 29 236 0.304983 0.950666 0.056734
0.153300 -0.221353 0.395900 80 29 236 0.000000 -1.000000 0.000000
0.254288 -0.284513 0.638484 80 29 236 -0.014301 0.146334 0.989132
0.381209 -0.150748 0.461145 80 29 236 0.001684 0.996767 0.080331
0.571616 -0.152456 0.020944 80 29 236 0.107103 0.994248 -0.000254
0.460153 -0.323210 0.614435 80 29 236 -0.331848 -0.943330 0.002207
