ply
format ascii 1.0
element vertex 709
property float x
property float y
property float z
property uchar red
property uchar green
property uchar blue
property float nx
property float ny
property float nz
end_header
-0.142853 -0.086808 -0.407637 213 47 82 0.000000 1.000000 0.000000
-0.476668 -0.105881 -0.248619 213 47 82 0.651612 -0.707100 0.274611
-0.011032 -0.319207 -0.169112 213 47 82 0.000000 1.000000 0.000000
-0.560848 -0.160220 -0.181960 213 47 82 0.686962 -0.707101 0.167604
-0.227472 -0.319207 -0.250100 213 47 82 0.000000 1.000000 0.000000
-0.123158 -0.319207 -0.092734 213 47 82 0.000000 1.000000 0.000000
-0.594203 -0.238904 -0.250190 213 47 82 0.921509 0.000000 0.388358
-0.091947 -0.319207 -0.498751 213 47 82 0.000000 1.000000 0.000000
-0.252987 -0.108056 -0.583976 213 47 82 0.000000 0.000000 -1.000000
-0.625402 -0.086808 -0.037071 213 47 82 0.000000 1.000000 0.000000
-0.397954 -0.097509 -0.362301 213 47 82 0.532588 -0.707098 0.465148
-0.074380 -0.319207 -0.142593 213 47 82 0.000000 1.000000 0.000000
-0.409313 -0.086808 -0.302547 213 47 82 0.000000 1.000000 0.000000
-0.514839 -0.213904 -0.399159 213 47 82 0.599710 -0.707100 0.374643
-0.462797 -0.086808 -0.127240 213 47 82 0.000000 1.000000 0.000000
-0.418995 -0.319207 -0.310239 213 47 82 0.000000 1.000000 0.000000
-0.587259 -0.162244 -0.058702 213 47 82 0.704859 -0.707107 0.056337
-0.217872 -0.086808 -0.186324 213 47 82 0.000000 1.000000 0.000000
-0.576136 -0.149647 -0.039747 213 47 82 0.704857 -0.707109 0.056342
-0.128999 -0.205535 -0.583976 213 47 82 0.000000 0.000000 -1.000000
-0.571087 -0.245233 -0.305041 213 47 82 0.921509 0.000000 0.388358
-0.294640 -0.291712 -0.583976 213 47 82 0.000000 0.000000 1.000000
-0.512797 -0.099945 -0.124612 213 47 82 0.686962 -0.707101 0.167604
-0.121496 -0.086808 -0.339975 213 47 82 0.000000 -1.000000 0.000000
-0.282978 -0.319207 -0.173227 213 47 82 0.000000 1.000000 0.000000
-0.323055 -0.086808 -0.384875 213 47 82 0.000000 -1.000000 0.000000
-0.356027 -0.086808 -0.145897 213 47 82 0.000000 -1.000000 0.000000
-0.513238 -0.319207 -0.047994 213 47 82 0.000000 1.000000 0.000000
-0.401928 -0.086808 -0.261118 213 47 82 0.000000 -1.000000 0.000000
-0.288339 -0.086808 -0.474771 213 47 82 0.000000 1.000000 0.000000
-0.457769 -0.086808 -0.058709 213 47 82 0.000000 -1.000000 0.000000
-0.565245 -0.205229 -0.294253 213 47 82 0.651610 -0.707101 0.274613
-0.463575 -0.103125 -0.272135 213 47 82 0.599710 -0.707100 0.374643
-0.037539 -0.319207 -0.539398 213 47 82 0.000000 1.000000 0.000000
-0.169863 -0.155235 -0.524409 213 47 82 0.000000 -0.707098 0.707115
-0.289687 -0.086808 -0.415952 213 47 82 0.000000 -1.000000 0.000000
-0.062749 -0.086808 -0.454972 213 47 82 0.000000 1.000000 0.000000
-0.085842 -0.086808 -0.123781 213 47 82 0.000000 1.000000 0.000000
-0.146082 -0.319207 -0.217624 213 47 82 0.000000 1.000000 0.000000
-0.262666 -0.086808 -0.365253 213 47 82 0.000000 -1.000000 0.000000
-0.536201 -0.224862 -0.366659 213 47 82 0.848110 0.000000 0.529821
-0.219939 -0.086808 -0.068908 213 47 82 0.000000 -1.000000 0.000000
-0.180745 -0.086808 -0.035733 213 47 82 0.000000 -1.000000 0.000000
-0.567411 -0.319207 -0.247906 213 47 82 0.000000 1.000000 0.000000
-0.493472 -0.086808 -0.065092 213 47 82 0.000000 -1.000000 0.000000
-0.607704 -0.232322 -0.218156 213 47 82 0.921509 0.000000 0.388358
-0.059720 -0.319207 -0.263580 213 47 82 0.000000 1.000000 0.000000
-0.077367 -0.086808 -0.428269 213 47 82 0.000000 -1.000000 0.000000
-0.310952 -0.113522 -0.472681 213 47 82 0.451924 -0.707100 0.543852
-0.516912 -0.319207 -0.124010 213 47 82 0.000000 1.000000 0.000000
-0.335181 -0.086808 -0.559388 213 47 82 0.000000 1.000000 0.000000
-0.054051 -0.086808 -0.581957 213 47 82 0.000000 1.000000 0.000000
-0.476822 -0.200926 -0.429212 213 47 82 0.532568 -0.707107 0.465158
-0.560653 -0.152719 -0.151110 213 47 82 0.686962 -0.707101 0.167604
-0.325620 -0.086808 -0.239469 213 47 82 0.000000 1.000000 0.000000
-0.086884 -0.225507 -0.583976 213 47 82 0.000000 0.000000 1.000000
-0.583479 -0.319207 -0.133650 213 47 82 0.000000 1.000000 0.000000
-0.338924 -0.127871 -0.468094 213 47 82 0.451922 -0.707100 0.543852
-0.546263 -0.167850 -0.243045 213 47 82 0.651610 -0.707101 0.274613
-0.088740 -0.086808 -0.084781 213 47 82 0.000000 1.000000 0.000000
-0.033884 -0.319207 -0.566863 213 47 82 0.000000 1.000000 0.000000
-0.582515 -0.319207 -0.236522 213 47 82 0.000000 1.000000 0.000000
-0.289222 -0.282748 -0.583976 213 47 82 0.000000 0.000000 1.000000
-0.425003 -0.101481 -0.330775 213 47 82 0.599695 -0.707107 0.374654
-0.412964 -0.086808 -0.029803 213 47 82 0.000000 -1.000000 0.000000
-0.067742 -0.228435 -0.583976 213 47 82 0.000000 0.000000 -1.000000
-0.178566 -0.086808 -0.342004 213 47 82 0.000000 -1.000000 0.000000
-0.049267 -0.086808 -0.247103 213 47 82 0.000000 1.000000 0.000000
-0.017492 -0.319207 -0.135626 213 47 82 0.000000 1.000000 0.000000
-0.455024 -0.151732 -0.377561 213 47 82 0.599695 -0.707107 0.374654
-0.543012 -0.115461 -0.025105 213 47 82 0.704859 -0.707107 0.056337
-0.281593 -0.319207 -0.162342 213 47 82 0.000000 1.000000 0.000000
-0.039169 -0.086808 -0.178072 213 47 82 0.000000 -1.000000 0.000000
-0.215468 -0.086808 -0.031537 213 47 82 0.000000 -1.000000 0.000000
-0.040151 -0.086808 -0.438595 213 47 82 0.000000 1.000000 0.000000
-0.382990 -0.086808 -0.011642 213 47 82 0.000000 1.000000 0.000000
-0.053700 -0.319207 -0.472494 213 47 82 0.000000 1.000000 0.000000
-0.543386 -0.319207 -0.206367 213 47 82 0.000000 1.000000 0.000000
-0.508659 -0.314033 -0.410748 213 47 82 0.848110 0.000000 0.529821
-0.482538 -0.253672 -0.443763 213 47 82 0.753165 0.000000 0.657832
-0.070151 -0.217788 -0.583976 213 47 82 0.000000 0.000000 -1.000000
-0.212325 -0.319207 -0.177319 213 47 82 0.000000 1.000000 0.000000
-0.169368 -0.268540 -0.583976 213 47 82 0.000000 0.000000 1.000000
-0.044871 -0.126772 -0.495947 213 47 82 0.000000 -0.707098 0.707115
-0.337107 -0.086808 -0.082183 213 47 82 0.000000 -1.000000 0.000000
-0.553529 -0.086808 -0.335958 213 47 82 0.000000 1.000000 0.000000
-0.625558 -0.086808 -0.001838 213 47 82 0.000000 1.000000 0.000000
-0.302853 -0.086808 -0.401629 213 47 82 0.000000 1.000000 0.000000
-0.308841 -0.086808 -0.579057 213 47 82 0.000000 1.000000 0.000000
-0.198352 -0.319207 -0.416746 213 47 82 0.000000 1.000000 0.000000
-0.336012 -0.086808 -0.178496 213 47 82 0.000000 1.000000 0.000000
-0.061209 -0.319207 -0.577552 213 47 82 0.000000 1.000000 0.000000
-0.546597 -0.319207 -0.011740 213 47 82 0.000000 1.000000 0.000000
-0.264072 -0.319207 -0.517496 213 47 82 0.000000 1.000000 0.000000
-0.258178 -0.086808 -0.104194 213 47 82 0.000000 1.000000 0.000000
-0.513828 -0.319207 -0.371070 213 47 82 0.000000 1.000000 0.000000
-0.008077 -0.086808 -0.529731 213 47 82 0.000000 1.000000 0.000000
-0.180043 -0.179593 -0.548767 213 47 82 0.000000 -0.707098 0.707115
-0.076470 -0.210005 -0.583976 213 47 82 0.000000 0.000000 -1.000000
-0.385395 -0.086808 -0.475471 213 47 82 0.000000 1.000000 0.000000
-0.517715 -0.093025 -0.060005 213 47 82 0.704859 -0.707107 0.056337
-0.249319 -0.319207 -0.312626 213 47 82 0.000000 1.000000 0.000000
-0.576289 -0.319207 -0.022663 213 47 82 0.000000 1.000000 0.000000
-0.526639 -0.319207 -0.136572 213 47 82 0.000000 1.000000 0.000000
-0.286069 -0.086808 -0.192976 213 47 82 0.000000 1.000000 0.000000
-0.425311 -0.133205 -0.385242 213 47 82 0.532568 -0.707107 0.465158
-0.153583 -0.086808 -0.527647 213 47 82 0.000000 1.000000 0.000000
-0.207418 -0.172012 -0.541186 213 47 82 0.000000 -0.707098 0.707115
-0.202941 -0.185097 -0.583976 213 47 82 0.000000 0.000000 -1.000000
-0.578694 -0.086808 -0.020887 213 47 82 0.000000 1.000000 0.000000
-0.478761 -0.086808 -0.172127 213 47 82 0.000000 -1.000000 0.000000
-0.131757 -0.086808 -0.120484 213 47 82 0.000000 -1.000000 0.000000
-0.286056 -0.086808 -0.230316 213 47 82 0.000000 1.000000 0.000000
-0.612139 -0.226076 -0.202011 213 47 82 0.971499 0.000000 0.237042
-0.255951 -0.086808 -0.061593 213 47 82 0.000000 1.000000 0.000000
-0.064086 -0.086808 -0.220931 213 47 82 0.000000 1.000000 0.000000
-0.360092 -0.086808 -0.280651 213 47 82 0.000000 -1.000000 0.000000
-0.023901 -0.250918 -0.583976 213 47 82 0.000000 0.000000 -1.000000
-0.496056 -0.086808 -0.383864 213 47 82 0.000000 1.000000 0.000000
-0.536808 -0.110755 -0.043663 213 47 82 0.704859 -0.707107 0.056337
-0.175021 -0.086808 -0.491110 213 47 82 0.000000 1.000000 0.000000
-0.403636 -0.086808 -0.081964 213 47 82 0.000000 -1.000000 0.000000
-0.643093 -0.304392 -0.019832 213 47 82 0.996821 0.000000 0.079679
-0.307825 -0.319207 -0.290988 213 47 82 0.000000 1.000000 0.000000
-0.210462 -0.319207 -0.289547 213 47 82 0.000000 1.000000 0.000000
-0.290142 -0.086808 -0.215176 213 47 82 0.000000 1.000000 0.000000
-0.568766 -0.280761 -0.310549 213 47 82 0.921509 0.000000 0.388358
-0.460473 -0.262034 -0.469026 213 47 82 0.753165 0.000000 0.657832
-0.549295 -0.086808 -0.036396 213 47 82 0.000000 1.000000 0.000000
-0.295701 -0.319207 -0.374538 213 47 82 0.000000 1.000000 0.000000
-0.056797 -0.086808 -0.195513 213 47 82 0.000000 -1.000000 0.000000
-0.130674 -0.229707 -0.583976 213 47 82 0.000000 0.000000 1.000000
-0.140340 -0.172192 -0.583976 213 47 82 0.000000 0.000000 -1.000000
-0.568964 -0.086808 -0.204211 213 47 82 0.000000 1.000000 0.000000
-0.531331 -0.235122 -0.374455 213 47 82 0.848110 0.000000 0.529821
-0.148974 -0.204288 -0.573462 213 47 82 0.000000 -0.707098 0.707115
-0.010247 -0.086808 -0.527406 213 47 82 0.000000 1.000000 0.000000
-0.123680 -0.319207 -0.245582 213 47 82 0.000000 1.000000 0.000000
-0.210462 -0.086808 -0.146362 213 47 82 0.000000 1.000000 0.000000
-0.398018 -0.086808 -0.225024 213 47 82 0.000000 -1.000000 0.000000
-0.113976 -0.319207 0.009559 213 47 82 0.000000 1.000000 0.000000
-0.234682 -0.086808 -0.325973 213 47 82 0.000000 -1.000000 0.000000
-0.222982 -0.087059 -0.583976 213 47 82 0.000000 0.000000 -1.000000
-0.380477 -0.126026 -0.425663 213 47 82 0.532588 -0.707098 0.465148
-0.568950 -0.253426 -0.310112 213 47 82 0.921509 0.000000 0.388358
-0.363727 -0.222463 -0.560508 213 47 82 0.639109 0.000000 0.769116
-0.468104 -0.086808 -0.080243 213 47 82 0.000000 -1.000000 0.000000
-0.642250 -0.311172 -0.030381 213 47 82 0.996821 0.000000 0.079679
-0.018607 -0.096328 -0.583976 213 47 82 0.000000 0.000000 -1.000000
-0.204993 -0.319207 -0.205236 213 47 82 0.000000 1.000000 0.000000
-0.444788 -0.304032 -0.486983 213 47 82 0.753165 0.000000 0.657832
-0.459168 -0.086808 -0.254036 213 47 82 0.000000 1.000000 0.000000
-0.438289 -0.094957 -0.297195 213 47 82 0.599695 -0.707107 0.374654
-0.378169 -0.086808 -0.167216 213 47 82 0.000000 -1.000000 0.000000
-0.253209 -0.086808 0.012148 213 47 82 0.000000 -1.000000 0.000000
-0.159633 -0.319207 -0.286814 213 47 82 0.000000 1.000000 0.000000
-0.246603 -0.086808 -0.033199 213 47 82 0.000000 -1.000000 0.000000
-0.219469 -0.092977 -0.462152 213 47 82 0.000000 -0.707098 0.707115
-0.396814 -0.086808 -0.503210 213 47 82 0.000000 1.000000 0.000000
-0.335995 -0.319207 -0.143211 213 47 82 0.000000 1.000000 0.000000
-0.147562 -0.086808 -0.347182 213 47 82 0.000000 -1.000000 0.000000
-0.079195 -0.086808 -0.174067 213 47 82 0.000000 -1.000000 0.000000
-0.056422 -0.264316 -0.583976 213 47 82 0.000000 0.000000 -1.000000
-0.205322 -0.124041 -0.583976 213 47 82 0.000000 0.000000 -1.000000
-0.256771 -0.139515 -0.508689 213 47 82 0.000000 -0.707098 0.707115
-0.118387 -0.319207 -0.205788 213 47 82 0.000000 1.000000 0.000000
-0.594528 -0.189998 -0.169545 213 47 82 0.686955 -0.707106 0.167614
-0.211633 -0.086808 -0.127689 213 47 82 0.000000 -1.000000 0.000000
-0.337211 -0.086808 -0.192842 213 47 82 0.000000 1.000000 0.000000
-0.388813 -0.319207 -0.407046 213 47 82 0.000000 1.000000 0.000000
-0.084521 -0.086808 -0.381068 213 47 82 0.000000 -1.000000 0.000000
-0.259382 -0.086808 -0.126439 213 47 82 0.000000 1.000000 0.000000
-0.174673 -0.086808 -0.342469 213 47 82 0.000000 1.000000 0.000000
-0.013835 -0.128444 -0.583976 213 47 82 0.000000 0.000000 -1.000000
-0.217782 -0.319207 -0.067369 213 47 82 0.000000 1.000000 0.000000
-0.625133 -0.306991 -0.148758 213 47 82 0.971499 0.000000 0.237042
-0.266277 -0.086808 0.012466 213 47 82 0.000000 -1.000000 0.000000
-0.529972 -0.319207 -0.366539 213 47 82 0.000000 1.000000 0.000000
-0.388295 -0.156363 -0.462828 213 47 82 0.532588 -0.707098 0.465148
-0.461745 -0.086808 -0.212504 213 47 82 0.000000 -1.000000 0.000000
-0.625587 -0.200113 -0.054477 213 47 82 0.704857 -0.707109 0.056342
-0.111958 -0.086808 -0.388355 213 47 82 0.000000 1.000000 0.000000
-0.356392 -0.319207 -0.428373 213 47 82 0.000000 1.000000 0.000000
-0.310355 -0.086808 -0.034662 213 47 82 0.000000 -1.000000 0.000000
-0.293371 -0.086808 -0.328198 213 47 82 0.000000 1.000000 0.000000
-0.390525 -0.086808 -0.264255 213 47 82 0.000000 -1.000000 0.000000
-0.491849 -0.092019 -0.176905 213 47 82 0.651610 -0.707101 0.274613
-0.222025 -0.258519 -0.583976 213 47 82 0.000000 0.000000 -1.000000
-0.581450 -0.229206 -0.280450 213 47 82 0.921509 0.000000 0.388358
-0.048896 -0.086808 -0.410709 213 47 82 0.000000 1.000000 0.000000
-0.215548 -0.086808 -0.094560 213 47 82 0.000000 1.000000 0.000000
-0.076807 -0.319207 -0.279620 213 47 82 0.000000 1.000000 0.000000
-0.535637 -0.319207 0.000888 213 47 82 0.000000 1.000000 0.000000
-0.206667 -0.086808 -0.348719 213 47 82 0.000000 -1.000000 0.000000
-0.534506 -0.110674 -0.071437 213 47 82 0.704859 -0.707107 0.056337
-0.522769 -0.276119 -0.388161 213 47 82 0.848110 0.000000 0.529821
-0.036850 -0.086808 -0.149116 213 47 82 0.000000 -1.000000 0.000000
-0.338240 -0.086808 -0.211039 213 47 82 0.000000 1.000000 0.000000
-0.345504 -0.319207 -0.546098 213 47 82 0.000000 1.000000 0.000000
-0.432204 -0.319207 -0.273705 213 47 82 0.000000 1.000000 0.000000
-0.464331 -0.086808 -0.117332 213 47 82 0.000000 -1.000000 0.000000
-0.050327 -0.086808 -0.294976 213 47 82 0.000000 -1.000000 0.000000
-0.206691 -0.319207 -0.381209 213 47 82 0.000000 1.000000 0.000000
-0.030219 -0.319207 -0.304467 213 47 82 0.000000 1.000000 0.000000
-0.228042 -0.086808 -0.255580 213 47 82 0.000000 -1.000000 0.000000
-0.057517 -0.086808 -0.408467 213 47 82 0.000000 1.000000 0.000000
-0.367057 -0.263410 -0.557742 213 47 82 0.639109 0.000000 0.769116
-0.156769 -0.319207 -0.413753 213 47 82 0.000000 1.000000 0.000000
-0.359934 -0.319207 -0.255260 213 47 82 0.000000 1.000000 0.000000
-0.100429 -0.086808 -0.039593 213 47 82 0.000000 1.000000 0.000000
-0.278418 -0.086808 -0.378569 213 47 82 0.000000 -1.000000 0.000000
-0.458063 -0.319207 -0.036597 213 47 82 0.000000 1.000000 0.000000
-0.258311 -0.087146 -0.456322 213 47 82 0.000000 -0.707098 0.707115
-0.341770 -0.086808 -0.478483 213 47 82 0.000000 1.000000 0.000000
-0.099921 -0.086808 -0.152871 213 47 82 0.000000 1.000000 0.000000
-0.632936 -0.203965 -0.010877 213 47 82 0.704857 -0.707109 0.056342
-0.113555 -0.159224 -0.583976 213 47 82 0.000000 0.000000 -1.000000
-0.581325 -0.230245 -0.280748 213 47 82 0.921509 0.000000 0.388358
-0.087635 -0.166634 -0.535808 213 47 82 0.000000 -0.707098 0.707115
-0.279827 -0.319207 -0.393808 213 47 82 0.000000 1.000000 0.000000
-0.068194 -0.086808 -0.286349 213 47 82 0.000000 -1.000000 0.000000
-0.316523 -0.086808 0.000522 213 47 82 0.000000 1.000000 0.000000
-0.029713 -0.319207 -0.533215 213 47 82 0.000000 1.000000 0.000000
-0.262053 -0.319207 -0.050357 213 47 82 0.000000 1.000000 0.000000
-0.532053 -0.111202 -0.093185 213 47 82 0.686955 -0.707106 0.167614
-0.210636 -0.209150 -0.583976 213 47 82 0.000000 0.000000 -1.000000
-0.010961 -0.319207 -0.137087 213 47 82 0.000000 1.000000 0.000000
-0.455207 -0.319207 -0.219811 213 47 82 0.000000 1.000000 0.000000
-0.282673 -0.186031 -0.555204 213 47 82 0.000000 -0.707098 0.707115
-0.206317 -0.305343 -0.583976 213 47 82 0.000000 0.000000 -1.000000
-0.003010 -0.319207 -0.140277 213 47 82 0.000000 1.000000 0.000000
-0.288315 -0.086808 -0.008479 213 47 82 0.000000 1.000000 0.000000
-0.604244 -0.319207 -0.075261 213 47 82 0.000000 1.000000 0.000000
-0.245246 -0.086808 -0.060938 213 47 82 0.000000 -1.000000 0.000000
-0.099519 -0.086808 -0.415254 213 47 82 0.000000 -1.000000 0.000000
-0.042840 -0.086808 -0.508578 213 47 82 0.000000 1.000000 0.000000
-0.555782 -0.319207 -0.310905 213 47 82 0.000000 1.000000 0.000000
-0.377192 -0.086808 -0.293802 213 47 82 0.000000 1.000000 0.000000
-0.416898 -0.086808 -0.062301 213 47 82 0.000000 1.000000 0.000000
-0.028423 -0.086808 -0.332650 213 47 82 0.000000 -1.000000 0.000000
-0.459604 -0.086808 -0.095514 213 47 82 0.000000 1.000000 0.000000
-0.452597 -0.098086 -0.280198 213 47 82 0.599695 -0.707107 0.374654
-0.502698 -0.086808 -0.085030 213 47 82 0.000000 1.000000 0.000000
-0.367340 -0.086808 -0.246992 213 47 82 0.000000 1.000000 0.000000
-0.005682 -0.319207 -0.090081 213 47 82 0.000000 1.000000 0.000000
-0.409893 -0.127269 -0.393872 213 47 82 0.532568 -0.707107 0.465158
-0.185199 -0.086808 -0.181637 213 47 82 0.000000 -1.000000 0.000000
-0.542225 -0.277935 -0.357017 213 47 82 0.848110 0.000000 0.529821
-0.485414 -0.086808 -0.297471 213 47 82 0.000000 1.000000 0.000000
-0.410203 -0.086808 -0.066790 213 47 82 0.000000 1.000000 0.000000
-0.329599 -0.086808 -0.319708 213 47 82 0.000000 1.000000 0.000000
-0.134106 -0.086808 -0.441580 213 47 82 0.000000 1.000000 0.000000
-0.193772 -0.210368 -0.583976 213 47 82 0.000000 0.000000 -1.000000
-0.029271 -0.243557 -0.583976 213 47 82 0.000000 0.000000 -1.000000
-0.087616 -0.314873 -0.583976 213 47 82 0.000000 0.000000 -1.000000
-0.299400 -0.086808 -0.532533 213 47 82 0.000000 1.000000 0.000000
-0.538798 -0.254693 -0.362502 213 47 82 0.848110 0.000000 0.529821
-0.351492 -0.086808 -0.034010 213 47 82 0.000000 1.000000 0.000000
-0.071804 -0.203000 -0.583976 213 47 82 0.000000 0.000000 -1.000000
-0.436461 -0.086808 -0.056808 213 47 82 0.000000 -1.000000 0.000000
-0.375386 -0.101470 -0.394163 213 47 82 0.532588 -0.707098 0.465148
-0.020279 -0.086808 -0.270564 213 47 82 0.000000 -1.000000 0.000000
-0.444153 -0.086808 -0.434290 213 47 82 0.000000 1.000000 0.000000
-0.242108 -0.319207 -0.326485 213 47 82 0.000000 1.000000 0.000000
-0.257380 -0.147429 -0.583976 213 47 82 0.000000 0.000000 -1.000000
-0.578144 -0.233265 -0.288295 213 47 82 0.921509 0.000000 0.388358
-0.032369 -0.319207 -0.494556 213 47 82 0.000000 1.000000 0.000000
-0.363936 -0.150700 -0.476990 213 47 82 0.451922 -0.707100 0.543852
-0.114387 -0.258160 -0.583976 213 47 82 0.000000 0.000000 -1.000000
-0.502086 -0.086808 -0.210309 213 47 82 0.000000 1.000000 0.000000
-0.550190 -0.086808 -0.165379 213 47 82 0.000000 1.000000 0.000000
-0.483452 -0.319207 -0.278107 213 47 82 0.000000 1.000000 0.000000
-0.336359 -0.319207 -0.405377 213 47 82 0.000000 1.000000 0.000000
-0.165608 -0.319207 -0.281874 213 47 82 0.000000 1.000000 0.000000
-0.069273 -0.198664 -0.583976 213 47 82 0.000000 0.000000 -1.000000
-0.295487 -0.086808 -0.468589 213 47 82 0.000000 1.000000 0.000000
-0.142130 -0.287349 -0.583976 213 47 82 0.000000 0.000000 -1.000000
-0.282855 -0.086808 -0.091860 213 47 82 0.000000 1.000000 0.000000
-0.280573 -0.086808 -0.292617 213 47 82 0.000000 1.000000 0.000000
-0.071999 -0.086808 -0.065171 213 47 82 0.000000 1.000000 0.000000
-0.390764 -0.319207 -0.522105 213 47 82 0.000000 1.000000 0.000000
-0.383800 -0.086808 -0.307709 213 47 82 0.000000 1.000000 0.000000
-0.372057 -0.319207 -0.051641 213 47 82 0.000000 1.000000 0.000000
-0.220630 -0.086808 -0.172537 213 47 82 0.000000 1.000000 0.000000
-0.182285 -0.086808 0.007662 213 47 82 0.000000 -1.000000 0.000000
-0.012970 -0.319207 -0.512536 213 47 82 0.000000 1.000000 0.000000
-0.214281 -0.319207 -0.104734 213 47 82 0.000000 1.000000 0.000000
-0.363463 -0.086808 -0.041242 213 47 82 0.000000 -1.000000 0.000000
-0.139559 -0.319207 -0.103633 213 47 82 0.000000 1.000000 0.000000
-0.469759 -0.086808 -0.397387 213 47 82 0.000000 1.000000 0.000000
-0.106411 -0.086808 -0.107385 213 47 82 0.000000 1.000000 0.000000
-0.326393 -0.086808 -0.290028 213 47 82 0.000000 1.000000 0.000000
-0.547546 -0.197320 -0.315502 213 47 82 0.599710 -0.707100 0.374643
-0.610122 -0.241227 -0.210278 213 47 82 0.971499 0.000000 0.237042
-0.297882 -0.284353 -0.583976 213 47 82 0.000000 0.000000 1.000000
-0.079006 -0.086808 -0.402127 213 47 82 0.000000 1.000000 0.000000
-0.023133 -0.086808 -0.303882 213 47 82 0.000000 -1.000000 0.000000
-0.422727 -0.106409 -0.343719 213 47 82 0.599695 -0.707107 0.374654
-0.158077 -0.086808 -0.042647 213 47 82 0.000000 -1.000000 0.000000
-0.215836 -0.214450 -0.583976 213 47 82 0.000000 0.000000 -1.000000
-0.115420 -0.294224 -0.583976 213 47 82 0.000000 0.000000 -1.000000
-0.213967 -0.319207 -0.276212 213 47 82 0.000000 1.000000 0.000000
-0.122264 -0.086808 -0.231222 213 47 82 0.000000 -1.000000 0.000000
-0.228133 -0.086808 -0.145663 213 47 82 0.000000 -1.000000 0.000000
-0.194118 -0.086808 -0.250529 213 47 82 0.000000 -1.000000 0.000000
-0.059054 -0.086808 -0.272683 213 47 82 0.000000 -1.000000 0.000000
-0.159549 -0.086808 -0.094776 213 47 82 0.000000 1.000000 0.000000
-0.232929 -0.086808 -0.427230 213 47 82 0.000000 1.000000 0.000000
-0.277385 -0.086808 -0.043616 213 47 82 0.000000 -1.000000 0.000000
-0.410576 -0.086808 -0.034216 213 47 82 0.000000 1.000000 0.000000
-0.259803 -0.086808 -0.384807 213 47 82 0.000000 1.000000 0.000000
-0.217297 -0.125872 -0.495047 213 47 82 0.000000 -0.707098 0.707115
-0.348297 -0.086808 -0.384024 213 47 82 0.000000 -1.000000 0.000000
-0.104329 -0.252662 -0.583976 213 47 82 0.000000 0.000000 -1.000000
-0.348160 -0.319207 -0.278503 213 47 82 0.000000 1.000000 0.000000
-0.517486 -0.086808 -0.071721 213 47 82 0.000000 1.000000 0.000000
-0.099401 -0.086808 -0.455579 213 47 82 0.000000 -1.000000 0.000000
-0.102828 -0.299009 -0.583976 213 47 82 0.000000 0.000000 1.000000
-0.326260 -0.319207 -0.079454 213 47 82 0.000000 1.000000 0.000000
-0.335897 -0.319207 -0.446856 213 47 82 0.000000 1.000000 0.000000
-0.010003 -0.168850 -0.583976 213 47 82 0.000000 0.000000 -1.000000
-0.089445 -0.164470 -0.583976 213 47 82 0.000000 0.000000 -1.000000
-0.212714 -0.303063 -0.583976 213 47 82 0.000000 0.000000 -1.000000
-0.466029 -0.188435 -0.422581 213 47 82 0.532568 -0.707107 0.465158
-0.550873 -0.086808 -0.274354 213 47 82 0.000000 1.000000 0.000000
-0.569711 -0.291909 -0.308307 213 47 82 0.921509 0.000000 0.388358
-0.006782 -0.086808 0.010459 213 47 82 0.000000 -1.000000 0.000000
-0.185165 -0.181751 -0.550925 213 47 82 0.000000 -0.707098 0.707115
-0.545089 -0.319207 -0.349337 213 47 82 0.000000 1.000000 0.000000
-0.302101 -0.086808 -0.397937 213 47 82 0.000000 -1.000000 0.000000
-0.097489 -0.086808 -0.062439 213 47 82 0.000000 -1.000000 0.000000
-0.070532 -0.106487 -0.583976 213 47 82 0.000000 0.000000 -1.000000
-0.434936 -0.277285 -0.498263 213 47 82 0.753165 0.000000 0.657832
-0.086906 -0.158975 -0.583976 213 47 82 0.000000 0.000000 -1.000000
-0.303051 -0.319207 -0.290193 213 47 82 0.000000 1.000000 0.000000
-0.365269 -0.319207 -0.023070 213 47 82 0.000000 1.000000 0.000000
-0.004806 -0.129715 -0.498890 213 47 82 0.000000 -0.707098 0.707115
-0.065002 -0.305972 -0.583976 213 47 82 0.000000 0.000000 1.000000
-0.186776 -0.086808 -0.090869 213 47 82 0.000000 -1.000000 0.000000
-0.493648 -0.136167 -0.286312 213 47 82 0.651612 -0.707100 0.274611
-0.185892 -0.223600 -0.583976 213 47 82 0.000000 0.000000 1.000000
-0.016809 -0.319207 -0.379089 213 47 82 0.000000 1.000000 0.000000
-0.539793 -0.319207 -0.007136 213 47 82 0.000000 1.000000 0.000000
-0.327564 -0.086808 -0.098036 213 47 82 0.000000 1.000000 0.000000
-0.549003 -0.193086 -0.301523 213 47 82 0.651612 -0.707100 0.274611
-0.545434 -0.291330 -0.351880 213 47 82 0.848110 0.000000 0.529821
-0.041809 -0.099394 -0.468570 213 47 82 0.000000 -0.707098 0.707115
-0.249220 -0.086808 -0.214517 213 47 82 0.000000 1.000000 0.000000
-0.306919 -0.086808 -0.088184 213 47 82 0.000000 1.000000 0.000000
-0.255556 -0.319207 -0.364231 213 47 82 0.000000 1.000000 0.000000
-0.142979 -0.086808 -0.067978 213 47 82 0.000000 1.000000 0.000000
-0.639473 -0.303866 -0.065125 213 47 82 0.996821 0.000000 0.079679
-0.432352 -0.319207 -0.084221 213 47 82 0.000000 1.000000 0.000000
-0.412279 -0.319207 -0.313704 213 47 82 0.000000 1.000000 0.000000
-0.561026 -0.086808 -0.288710 213 47 82 0.000000 1.000000 0.000000
-0.568822 -0.222810 -0.310417 213 47 82 0.921509 0.000000 0.388358
-0.182041 -0.319207 -0.503170 213 47 82 0.000000 1.000000 0.000000
-0.186386 -0.319207 -0.118868 213 47 82 0.000000 1.000000 0.000000
-0.471688 -0.158653 -0.363950 213 47 82 0.599695 -0.707107 0.374654
-0.619383 -0.201202 -0.114944 213 47 82 0.686955 -0.707106 0.167614
-0.116380 -0.319207 -0.172883 213 47 82 0.000000 1.000000 0.000000
-0.193926 -0.086808 -0.084146 213 47 82 0.000000 1.000000 0.000000
-0.048141 -0.319207 -0.038704 213 47 82 0.000000 1.000000 0.000000
-0.016683 -0.319207 -0.388515 213 47 82 0.000000 1.000000 0.000000
-0.416772 -0.319207 -0.483087 213 47 82 0.000000 1.000000 0.000000
-0.437044 -0.086808 -0.123752 213 47 82 0.000000 1.000000 0.000000
-0.048274 -0.086808 0.009254 213 47 82 0.000000 1.000000 0.000000
-0.306370 -0.086808 -0.183577 213 47 82 0.000000 1.000000 0.000000
-0.303450 -0.086808 -0.267187 213 47 82 0.000000 -1.000000 0.000000
-0.255719 -0.319207 -0.311480 213 47 82 0.000000 1.000000 0.000000
-0.159182 -0.086808 -0.272466 213 47 82 0.000000 1.000000 0.000000
-0.064438 -0.086808 -0.015429 213 47 82 0.000000 -1.000000 0.000000
-0.283071 -0.215270 -0.583976 213 47 82 0.000000 0.000000 1.000000
-0.195841 -0.086808 -0.241463 213 47 82 0.000000 1.000000 0.000000
-0.370824 -0.086808 -0.488867 213 47 82 0.000000 1.000000 0.000000
-0.159047 -0.086808 -0.067769 213 47 82 0.000000 1.000000 0.000000
-0.477915 -0.086808 -0.118979 213 47 82 0.000000 -1.000000 0.000000
-0.350269 -0.165888 -0.508095 213 47 82 0.451922 -0.707100 0.543852
-0.342725 -0.319207 -0.363388 213 47 82 0.000000 1.000000 0.000000
-0.038644 -0.319207 -0.336849 213 47 82 0.000000 1.000000 0.000000
-0.122678 -0.319207 -0.246161 213 47 82 0.000000 1.000000 0.000000
-0.312576 -0.319207 -0.528424 213 47 82 0.000000 1.000000 0.000000
-0.419206 -0.086808 -0.038834 213 47 82 0.000000 -1.000000 0.000000
-0.300451 -0.086808 -0.464077 213 47 82 0.000000 1.000000 0.000000
-0.012158 -0.319207 -0.381995 213 47 82 0.000000 1.000000 0.000000
-0.556244 -0.268931 -0.334577 213 47 82 0.848110 0.000000 0.529821
-0.546314 -0.121803 -0.063394 213 47 82 0.704859 -0.707107 0.056337
-0.377718 -0.086808 -0.127521 213 47 82 0.000000 -1.000000 0.000000
-0.415524 -0.086808 -0.123981 213 47 82 0.000000 1.000000 0.000000
-0.216710 -0.319207 -0.529612 213 47 82 0.000000 1.000000 0.000000
-0.448894 -0.086808 -0.112177 213 47 82 0.000000 -1.000000 0.000000
-0.239357 -0.086808 -0.264674 213 47 82 0.000000 -1.000000 0.000000
-0.455438 -0.313382 -0.474790 213 47 82 0.753165 0.000000 0.657832
-0.153690 -0.086808 0.003008 213 47 82 0.000000 -1.000000 0.000000
-0.487166 -0.087647 -0.176757 213 47 82 0.651612 -0.707100 0.274611
-0.474844 -0.086808 -0.232874 213 47 82 0.000000 1.000000 0.000000
-0.435084 -0.141860 -0.387210 213 47 82 0.532568 -0.707107 0.465158
-0.490912 -0.086808 -0.169665 213 47 82 0.000000 1.000000 0.000000
-0.042671 -0.086808 -0.066210 213 47 82 0.000000 -1.000000 0.000000
-0.123762 -0.086808 -0.548828 213 47 82 0.000000 1.000000 0.000000
-0.555178 -0.319207 -0.036853 213 47 82 0.000000 1.000000 0.000000
-0.002034 -0.086808 -0.118075 213 47 82 0.000000 1.000000 0.000000
-0.154863 -0.086808 -0.303468 213 47 82 0.000000 1.000000 0.000000
-0.549408 -0.201113 -0.319680 213 47 82 0.599710 -0.707100 0.374643
-0.598378 -0.086808 -0.231725 213 47 82 0.000000 1.000000 0.000000
-0.223399 -0.232965 -0.583976 213 47 82 0.000000 0.000000 1.000000
-0.344130 -0.319207 0.010455 213 47 82 0.000000 1.000000 0.000000
-0.429650 -0.266483 -0.504315 213 47 82 0.753165 0.000000 0.657832
-0.349341 -0.086808 -0.478391 213 47 82 0.000000 1.000000 0.000000
-0.308981 -0.086808 -0.159163 213 47 82 0.000000 -1.000000 0.000000
-0.321730 -0.086808 -0.574508 213 47 82 0.000000 1.000000 0.000000
-0.147320 -0.193788 -0.562962 213 47 82 0.000000 -0.707098 0.707115
-0.343860 -0.086808 -0.123957 213 47 82 0.000000 1.000000 0.000000
-0.254909 -0.277335 -0.583976 213 47 82 0.000000 0.000000 -1.000000
-0.129873 -0.086808 -0.071316 213 47 82 0.000000 -1.000000 0.000000
-0.054371 -0.086808 -0.118275 213 47 82 0.000000 1.000000 0.000000
-0.544368 -0.194794 -0.315823 213 47 82 0.599710 -0.707100 0.374643
-0.122679 -0.086808 -0.464089 213 47 82 0.000000 1.000000 0.000000
-0.458191 -0.086808 -0.252150 213 47 82 0.000000 1.000000 0.000000
-0.321196 -0.086808 -0.300249 213 47 82 0.000000 -1.000000 0.000000
-0.420315 -0.319207 -0.328172 213 47 82 0.000000 1.000000 0.000000
-0.388132 -0.278620 -0.540229 213 47 82 0.639109 0.000000 0.769116
-0.536144 -0.295955 -0.366751 213 47 82 0.848110 0.000000 0.529821
-0.359240 -0.319207 -0.453177 213 47 82 0.000000 1.000000 0.000000
-0.400222 -0.319207 -0.422161 213 47 82 0.000000 1.000000 0.000000
-0.256361 -0.319207 -0.082024 213 47 82 0.000000 1.000000 0.000000
-0.309514 -0.159807 -0.528981 213 47 82 0.000000 -0.707098 0.707115
-0.573016 -0.086808 -0.048490 213 47 82 0.000000 1.000000 0.000000
-0.494061 -0.187071 -0.381774 213 47 82 0.599710 -0.707100 0.374643
-0.442952 -0.319207 -0.440240 213 47 82 0.000000 1.000000 0.000000
-0.186585 -0.086808 -0.450388 213 47 82 0.000000 -1.000000 0.000000
-0.230853 -0.086808 -0.063445 213 47 82 0.000000 1.000000 0.000000
-0.288915 -0.314025 -0.583976 213 47 82 0.000000 0.000000 1.000000
-0.539876 -0.319207 -0.163060 213 47 82 0.000000 1.000000 0.000000
-0.597526 -0.171412 -0.045320 213 47 82 0.704857 -0.707109 0.056342
-0.598343 -0.189942 -0.153673 213 47 82 0.686955 -0.707106 0.167614
-0.375589 -0.086808 -0.085537 213 47 82 0.000000 -1.000000 0.000000
-0.507730 -0.319207 -0.006249 213 47 82 0.000000 1.000000 0.000000
-0.410687 -0.086808 -0.407178 213 47 82 0.000000 1.000000 0.000000
-0.271859 -0.182803 -0.551976 213 47 82 0.000000 -0.707098 0.707115
-0.287618 -0.319207 -0.256663 213 47 82 0.000000 1.000000 0.000000
-0.006170 -0.086808 -0.302325 213 47 82 0.000000 -1.000000 0.000000
-0.557914 -0.296516 -0.331902 213 47 82 0.848110 0.000000 0.529821
-0.253967 -0.319207 -0.240628 213 47 82 0.000000 1.000000 0.000000
-0.033296 -0.319207 -0.184688 213 47 82 0.000000 1.000000 0.000000
-0.296176 -0.165517 -0.534691 213 47 82 0.000000 -0.707098 0.707115
-0.265617 -0.086808 -0.326906 213 47 82 0.000000 -1.000000 0.000000
-0.167347 -0.118644 -0.487819 213 47 82 0.000000 -0.707098 0.707115
-0.074568 -0.086808 -0.046304 213 47 82 0.000000 -1.000000 0.000000
-0.288950 -0.319207 -0.296618 213 47 82 0.000000 1.000000 0.000000
-0.031624 -0.099677 -0.583976 213 47 82 0.000000 0.000000 -1.000000
-0.024726 -0.291245 -0.583976 213 47 82 0.000000 0.000000 -1.000000
-0.208070 -0.162377 -0.583976 213 47 82 0.000000 0.000000 -1.000000
-0.407878 -0.319207 -0.213240 213 47 82 0.000000 1.000000 0.000000
-0.572086 -0.309672 -0.302670 213 47 82 0.921509 0.000000 0.388358
-0.070355 -0.319207 -0.480346 213 47 82 0.000000 1.000000 0.000000
-0.416944 -0.086808 -0.338446 213 47 82 0.000000 1.000000 0.000000
-0.345232 -0.086808 -0.069575 213 47 82 0.000000 1.000000 0.000000
-0.452891 -0.319207 -0.137833 213 47 82 0.000000 1.000000 0.000000
-0.300388 -0.086808 -0.388690 213 47 82 0.000000 -1.000000 0.000000
-0.573211 -0.086808 -0.232190 213 47 82 0.000000 1.000000 0.000000
-0.129507 -0.319207 -0.049899 213 47 82 0.000000 1.000000 0.000000
-0.058923 -0.243648 -0.583976 213 47 82 0.000000 0.000000 -1.000000
-0.478436 -0.280418 -0.448459 213 47 82 0.753165 0.000000 0.657832
-0.521166 -0.171779 -0.309524 213 47 82 0.599710 -0.707100 0.374643
-0.188953 -0.277677 -0.583976 213 47 82 0.000000 0.000000 -1.000000
-0.031338 -0.086808 -0.038783 213 47 82 0.000000 -1.000000 0.000000
-0.062919 -0.228221 -0.583976 213 47 82 0.000000 0.000000 1.000000
-0.344184 -0.086808 -0.333047 213 47 82 0.000000 1.000000 0.000000
-0.298598 -0.319207 -0.306322 213 47 82 0.000000 1.000000 0.000000
-0.038690 -0.086808 -0.335869 213 47 82 0.000000 1.000000 0.000000
-0.245993 -0.086808 -0.166858 213 47 82 0.000000 1.000000 0.000000
-0.282007 -0.319207 -0.464542 213 47 82 0.000000 1.000000 0.000000
-0.445873 -0.314853 -0.485741 213 47 82 0.753165 0.000000 0.657832
-0.303242 -0.086808 -0.480700 213 47 82 0.000000 1.000000 0.000000
-0.137209 -0.241067 -0.583976 213 47 82 0.000000 0.000000 1.000000
-0.626021 -0.203929 -0.096934 213 47 82 0.704859 -0.707107 0.056337
-0.275833 -0.086808 -0.089349 213 47 82 0.000000 1.000000 0.000000
-0.385197 -0.086808 -0.433533 213 47 82 0.000000 1.000000 0.000000
-0.219762 -0.086808 -0.282654 213 47 82 0.000000 1.000000 0.000000
-0.594876 -0.086808 -0.089861 213 47 82 0.000000 1.000000 0.000000
-0.167721 -0.319207 -0.103044 213 47 82 0.000000 1.000000 0.000000
-0.584678 -0.086808 -0.269190 213 47 82 0.000000 1.000000 0.000000
-0.253958 -0.086808 -0.380356 213 47 82 0.000000 -1.000000 0.000000
-0.057466 -0.086808 -0.086282 213 47 82 0.000000 1.000000 0.000000
-0.519642 -0.254443 -0.393167 213 47 82 0.848110 0.000000 0.529821
-0.144463 -0.319207 -0.155023 213 47 82 0.000000 1.000000 0.000000
-0.056624 -0.086808 -0.354204 213 47 82 0.000000 -1.000000 0.000000
-0.297714 -0.319207 -0.515244 213 47 82 0.000000 1.000000 0.000000
-0.006400 -0.253772 -0.583976 213 47 82 0.000000 0.000000 -1.000000
-0.213173 -0.257165 -0.583976 213 47 82 0.000000 0.000000 1.000000
-0.313346 -0.255052 -0.583976 213 47 82 0.000000 0.000000 1.000000
-0.452310 -0.301980 -0.478371 213 47 82 0.753165 0.000000 0.657832
-0.392749 -0.124305 -0.408995 213 47 82 0.532588 -0.707098 0.465148
-0.160323 -0.086808 -0.286182 213 47 82 0.000000 1.000000 0.000000
-0.441816 -0.086808 0.007522 213 47 82 0.000000 -1.000000 0.000000
-0.044174 -0.319207 -0.488576 213 47 82 0.000000 1.000000 0.000000
-0.625845 -0.319207 -0.046174 213 47 82 0.000000 1.000000 0.000000
-0.165888 -0.086808 -0.243892 213 47 82 0.000000 -1.000000 0.000000
-0.476324 -0.319207 -0.333006 213 47 82 0.000000 1.000000 0.000000
-0.045486 -0.086808 -0.105597 213 47 82 0.000000 1.000000 0.000000
-0.132990 -0.301840 -0.583976 213 47 82 0.000000 0.000000 -1.000000
-0.276684 -0.319207 -0.575589 213 47 82 0.000000 1.000000 0.000000
-0.251987 -0.086808 -0.349533 213 47 82 0.000000 -1.000000 0.000000
-0.216900 -0.086808 -0.430973 213 47 82 0.000000 -1.000000 0.000000
-0.102881 -0.086808 -0.489857 213 47 82 0.000000 1.000000 0.000000
-0.405512 -0.086808 -0.285574 213 47 82 0.000000 1.000000 0.000000
-0.179935 -0.086808 -0.259559 213 47 82 0.000000 -1.000000 0.000000
-0.289136 -0.319207 -0.018880 213 47 82 0.000000 1.000000 0.000000
-0.400366 -0.086808 -0.056689 213 47 82 0.000000 -1.000000 0.000000
-0.563271 -0.207359 -0.304421 213 47 82 0.651610 -0.707101 0.274613
-0.249013 -0.319207 -0.083357 213 47 82 0.000000 1.000000 0.000000
-0.168180 -0.158335 -0.583976 213 47 82 0.000000 0.000000 -1.000000
-0.164814 -0.281029 -0.583976 213 47 82 0.000000 0.000000 1.000000
-0.228519 -0.086808 -0.187219 213 47 82 0.000000 -1.000000 0.000000
-0.023347 -0.086808 -0.261837 213 47 82 0.000000 -1.000000 0.000000
-0.599322 -0.319207 -0.124799 213 47 82 0.000000 1.000000 0.000000
-0.640356 -0.306622 -0.054079 213 47 82 0.996821 0.000000 0.079679
-0.117995 -0.086808 -0.052944 213 47 82 0.000000 1.000000 0.000000
-0.333595 -0.086808 -0.019545 213 47 82 0.000000 1.000000 0.000000
-0.280749 -0.086808 -0.519061 213 47 82 0.000000 1.000000 0.000000
-0.342417 -0.086808 -0.217282 213 47 82 0.000000 1.000000 0.000000
-0.000907 -0.086808 -0.285286 213 47 82 0.000000 -1.000000 0.000000
-0.125753 -0.189879 -0.559052 213 47 82 0.000000 -0.707098 0.707115
-0.436431 -0.128647 -0.363754 213 47 82 0.599695 -0.707107 0.374654
-0.249395 -0.270170 -0.583976 213 47 82 0.000000 0.000000 1.000000
-0.612395 -0.249494 -0.200961 213 47 82 0.971499 0.000000 0.237042
-0.570989 -0.189034 -0.238921 213 47 82 0.651610 -0.707101 0.274613
-0.144151 -0.086808 -0.387047 213 47 82 0.000000 1.000000 0.000000
-0.292998 -0.319207 -0.561997 213 47 82 0.000000 1.000000 0.000000
-0.017810 -0.086808 -0.222003 213 47 82 0.000000 -1.000000 0.000000
-0.229531 -0.139191 -0.583976 213 47 82 0.000000 0.000000 -1.000000
-0.539343 -0.086808 -0.067630 213 47 82 0.000000 1.000000 0.000000
-0.039999 -0.319207 -0.191280 213 47 82 0.000000 1.000000 0.000000
-0.586463 -0.163341 -0.082428 213 47 82 0.704859 -0.707107 0.056337
-0.457115 -0.117358 -0.309340 213 47 82 0.599695 -0.707107 0.374654
-0.347611 -0.086808 -0.141516 213 47 82 0.000000 1.000000 0.000000
-0.523810 -0.174484 -0.310397 213 47 82 0.599710 -0.707100 0.374643
-0.120360 -0.086808 -0.106792 213 47 82 0.000000 -1.000000 0.000000
-0.463582 -0.319207 -0.073905 213 47 82 0.000000 1.000000 0.000000
-0.362964 -0.086808 -0.026102 213 47 82 0.000000 1.000000 0.000000
-0.165420 -0.086808 -0.401333 213 47 82 0.000000 -1.000000 0.000000
-0.322975 -0.319207 -0.098418 213 47 82 0.000000 1.000000 0.000000
-0.398256 -0.086808 -0.189440 213 47 82 0.000000 1.000000 0.000000
-0.391034 -0.086808 -0.120540 213 47 82 0.000000 1.000000 0.000000
-0.451937 -0.139768 -0.359923 213 47 82 0.599695 -0.707107 0.374654
-0.118999 -0.086808 -0.338335 213 47 82 0.000000 1.000000 0.000000
-0.477898 -0.172475 -0.380099 213 47 82 0.599695 -0.707107 0.374654
-0.228880 -0.182575 -0.551748 213 47 82 0.000000 -0.707098 0.707115
-0.219582 -0.252233 -0.583976 213 47 82 0.000000 0.000000 -1.000000
-0.028760 -0.086808 -0.334874 213 47 82 0.000000 -1.000000 0.000000
-0.063479 -0.319207 -0.329952 213 47 82 0.000000 1.000000 0.000000
-0.584710 -0.158046 -0.037904 213 47 82 0.704857 -0.707109 0.056342
-0.338819 -0.086808 -0.111879 213 47 82 0.000000 -1.000000 0.000000
-0.302377 -0.226171 -0.583976 213 47 82 0.000000 0.000000 -1.000000
-0.570713 -0.156570 -0.126126 213 47 82 0.686955 -0.707106 0.167614
-0.187240 -0.086808 -0.532973 213 47 82 0.000000 1.000000 0.000000
-0.167133 -0.086808 -0.377919 213 47 82 0.000000 -1.000000 0.000000
-0.578634 -0.319207 -0.027603 213 47 82 0.000000 1.000000 0.000000
-0.018769 -0.086808 -0.189104 213 47 82 0.000000 1.000000 0.000000
-0.065902 -0.086808 -0.209637 213 47 82 0.000000 1.000000 0.000000
-0.116391 -0.319207 -0.162225 213 47 82 0.000000 1.000000 0.000000
-0.121637 -0.319207 -0.140455 213 47 82 0.000000 1.000000 0.000000
-0.327557 -0.086808 -0.352847 213 47 82 0.000000 -1.000000 0.000000
-0.264501 -0.319207 -0.473563 213 47 82 0.000000 1.000000 0.000000
-0.048301 -0.162639 -0.583976 213 47 82 0.000000 0.000000 -1.000000
-0.253758 -0.194721 -0.583976 213 47 82 0.000000 0.000000 -1.000000
-0.133494 -0.086808 -0.384901 213 47 82 0.000000 -1.000000 0.000000
-0.271498 -0.086808 -0.001149 213 47 82 0.000000 1.000000 0.000000
-0.260339 -0.086808 -0.195484 213 47 82 0.000000 1.000000 0.000000
-0.290807 -0.086808 -0.535164 213 47 82 0.000000 1.000000 0.000000
-0.420211 -0.086808 -0.462490 213 47 82 0.000000 1.000000 0.000000
-0.199850 -0.086808 -0.065661 213 47 82 0.000000 -1.000000 0.000000
-0.518327 -0.086808 -0.071119 213 47 82 0.000000 1.000000 0.000000
-0.282400 -0.204905 -0.583976 213 47 82 0.000000 0.000000 -1.000000
-0.150744 -0.213905 -0.583078 213 47 82 0.000000 -0.707098 0.707115
-0.132322 -0.319207 -0.543923 213 47 82 0.000000 1.000000 0.000000
-0.014620 -0.319207 -0.151443 213 47 82 0.000000 1.000000 0.000000
-0.268146 -0.086808 -0.337567 213 47 82 0.000000 -1.000000 0.000000
-0.460917 -0.086808 -0.110126 213 47 82 0.000000 1.000000 0.000000
-0.164650 -0.319207 -0.523736 213 47 82 0.000000 1.000000 0.000000
-0.551421 -0.142420 -0.145500 213 47 82 0.686962 -0.707101 0.167604
-0.406061 -0.319207 -0.123221 213 47 82 0.000000 1.000000 0.000000
-0.299738 -0.086808 -0.205145 213 47 82 0.000000 -1.000000 0.000000
-0.070778 -0.086808 -0.133699 213 47 82 0.000000 1.000000 0.000000
-0.180357 -0.086808 -0.226114 213 47 82 0.000000 -1.000000 0.000000
-0.125851 -0.086808 -0.073249 213 47 82 0.000000 1.000000 0.000000
-0.099612 -0.088466 -0.457641 213 47 82 0.000000 -0.707098 0.707115
-0.108691 -0.086808 -0.050127 213 47 82 0.000000 -1.000000 0.000000
-0.001623 -0.319207 -0.295168 213 47 82 0.000000 1.000000 0.000000
-0.033298 -0.319207 -0.118745 213 47 82 0.000000 1.000000 0.000000
-0.346029 -0.319207 -0.377313 213 47 82 0.000000 1.000000 0.000000
-0.088818 -0.086808 -0.216872 213 47 82 0.000000 -1.000000 0.000000
-0.350299 -0.086808 -0.002221 213 47 82 0.000000 1.000000 0.000000
-0.187057 -0.319207 -0.268100 213 47 82 0.000000 1.000000 0.000000
-0.221795 -0.319207 -0.428903 213 47 82 0.000000 1.000000 0.000000
-0.166182 -0.140642 -0.583976 213 47 82 0.000000 0.000000 -1.000000
-0.319137 -0.086808 -0.085401 213 47 82 0.000000 -1.000000 0.000000
-0.449321 -0.139613 -0.363817 213 47 82 0.599695 -0.707107 0.374654
-0.028864 -0.319207 -0.117918 213 47 82 0.000000 1.000000 0.000000
-0.322746 -0.086808 -0.350273 213 47 82 0.000000 1.000000 0.000000
-0.283724 -0.088245 -0.583976 213 47 82 0.000000 0.000000 -1.000000
-0.318491 -0.086808 -0.262499 213 47 82 0.000000 -1.000000 0.000000
-0.411880 -0.086808 -0.055171 213 47 82 0.000000 -1.000000 0.000000
-0.253693 -0.319207 -0.342426 213 47 82 0.000000 1.000000 0.000000
-0.004602 -0.086808 -0.140042 213 47 82 0.000000 -1.000000 0.000000
-0.337607 -0.086808 -0.177286 213 47 82 0.000000 -1.000000 0.000000
-0.564460 -0.316824 -0.320765 213 47 82 0.921509 0.000000 0.388358
-0.146034 -0.319207 -0.036430 213 47 82 0.000000 1.000000 0.000000
-0.364442 -0.312790 -0.559914 213 47 82 0.639109 0.000000 0.769116
-0.287788 -0.086808 -0.188419 213 47 82 0.000000 1.000000 0.000000
-0.178244 -0.086808 -0.349803 213 47 82 0.000000 -1.000000 0.000000
-0.508310 -0.319207 -0.266801 213 47 82 0.000000 1.000000 0.000000
-0.308690 -0.207354 -0.576527 213 47 82 0.000000 -0.707098 0.707115
-0.021354 -0.086808 -0.442734 213 47 82 0.000000 -1.000000 0.000000
-0.128784 -0.319207 -0.265274 213 47 82 0.000000 1.000000 0.000000
-0.473551 -0.086808 -0.010356 213 47 82 0.000000 1.000000 0.000000
-0.495140 -0.259944 -0.429335 213 47 82 0.753165 0.000000 0.657832
-0.273973 -0.086808 -0.127402 213 47 82 0.000000 -1.000000 0.000000
-0.156741 -0.086808 -0.144145 213 47 82 0.000000 1.000000 0.000000
-0.108906 -0.319207 -0.094857 213 47 82 0.000000 1.000000 0.000000
-0.339854 -0.086808 -0.367300 213 47 82 0.000000 1.000000 0.000000
-0.255283 -0.086808 -0.446907 213 47 82 0.000000 -1.000000 0.000000
-0.609822 -0.184708 -0.058355 213 47 82 0.704857 -0.707109 0.056342
-0.530014 -0.086808 -0.278069 213 47 82 0.000000 1.000000 0.000000
-0.059767 -0.086808 -0.162867 213 47 82 0.000000 -1.000000 0.000000
-0.306139 -0.086808 -0.546376 213 47 82 0.000000 1.000000 0.000000
-0.483956 -0.319207 -0.106124 213 47 82 0.000000 1.000000 0.000000
-0.101845 -0.086808 -0.545230 213 47 82 0.000000 1.000000 0.000000
-0.155363 -0.319207 -0.477013 213 47 82 0.000000 1.000000 0.000000
-0.362429 -0.319207 -0.071895 213 47 82 0.000000 1.000000 0.000000
-0.116688 -0.086808 -0.396173 213 47 82 0.000000 1.000000 0.000000
-0.104681 -0.086808 -0.034287 213 47 82 0.000000 1.000000 0.000000
-0.281204 -0.086808 -0.283280 213 47 82 0.000000 -1.000000 0.000000
-0.261457 -0.086808 -0.251226 213 47 82 0.000000 -1.000000 0.000000
-0.080262 -0.086808 -0.217316 213 47 82 0.000000 1.000000 0.000000
-0.000065 -0.319207 -0.515485 213 47 82 0.000000 1.000000 0.000000
-0.493270 -0.319207 -0.145236 213 47 82 0.000000 1.000000 0.000000
-0.425466 -0.281395 -0.509106 213 47 82 0.753165 0.000000 0.657832
-0.580877 -0.268744 -0.281811 213 47 82 0.921509 0.000000 0.388358
-0.136271 -0.305895 -0.583976 213 47 82 0.000000 0.000000 1.000000
-0.599787 -0.305438 -0.236942 213 47 82 0.921509 0.000000 0.388358
-0.585427 -0.086808 -0.221795 213 47 82 0.000000 1.000000 0.000000
-0.168483 -0.319207 -0.477361 213 47 82 0.000000 1.000000 0.000000
-0.472035 -0.101272 -0.247745 213 47 82 0.651612 -0.707100 0.274611
-0.210421 -0.319207 -0.434490 213 47 82 0.000000 1.000000 0.000000
-0.534138 -0.319207 -0.303885 213 47 82 0.000000 1.000000 0.000000
-0.163565 -0.319207 -0.011383 213 47 82 0.000000 1.000000 0.000000
-0.594732 -0.086808 -0.224738 213 47 82 0.000000 1.000000 0.000000
-0.467156 -0.150125 -0.355110 213 47 82 0.599695 -0.707107 0.374654
-0.560341 -0.319207 -0.049081 213 47 82 0.000000 1.000000 0.000000
-0.100380 -0.319207 -0.565084 213 47 82 0.000000 1.000000 0.000000
-0.612546 -0.199465 -0.135640 213 47 82 0.686955 -0.707106 0.167614
-0.067438 -0.298203 -0.583976 213 47 82 0.000000 0.000000 -1.000000
-0.161988 -0.086808 -0.478623 213 47 82 0.000000 1.000000 0.000000
-0.132520 -0.086808 0.006006 213 47 82 0.000000 1.000000 0.000000
-0.398007 -0.086808 -0.270311 213 47 82 0.000000 1.000000 0.000000
-0.569450 -0.262746 -0.308925 213 47 82 0.921509 0.000000 0.388358
-0.067671 -0.086808 -0.293765 213 47 82 0.000000 -1.000000 0.000000
-0.458028 -0.184231 -0.425351 213 47 82 0.532568 -0.707107 0.465158
-0.532707 -0.103312 -0.001551 213 47 82 0.704859 -0.707107 0.056337
-0.575460 -0.319207 -0.168321 213 47 82 0.000000 1.000000 0.000000
-0.068215 -0.086808 -0.394525 213 47 82 0.000000 -1.000000 0.000000
-0.642698 -0.298817 -0.024770 213 47 82 0.996821 0.000000 0.079679
-0.367398 -0.201740 -0.540474 213 47 82 0.451922 -0.707100 0.543852
-0.228127 -0.086808 -0.027774 213 47 82 0.000000 -1.000000 0.000000
-0.015468 -0.086808 -0.075250 213 47 82 0.000000 1.000000 0.000000
-0.026555 -0.086808 -0.233912 213 47 82 0.000000 1.000000 0.000000
-0.524321 -0.104636 -0.097174 213 47 82 0.686955 -0.707106 0.167614
-0.413359 -0.086808 -0.155130 213 47 82 0.000000 1.000000 0.000000
-0.063449 -0.086808 -0.057840 213 47 82 0.000000 1.000000 0.000000
-0.265794 -0.236057 -0.583976 213 47 82 0.000000 0.000000 -1.000000
-0.452370 -0.116895 -0.316062 213 47 82 0.599695 -0.707107 0.374654
-0.031147 -0.126465 -0.583976 213 47 82 0.000000 0.000000 -1.000000
-0.346097 -0.086808 -0.531236 213 47 82 0.000000 1.000000 0.000000
-0.207997 -0.314245 -0.583976 213 47 82 0.000000 0.000000 1.000000
-0.348024 -0.086808 -0.149644 213 47 82 0.000000 -1.000000 0.000000
-0.360634 -0.086808 -0.337257 213 47 82 0.000000 -1.000000 0.000000
-0.122603 -0.086808 -0.259629 213 47 82 0.000000 1.000000 0.000000
-0.255354 -0.086808 -0.016409 213 47 82 0.000000 -1.000000 0.000000
-0.035410 -0.086808 -0.489553 213 47 82 0.000000 1.000000 0.000000
-0.067549 -0.086808 -0.384735 213 47 82 0.000000 -1.000000 0.000000
-0.318510 -0.319207 -0.448380 213 47 82 0.000000 1.000000 0.000000
-0.231974 -0.086808 -0.387974 213 47 82 0.000000 -1.000000 0.000000
-0.361785 -0.086808 -0.457463 213 47 82 0.000000 1.000000 0.000000
-0.403504 -0.099443 -0.358887 213 47 82 0.532568 -0.707107 0.465158
-0.588642 -0.086808 -0.091685 213 47 82 0.000000 1.000000 0.000000
-0.437468 -0.099909 -0.307855 213 47 82 0.599695 -0.707107 0.374654
-0.192130 -0.309265 -0.583976 213 47 82 0.000000 0.000000 -1.000000
-0.082093 -0.319207 -0.528275 213 47 82 0.000000 1.000000 0.000000
-0.185173 -0.193044 -0.583976 213 47 82 0.000000 0.000000 -1.000000
-0.136884 -0.086808 -0.092147 213 47 82 0.000000 -1.000000 0.000000
-0.301021 -0.086808 -0.070007 213 47 82 0.000000 1.000000 0.000000
-0.153945 -0.167258 -0.583976 213 47 82 0.000000 0.000000 -1.000000
-0.467692 -0.265642 -0.460761 213 47 82 0.753165 0.000000 0.657832
-0.564454 -0.319207 -0.026411 213 47 82 0.000000 1.000000 0.000000
-0.179532 -0.319207 -0.402904 213 47 82 0.000000 1.000000 0.000000
-0.536757 -0.319207 -0.142009 213 47 82 0.000000 1.000000 0.000000
-0.461162 -0.086808 -0.175338 213 47 82 0.000000 1.000000 0.000000
-0.147980 -0.086808 -0.143321 213 47 82 0.000000 -1.000000 0.000000
-0.139398 -0.086808 -0.230546 213 47 82 0.000000 1.000000 0.000000
-0.237616 -0.319207 0.000629 213 47 82 0.000000 1.000000 0.000000
-0.403494 -0.233582 -0.527463 213 47 82 0.639109 0.000000 0.769116
-0.151530 -0.302653 -0.583976 213 47 82 0.000000 0.000000 1.000000
-0.460308 -0.151917 -0.369454 213 47 82 0.599695 -0.707107 0.374654
-0.128034 -0.319207 -0.185732 213 47 82 0.000000 1.000000 0.000000
-0.272929 -0.319207 -0.248699 213 47 82 0.000000 1.000000 0.000000
-0.183687 -0.319207 -0.451043 213 47 82 0.000000 1.000000 0.000000
-0.037857 -0.086808 -0.521838 213 47 82 0.000000 1.000000 0.000000
