ply
format ascii 1.0
element vertex 715
property float x
property float y
property float z
property uchar red
property uchar green
property uchar blue
property float nx
property float ny
property float nz
end_header
0.520658 -0.095320 -0.049139 22 65 175 0.427943 0.903806 0.000000
0.086407 -0.044932 -0.039539 22 65 175 0.000000 1.000000 0.000000
0.285351 -0.245239 -0.040084 22 65 175 0.000000 1.000000 0.000000
0.159796 -0.167271 -0.478095 22 65 175 -0.157655 0.017987 -0.987330
0.378820 -0.061434 -0.380389 22 65 175 0.052301 -0.947093 0.316668
0.320634 -0.045209 -0.086326 22 65 175 -0.063163 -0.998003 0.000000
0.371409 -0.245239 -0.389257 22 65 175 0.000000 1.000000 0.000000
0.518263 -0.094187 -0.047622 22 65 175 -0.427943 -0.903806 0.000000
0.277588 -0.239677 -0.497871 22 65 175 0.159720 0.000000 0.987162
0.505806 -0.088288 -0.430217 22 65 175 0.427943 0.903806 0.000000
0.568860 -0.162319 -0.303797 22 65 175 -1.000000 0.000000 0.000000
0.278867 -0.245239 -0.174435 22 65 175 0.000000 -1.000000 0.000000
0.568860 -0.217485 -0.145147 22 65 175 -1.000000 0.000000 0.000000
0.226960 -0.102823 -0.454184 22 65 175 0.097531 -0.790691 0.604397
0.439643 -0.245239 -0.200044 22 65 175 0.000000 -1.000000 0.000000
0.354918 -0.245239 -0.488231 22 65 175 0.000000 1.000000 0.000000
0.452691 -0.162455 -0.524776 22 65 175 -0.157655 0.017987 -0.987330
0.444851 -0.245239 -0.166423 22 65 175 0.000000 1.000000 0.000000
0.566440 -0.146967 -0.219507 22 65 175 -0.951717 -0.306976 0.000000
0.127721 -0.245239 -0.315156 22 65 175 0.000000 1.000000 0.000000
0.192013 -0.245239 -0.138114 22 65 175 0.000000 -1.000000 0.000000
0.531888 -0.100681 -0.394513 22 65 175 0.620875 0.783909 0.000000
0.102358 -0.175886 -0.469080 22 65 175 -0.157655 0.017987 -0.987330
0.549045 -0.123742 -0.258615 22 65 175 -0.970598 -0.240708 0.000000
0.464594 -0.071177 -0.142651 22 65 175 -0.310633 -0.950530 0.000000
0.568860 -0.166205 -0.283797 22 65 175 1.000000 0.000000 0.000000
0.284434 -0.044932 -0.139867 22 65 175 0.000000 1.000000 0.000000
0.467057 -0.245239 -0.283863 22 65 175 0.000000 1.000000 0.000000
0.518607 -0.094349 -0.355941 22 65 175 0.427943 0.903806 0.000000
0.088893 -0.208101 -0.467341 22 65 175 -0.159720 0.000000 -0.987162
0.389269 -0.206550 -0.533493 22 65 175 -0.878656 0.456223 0.140799
0.324522 -0.062628 -0.374988 22 65 175 -0.052301 0.947093 -0.316668
0.265306 -0.245239 -0.420889 22 65 175 0.000000 -1.000000 0.000000
0.127270 -0.245239 -0.344045 22 65 175 0.000000 1.000000 0.000000
0.383106 -0.050545 -0.263172 22 65 175 0.188383 0.982096 0.000000
0.288752 -0.153930 -0.475634 22 65 175 -0.157301 0.108407 -0.981583
0.327924 -0.045670 -0.264642 22 65 175 -0.063163 -0.998003 0.000000
0.556574 -0.245239 -0.087351 22 65 175 0.000000 -1.000000 0.000000
0.493176 -0.082309 -0.379419 22 65 175 -0.427943 -0.903806 0.000000
0.440738 -0.245239 -0.312480 22 65 175 0.000000 1.000000 0.000000
0.078893 -0.044932 -0.077923 22 65 175 0.000000 -1.000000 0.000000
0.568860 -0.162843 -0.190427 22 65 175 -1.000000 0.000000 0.000000
0.118456 -0.245239 -0.259639 22 65 175 0.000000 1.000000 0.000000
0.517453 -0.245239 -0.040236 22 65 175 0.000000 1.000000 0.000000
0.439241 -0.062891 -0.112281 22 65 175 0.310633 0.950530 0.000000
0.095173 -0.205623 -0.468357 22 65 175 0.159720 0.000000 0.987162
0.568860 -0.169978 -0.048757 22 65 175 1.000000 0.000000 0.000000
0.323499 -0.090596 -0.446142 22 65 175 -0.069958 0.898420 -0.433529
0.076122 -0.245239 -0.363634 22 65 175 0.000000 -1.000000 0.000000
0.336490 -0.074677 -0.413005 22 65 175 0.052301 -0.947093 0.316668
0.441630 -0.245239 -0.442311 22 65 175 0.000000 -1.000000 0.000000
0.360202 -0.047713 -0.038568 22 65 175 0.063163 0.998003 0.000000
0.198029 -0.177334 -0.484384 22 65 175 0.157655 -0.017987 0.987330
0.431728 -0.187463 -0.521884 22 65 175 0.157655 -0.017987 0.987330
0.408316 -0.055380 -0.317102 22 65 175 -0.188383 -0.982096 0.000000
0.318933 -0.245239 -0.119891 22 65 175 0.000000 1.000000 0.000000
0.568860 -0.165483 -0.018645 22 65 175 1.000000 0.000000 0.000000
0.346964 -0.245239 -0.415179 22 65 175 0.000000 1.000000 0.000000
0.411298 -0.245239 -0.016782 22 65 175 0.000000 1.000000 0.000000
0.170863 -0.245239 -0.384903 22 65 175 0.000000 1.000000 0.000000
0.348138 -0.226462 -0.528822 22 65 175 0.149382 0.329353 0.932315
0.277498 -0.245239 -0.025107 22 65 175 0.000000 -1.000000 0.000000
0.402823 -0.136810 -0.497626 22 65 175 0.157626 0.083316 0.983978
0.494762 -0.245239 -0.463564 22 65 175 0.000000 1.000000 0.000000
0.396494 -0.053113 -0.226810 22 65 175 0.188383 0.982096 0.000000
0.329671 -0.063061 -0.377134 22 65 175 0.052301 -0.947093 0.316668
0.492668 -0.249082 -0.532636 22 65 175 -0.132473 0.000000 -0.991187
0.326321 -0.149465 -0.481162 22 65 175 0.157293 -0.108389 0.981586
0.311854 -0.245239 -0.483211 22 65 175 0.000000 -1.000000 0.000000
0.272890 -0.052637 -0.322404 22 65 175 -0.032977 0.980549 -0.193482
0.224792 -0.075159 -0.395998 22 65 175 -0.052301 0.947093 -0.316668
0.568860 -0.170840 -0.286569 22 65 175 1.000000 0.000000 0.000000
0.088432 -0.048504 -0.267839 22 65 175 -0.031900 0.983321 -0.179058
0.531284 -0.101455 -0.501442 22 65 175 -0.100445 0.774310 -0.624784
0.367332 -0.237844 -0.513448 22 65 175 0.516716 -0.852137 -0.082871
0.485233 -0.245239 -0.354377 22 65 175 0.000000 1.000000 0.000000
0.367073 -0.048147 -0.160480 22 65 175 -0.063163 -0.998003 0.000000
0.084353 -0.245239 -0.427566 22 65 175 0.000000 1.000000 0.000000
0.310714 -0.192409 -0.526399 22 65 175 0.157433 0.101290 0.982321
0.473043 -0.245239 -0.107782 22 65 175 0.000000 -1.000000 0.000000
0.285430 -0.225786 -0.499140 22 65 175 0.159720 0.000000 0.987162
0.182309 -0.044932 -0.183376 22 65 175 0.000000 1.000000 0.000000
0.386065 -0.245239 -0.015247 22 65 175 0.000000 1.000000 0.000000
0.324890 -0.045478 -0.148284 22 65 175 0.063163 0.998003 0.000000
0.446138 -0.065145 -0.250267 22 65 175 -0.310633 -0.950530 0.000000
0.390379 -0.075117 -0.423220 22 65 175 0.052301 -0.947093 0.316668
0.568860 -0.180880 -0.328032 22 65 175 -1.000000 0.000000 0.000000
0.098880 -0.049519 -0.275271 22 65 175 0.031900 -0.983321 0.179058
0.568860 -0.214109 -0.274150 22 65 175 -1.000000 0.000000 0.000000
0.382774 -0.245239 -0.345622 22 65 175 0.000000 -1.000000 0.000000
0.559182 -0.244307 -0.033676 22 65 175 -1.000000 0.000000 0.000000
0.568860 -0.153949 -0.428452 22 65 175 1.000000 0.000000 0.000000
0.345036 -0.245239 -0.168672 22 65 175 0.000000 1.000000 0.000000
0.349367 -0.047027 -0.251582 22 65 175 -0.063163 -0.998003 0.000000
0.261004 -0.091573 -0.438081 22 65 175 0.069958 -0.898420 0.433529
0.417349 -0.245239 -0.152743 22 65 175 0.000000 -1.000000 0.000000
0.517433 -0.245239 -0.300610 22 65 175 0.000000 1.000000 0.000000
0.096661 -0.048660 -0.270163 22 65 175 -0.031900 0.983321 -0.179058
0.542926 -0.110770 -0.448894 22 65 175 0.840896 0.541197 0.000000
0.086508 -0.245239 -0.429280 22 65 175 0.000000 -1.000000 0.000000
0.182655 -0.044932 -0.126237 22 65 175 0.000000 1.000000 0.000000
0.568860 -0.194172 -0.453707 22 65 175 -1.000000 0.000000 0.000000
0.299452 -0.193984 -0.524431 22 65 175 0.157440 0.101349 0.982314
0.135102 -0.047454 -0.260379 22 65 175 0.011666 -0.997786 0.065481
0.568282 -0.235562 -0.226550 22 65 175 0.000000 -1.000000 0.000000
0.286017 -0.133366 -0.472925 22 65 175 -0.157301 0.108407 -0.981583
0.505910 -0.088338 -0.300274 22 65 175 0.427943 0.903806 0.000000
0.344770 -0.150666 -0.507329 22 65 175 0.157655 -0.017987 0.987330
0.291611 -0.044932 -0.109741 22 65 175 0.000000 1.000000 0.000000
0.208833 -0.118725 -0.464413 22 65 175 0.153488 -0.245792 0.957093
0.378543 -0.141831 -0.488687 22 65 175 -0.157293 0.108389 -0.981586
0.449235 -0.171439 -0.524388 22 65 175 0.157655 -0.017987 0.987330
0.226828 -0.245239 -0.110627 22 65 175 0.000000 1.000000 0.000000
0.184159 -0.164637 -0.481937 22 65 175 -0.157655 0.017987 -0.987330
0.545912 -0.115411 -0.268675 22 65 175 -0.840896 -0.541197 0.000000
0.382128 -0.245239 -0.190247 22 65 175 0.000000 -1.000000 0.000000
0.119291 -0.245239 -0.092650 22 65 175 0.000000 1.000000 0.000000
0.568860 -0.232707 -0.108110 22 65 175 -1.000000 0.000000 0.000000
0.506374 -0.245239 -0.214153 22 65 175 0.000000 1.000000 0.000000
0.476078 -0.074929 -0.169367 22 65 175 0.310633 0.950530 0.000000
0.175393 -0.044932 -0.110589 22 65 175 0.000000 1.000000 0.000000
0.292769 -0.184700 -0.499645 22 65 175 0.157655 -0.017987 0.987330
0.568860 -0.191704 -0.387851 22 65 175 1.000000 0.000000 0.000000
0.123227 -0.044932 -0.185133 22 65 175 0.000000 -1.000000 0.000000
0.328577 -0.050553 -0.321332 22 65 175 -0.032977 0.980549 -0.193482
0.346225 -0.241919 -0.508976 22 65 175 -0.159720 0.000000 -0.987162
0.279784 -0.240074 -0.498227 22 65 175 0.159720 0.000000 0.987162
0.180889 -0.245239 -0.198742 22 65 175 0.000000 -1.000000 0.000000
0.229526 -0.245239 -0.071984 22 65 175 0.000000 -1.000000 0.000000
0.147219 -0.245239 -0.154739 22 65 175 0.000000 1.000000 0.000000
0.335120 -0.245239 -0.155500 22 65 175 0.000000 1.000000 0.000000
0.401442 -0.172254 -0.500730 22 65 175 -0.986444 -0.043998 0.158092
0.284998 -0.245239 -0.110228 22 65 175 0.000000 1.000000 0.000000
0.263281 -0.245239 -0.232354 22 65 175 0.000000 -1.000000 0.000000
0.448752 -0.222084 -0.525234 22 65 175 0.157655 -0.017987 0.987330
0.389516 -0.245239 -0.491787 22 65 175 0.000000 -1.000000 0.000000
0.395651 -0.138363 -0.491046 22 65 175 0.157293 -0.108389 0.981586
0.568860 -0.176603 -0.390024 22 65 175 -1.000000 0.000000 0.000000
0.370755 -0.245239 -0.075335 22 65 175 0.000000 1.000000 0.000000
0.568860 -0.204231 -0.370648 22 65 175 -1.000000 0.000000 0.000000
0.280842 -0.044932 -0.124878 22 65 175 0.000000 1.000000 0.000000
0.568860 -0.157952 -0.011534 22 65 175 -1.000000 0.000000 0.000000
0.462487 -0.210358 -0.527213 22 65 175 -0.157655 0.017987 -0.987330
0.568860 -0.181636 -0.043471 22 65 175 1.000000 0.000000 0.000000
0.568860 -0.216075 -0.410786 22 65 175 1.000000 0.000000 0.000000
0.145969 -0.047870 -0.268655 22 65 175 -0.011666 0.997786 -0.065481
0.536369 -0.245239 -0.088712 22 65 175 0.000000 -1.000000 0.000000
0.101639 -0.245239 -0.291692 22 65 175 0.000000 -1.000000 0.000000
0.426388 -0.058847 -0.361547 22 65 175 -0.188383 -0.982096 0.000000
0.554761 -0.245239 -0.050521 22 65 175 0.000000 1.000000 0.000000
0.566129 -0.146004 -0.053773 22 65 175 0.951717 0.306976 0.000000
0.550484 -0.130353 -0.442942 22 65 175 -0.996297 0.085974 0.000000
0.144240 -0.044932 -0.128303 22 65 175 0.000000 -1.000000 0.000000
0.128030 -0.044932 -0.129335 22 65 175 0.000000 1.000000 0.000000
0.400269 -0.053836 -0.335141 22 65 175 0.188383 0.982096 0.000000
0.412485 -0.196777 -0.518981 22 65 175 0.157655 -0.017987 0.987330
0.253966 -0.245239 -0.054600 22 65 175 0.000000 -1.000000 0.000000
0.310108 -0.122014 -0.481488 22 65 175 0.153795 -0.233685 0.960072
0.135921 -0.152409 -0.474012 22 65 175 -0.157655 0.017987 -0.987330
0.359624 -0.127530 -0.490764 22 65 175 0.153784 -0.234014 0.959994
0.568860 -0.201203 -0.257678 22 65 175 -1.000000 0.000000 0.000000
0.265075 -0.245239 -0.332102 22 65 175 0.000000 -1.000000 0.000000
0.140167 -0.245239 -0.275016 22 65 175 0.000000 1.000000 0.000000
0.465513 -0.245239 -0.349122 22 65 175 0.000000 1.000000 0.000000
0.142105 -0.245239 -0.473079 22 65 175 0.000000 -1.000000 0.000000
0.185487 -0.044932 -0.144713 22 65 175 0.000000 1.000000 0.000000
0.293993 -0.068482 -0.387458 22 65 175 -0.052301 0.947093 -0.316668
0.376507 -0.245239 -0.057127 22 65 175 0.000000 1.000000 0.000000
0.483494 -0.077725 -0.036301 22 65 175 0.427943 0.903806 0.000000
0.376861 -0.051416 -0.333938 22 65 175 0.032977 -0.980549 0.193482
0.171402 -0.245239 -0.200098 22 65 175 0.000000 1.000000 0.000000
0.568860 -0.184542 -0.488662 22 65 175 -1.000000 0.000000 0.000000
0.561368 -0.142093 -0.218439 22 65 175 0.177983 0.984034 0.000000
0.285529 -0.198417 -0.498739 22 65 175 -0.157655 0.017987 -0.987330
0.146678 -0.236943 -0.476690 22 65 175 -0.159720 0.000000 -0.987162
0.340511 -0.111635 -0.481277 22 65 175 0.134300 -0.529756 0.837450
0.246049 -0.245239 -0.415347 22 65 175 0.000000 -1.000000 0.000000
0.428789 -0.059475 -0.040796 22 65 175 -0.310633 -0.950530 0.000000
0.473461 -0.183795 -0.528481 22 65 175 0.157655 -0.017987 0.987330
0.568860 -0.240369 -0.476229 22 65 175 1.000000 0.000000 0.000000
0.537517 -0.245239 -0.445765 22 65 175 0.000000 -1.000000 0.000000
0.279159 -0.240329 -0.475146 22 65 175 0.158142 0.036022 0.986759
0.444494 -0.245239 -0.506061 22 65 175 0.000000 1.000000 0.000000
0.538427 -0.105860 -0.079521 22 65 175 -0.620875 -0.783909 0.000000
0.506129 -0.088441 -0.341028 22 65 175 -0.427943 -0.903806 0.000000
0.461509 -0.070169 -0.024852 22 65 175 0.310633 0.950530 0.000000
0.192746 -0.245239 -0.049734 22 65 175 0.000000 -1.000000 0.000000
0.320138 -0.045177 -0.189184 22 65 175 0.063163 0.998003 0.000000
0.467005 -0.245239 -0.319708 22 65 175 0.000000 1.000000 0.000000
0.543645 -0.111888 -0.094774 22 65 175 0.840896 0.541197 0.000000
0.363482 -0.194223 -0.489664 22 65 175 -0.158128 0.036337 -0.986750
0.490264 -0.080929 -0.285073 22 65 175 0.427943 0.903806 0.000000
0.298501 -0.187958 -0.500620 22 65 175 -0.157655 0.017987 -0.987330
0.302398 -0.245239 -0.478866 22 65 175 0.000000 -1.000000 0.000000
0.568860 -0.208653 -0.415699 22 65 175 1.000000 0.000000 0.000000
0.263209 -0.245239 -0.055343 22 65 175 0.000000 -1.000000 0.000000
0.139976 -0.231601 -0.475606 22 65 175 -0.159720 0.000000 -0.987162
0.390835 -0.052027 -0.037804 22 65 175 0.188383 0.982096 0.000000
0.568133 -0.235562 -0.258075 22 65 175 0.000000 -1.000000 0.000000
0.383011 -0.050527 -0.178826 22 65 175 0.188383 0.982096 0.000000
0.186679 -0.245239 -0.401018 22 65 175 0.000000 1.000000 0.000000
0.147132 -0.245239 -0.351911 22 65 175 0.000000 1.000000 0.000000
0.250178 -0.245239 -0.131674 22 65 175 0.000000 1.000000 0.000000
0.223242 -0.063357 -0.360260 22 65 175 0.050779 -0.953238 0.297924
0.165221 -0.044932 -0.215156 22 65 175 0.000000 -1.000000 0.000000
0.568860 -0.226853 -0.425987 22 65 175 1.000000 0.000000 0.000000
0.453373 -0.245239 -0.084568 22 65 175 0.000000 1.000000 0.000000
0.367268 -0.164798 -0.489186 22 65 175 0.158113 -0.036337 0.986752
0.112750 -0.164113 -0.470526 22 65 175 0.157655 -0.017987 0.987330
0.115187 -0.044932 -0.049118 22 65 175 0.000000 1.000000 0.000000
0.083947 -0.245239 -0.077862 22 65 175 0.000000 -1.000000 0.000000
0.524406 -0.245239 -0.443974 22 65 175 0.000000 1.000000 0.000000
0.310379 -0.245239 -0.362637 22 65 175 0.000000 -1.000000 0.000000
0.446622 -0.245239 -0.424323 22 65 175 0.000000 1.000000 0.000000
0.282622 -0.079248 -0.415618 22 65 175 -0.068247 0.908070 -0.413221
0.142003 -0.045163 -0.224956 22 65 175 0.011278 -0.998177 0.059294
0.097515 -0.044932 -0.124179 22 65 175 0.000000 -1.000000 0.000000
0.553997 -0.141698 -0.465619 22 65 175 0.000000 1.000000 0.000000
0.483129 -0.245239 -0.267888 22 65 175 0.000000 1.000000 0.000000
0.549360 -0.125011 -0.488995 22 65 175 -0.970598 -0.240708 0.000000
0.389892 -0.243036 -0.516041 22 65 175 0.159720 0.000000 0.987162
0.311243 -0.144129 -0.478157 22 65 175 -0.157301 0.108407 -0.981583
0.266498 -0.245239 -0.114738 22 65 175 0.000000 -1.000000 0.000000
0.189638 -0.044932 -0.072532 22 65 175 0.000000 1.000000 0.000000
0.568860 -0.156136 -0.478543 22 65 175 1.000000 0.000000 0.000000
0.542419 -0.109984 -0.383440 22 65 175 -0.840896 -0.541197 0.000000
0.150117 -0.044932 -0.006355 22 65 175 0.000000 -1.000000 0.000000
0.312645 -0.236750 -0.503544 22 65 175 0.159720 0.000000 0.987162
0.405914 -0.054919 -0.238905 22 65 175 -0.188383 -0.982096 0.000000
0.122968 -0.245239 -0.058089 22 65 175 0.000000 1.000000 0.000000
0.492920 -0.245239 -0.117564 22 65 175 0.000000 1.000000 0.000000
0.164900 -0.245239 -0.089673 22 65 175 0.000000 -1.000000 0.000000
0.390074 -0.214552 -0.502559 22 65 175 -0.878738 0.456064 0.140799
0.469382 -0.245239 -0.309672 22 65 175 0.000000 -1.000000 0.000000
0.437635 -0.245239 -0.216324 22 65 175 0.000000 -1.000000 0.000000
0.386186 -0.245239 -0.231758 22 65 175 0.000000 -1.000000 0.000000
0.154753 -0.233411 -0.477997 22 65 175 0.159720 0.000000 0.987162
0.490811 -0.245239 -0.142717 22 65 175 0.000000 -1.000000 0.000000
0.246889 -0.245239 -0.491877 22 65 175 0.000000 1.000000 0.000000
0.074545 -0.245239 -0.199258 22 65 175 0.000000 1.000000 0.000000
0.521408 -0.095677 -0.411504 22 65 175 -0.427943 -0.903806 0.000000
0.183950 -0.044932 -0.181191 22 65 175 0.000000 1.000000 0.000000
0.077803 -0.245239 -0.013851 22 65 175 0.000000 1.000000 0.000000
0.421865 -0.245239 -0.137784 22 65 175 0.000000 1.000000 0.000000
0.462544 -0.245239 -0.289391 22 65 175 0.000000 -1.000000 0.000000
0.455949 -0.245239 -0.446894 22 65 175 0.000000 -1.000000 0.000000
0.099793 -0.245239 -0.230299 22 65 175 0.000000 -1.000000 0.000000
0.550514 -0.130004 -0.028734 22 65 175 -0.996297 0.085974 0.000000
0.114181 -0.245239 -0.209982 22 65 175 0.000000 1.000000 0.000000
0.452487 -0.245147 -0.526169 22 65 175 0.159720 0.000000 0.987162
0.072928 -0.245239 -0.278821 22 65 175 0.000000 -1.000000 0.000000
0.263738 -0.072871 -0.395586 22 65 175 0.052301 -0.947093 0.316668
0.538367 -0.120608 -0.517712 22 65 175 0.153795 -0.233685 0.960072
0.529856 -0.099676 -0.378374 22 65 175 0.427943 0.903806 0.000000
0.512039 -0.247344 -0.465411 22 65 175 0.000000 0.000000 1.000000
0.568860 -0.189817 -0.091102 22 65 175 1.000000 0.000000 0.000000
0.550603 -0.245239 -0.160066 22 65 175 0.000000 -1.000000 0.000000
0.299899 -0.151997 -0.477208 22 65 175 0.157301 -0.108407 0.981583
0.113887 -0.047551 -0.258076 22 65 175 -0.011666 0.997786 -0.065481
0.203535 -0.245239 -0.356151 22 65 175 0.000000 1.000000 0.000000
0.119214 -0.245239 -0.309801 22 65 175 0.000000 -1.000000 0.000000
0.088867 -0.060357 -0.327756 22 65 175 0.050779 -0.953238 0.297924
0.240890 -0.044932 -0.094843 22 65 175 0.000000 -1.000000 0.000000
0.080627 -0.183052 -0.465741 22 65 175 -0.157655 0.017987 -0.987330
0.118851 -0.045607 -0.228024 22 65 175 0.011278 -0.998177 0.059294
0.339698 -0.046415 -0.228637 22 65 175 0.063163 0.998003 0.000000
0.544956 -0.113925 -0.125746 22 65 175 0.840896 0.541197 0.000000
0.359667 -0.245239 -0.139826 22 65 175 0.000000 1.000000 0.000000
0.168115 -0.046955 -0.258647 22 65 175 -0.011666 0.997786 -0.065481
0.139888 -0.062316 -0.342722 22 65 175 0.050779 -0.953238 0.297924
0.186025 -0.047659 -0.272562 22 65 175 0.011666 -0.997786 0.065481
0.567594 -0.148472 -0.501380 22 65 175 0.000000 -1.000000 0.000000
0.136981 -0.245239 -0.152797 22 65 175 0.000000 1.000000 0.000000
0.330461 -0.245239 -0.511479 22 65 175 0.000000 1.000000 0.000000
0.258984 -0.044932 -0.120000 22 65 175 0.000000 -1.000000 0.000000
0.180141 -0.049772 -0.291139 22 65 175 0.031900 -0.983321 0.179058
0.550092 -0.245239 -0.458670 22 65 175 0.000000 -1.000000 0.000000
0.202320 -0.245239 -0.385553 22 65 175 0.000000 -1.000000 0.000000
0.566363 -0.146728 -0.279014 22 65 175 -0.951717 -0.306976 0.000000
0.404884 -0.141698 -0.506929 22 65 175 0.000000 -1.000000 0.000000
0.468305 -0.072389 -0.294749 22 65 175 0.310633 0.950530 0.000000
0.392002 -0.052251 -0.111873 22 65 175 0.188383 0.982096 0.000000
0.175568 -0.044932 -0.168679 22 65 175 0.000000 1.000000 0.000000
0.423218 -0.058239 -0.046153 22 65 175 0.188383 0.982096 0.000000
0.489890 -0.085952 -0.463368 22 65 175 -0.069958 0.898420 -0.433529
0.565656 -0.239661 -0.128065 22 65 175 -0.707107 0.707107 0.000000
0.383210 -0.245239 -0.173952 22 65 175 0.000000 -1.000000 0.000000
0.483981 -0.245239 -0.413753 22 65 175 0.000000 1.000000 0.000000
0.178161 -0.051523 -0.300404 22 65 175 -0.031900 0.983321 -0.179058
0.182850 -0.044932 -0.097437 22 65 175 0.000000 -1.000000 0.000000
0.426235 -0.245239 -0.367761 22 65 175 0.000000 -1.000000 0.000000
0.139668 -0.063165 -0.345401 22 65 175 0.050779 -0.953238 0.297924
0.421291 -0.245239 -0.232909 22 65 175 0.000000 -1.000000 0.000000
0.477259 -0.076897 -0.442563 22 65 175 -0.069958 0.898420 -0.433529
0.440832 -0.063411 -0.031265 22 65 175 -0.310633 -0.950530 0.000000
0.375465 -0.056962 -0.361807 22 65 175 -0.032977 0.980549 -0.193482
0.139615 -0.245239 -0.226490 22 65 175 0.000000 1.000000 0.000000
0.093633 -0.044932 -0.102244 22 65 175 0.000000 1.000000 0.000000
0.106818 -0.245239 -0.393505 22 65 175 0.000000 -1.000000 0.000000
0.566081 -0.238704 -0.065760 22 65 175 -0.965791 0.259321 0.000000
0.207248 -0.190772 -0.486100 22 65 175 0.157655 -0.017987 0.987330
0.288108 -0.245239 -0.273816 22 65 175 0.000000 -1.000000 0.000000
0.456663 -0.245239 -0.048410 22 65 175 0.000000 -1.000000 0.000000
0.306092 -0.157302 -0.501273 22 65 175 -0.157655 0.017987 -0.987330
0.513880 -0.092112 -0.147838 22 65 175 0.427943 0.903806 0.000000
0.494866 -0.245239 -0.168650 22 65 175 0.000000 1.000000 0.000000
0.450171 -0.245239 -0.380067 22 65 175 0.000000 -1.000000 0.000000
0.188332 -0.219023 -0.483429 22 65 175 0.159720 0.000000 0.987162
0.340825 -0.245239 -0.246895 22 65 175 0.000000 -1.000000 0.000000
0.400618 -0.149796 -0.499594 22 65 175 0.986437 0.044407 -0.158021
0.287168 -0.245239 -0.247546 22 65 175 0.000000 1.000000 0.000000
0.547906 -0.119150 -0.244672 22 65 175 -0.970598 -0.240708 0.000000
0.432619 -0.210845 -0.522452 22 65 175 -0.157655 0.017987 -0.987330
0.533429 -0.245239 -0.329996 22 65 175 0.000000 -1.000000 0.000000
0.273862 -0.171619 -0.482598 22 65 175 0.987397 0.000020 -0.158261
0.525732 -0.097724 -0.351582 22 65 175 0.427943 0.903806 0.000000
0.414430 -0.245239 -0.078673 22 65 175 0.000000 -1.000000 0.000000
0.528623 -0.245239 -0.248418 22 65 175 0.000000 -1.000000 0.000000
0.535846 -0.245239 -0.068654 22 65 175 0.000000 -1.000000 0.000000
0.364509 -0.245239 -0.198000 22 65 175 0.000000 1.000000 0.000000
0.408145 -0.245239 -0.513968 22 65 175 0.000000 -1.000000 0.000000
0.318531 -0.068960 -0.392940 22 65 175 0.052301 -0.947093 0.316668
0.393505 -0.245239 -0.060530 22 65 175 0.000000 -1.000000 0.000000
0.389190 -0.051712 -0.306941 22 65 175 -0.188383 -0.982096 0.000000
0.119583 -0.045038 -0.218586 22 65 175 -0.011278 0.998177 -0.059294
0.463351 -0.070771 -0.207377 22 65 175 -0.310633 -0.950530 0.000000
0.133414 -0.058477 -0.328230 22 65 175 0.032977 -0.980549 0.193482
0.450677 -0.245239 -0.052273 22 65 175 0.000000 -1.000000 0.000000
0.456514 -0.068536 -0.088903 22 65 175 -0.310633 -0.950530 0.000000
0.202925 -0.051603 -0.305237 22 65 175 -0.032977 0.980549 -0.193482
0.230764 -0.245239 -0.271699 22 65 175 0.000000 -1.000000 0.000000
0.365171 -0.141698 -0.499802 22 65 175 0.000000 -1.000000 0.000000
0.509317 -0.245239 -0.058260 22 65 175 0.000000 -1.000000 0.000000
0.321652 -0.245239 -0.012219 22 65 175 0.000000 1.000000 0.000000
0.471599 -0.245239 -0.471663 22 65 175 0.000000 1.000000 0.000000
0.104365 -0.245239 -0.177868 22 65 175 0.000000 -1.000000 0.000000
0.381432 -0.245239 -0.295138 22 65 175 0.000000 1.000000 0.000000
0.446891 -0.245239 -0.399482 22 65 175 0.000000 1.000000 0.000000
0.237883 -0.149672 -0.490244 22 65 175 0.157655 -0.017987 0.987330
0.175909 -0.195175 -0.481176 22 65 175 0.157655 -0.017987 0.987330
0.411217 -0.245239 -0.345214 22 65 175 0.000000 1.000000 0.000000
0.284237 -0.245239 -0.372828 22 65 175 0.000000 -1.000000 0.000000
0.546077 -0.245239 -0.356562 22 65 175 0.000000 1.000000 0.000000
0.400566 -0.152008 -0.500541 22 65 175 0.986437 0.044407 -0.158021
0.144064 -0.245239 -0.444534 22 65 175 0.000000 1.000000 0.000000
0.274884 -0.055522 -0.337369 22 65 175 -0.032977 0.980549 -0.193482
0.100457 -0.047236 -0.250875 22 65 175 -0.011666 0.997786 -0.065481
0.442073 -0.142337 -0.516078 22 65 175 0.080871 -0.858515 0.506371
0.396078 -0.177733 -0.534030 22 65 175 -0.981521 0.109093 0.157212
0.566313 -0.237840 -0.469314 22 65 175 0.965791 -0.259321 0.000000
0.152908 -0.245239 -0.410063 22 65 175 0.000000 1.000000 0.000000
0.568860 -0.150939 -0.101790 22 65 175 1.000000 0.000000 0.000000
0.422015 -0.141698 -0.506276 22 65 175 0.000000 -1.000000 0.000000
0.170585 -0.245239 -0.117002 22 65 175 0.000000 1.000000 0.000000
0.485187 -0.078526 -0.232124 22 65 175 -0.427943 -0.903806 0.000000
0.320493 -0.164841 -0.481693 22 65 175 0.158113 -0.036337 0.986752
0.235741 -0.245239 -0.276376 22 65 175 0.000000 1.000000 0.000000
0.437329 -0.245239 -0.139725 22 65 175 0.000000 -1.000000 0.000000
0.149034 -0.045988 -0.240175 22 65 175 -0.011278 0.998177 -0.059294
0.244460 -0.245239 -0.010902 22 65 175 0.000000 -1.000000 0.000000
0.568860 -0.162598 -0.427843 22 65 175 -1.000000 0.000000 0.000000
0.568860 -0.150080 -0.389180 22 65 175 1.000000 0.000000 0.000000
0.549781 -0.126707 -0.427059 22 65 175 0.970500 0.241103 0.000000
0.564655 -0.144038 -0.497853 22 65 175 0.782684 0.622420 0.000000
0.087993 -0.245239 -0.376412 22 65 175 0.000000 1.000000 0.000000
0.068287 -0.245239 -0.076408 22 65 175 0.000000 1.000000 0.000000
0.565932 -0.145644 -0.209365 22 65 175 -0.782684 -0.622420 0.000000
0.406634 -0.245239 -0.210854 22 65 175 0.000000 1.000000 0.000000
0.278833 -0.142788 -0.490772 22 65 175 -0.081184 0.857298 -0.508378
0.345528 -0.229798 -0.527226 22 65 175 0.149386 0.329844 0.932141
0.277889 -0.245239 -0.264774 22 65 175 0.000000 1.000000 0.000000
0.248842 -0.245239 -0.443051 22 65 175 0.000000 -1.000000 0.000000
0.160935 -0.106370 -0.447993 22 65 175 -0.100445 0.774310 -0.624784
0.458715 -0.245239 -0.304020 22 65 175 0.000000 1.000000 0.000000
0.448964 -0.245239 -0.253940 22 65 175 0.000000 1.000000 0.000000
0.389336 -0.245239 -0.504740 22 65 175 0.000000 1.000000 0.000000
0.326666 -0.045590 -0.263982 22 65 175 -0.063163 -0.998003 0.000000
0.494614 -0.082990 -0.240133 22 65 175 0.427943 0.903806 0.000000
0.087778 -0.044932 -0.149823 22 65 175 0.000000 -1.000000 0.000000
0.521126 -0.226229 -0.536440 22 65 175 0.132473 0.000000 0.991187
0.171830 -0.245239 -0.088589 22 65 175 0.000000 -1.000000 0.000000
0.122726 -0.245239 -0.280620 22 65 175 0.000000 1.000000 0.000000
0.140403 -0.048672 -0.278024 22 65 175 0.031900 -0.983321 0.179058
0.065388 -0.044932 -0.049203 22 65 175 0.000000 1.000000 0.000000
0.087687 -0.061007 -0.329636 22 65 175 -0.050779 0.953238 -0.297924
0.568860 -0.154934 -0.426552 22 65 175 1.000000 0.000000 0.000000
0.381244 -0.209954 -0.535892 22 65 175 0.157440 0.101349 0.982314
0.190885 -0.046162 -0.250618 22 65 175 -0.011666 0.997786 -0.065481
0.568860 -0.195977 -0.410068 22 65 175 -1.000000 0.000000 0.000000
0.500987 -0.121838 -0.512023 22 65 175 0.153795 -0.233685 0.960072
0.568860 -0.218571 -0.332866 22 65 175 -1.000000 0.000000 0.000000
0.533824 -0.102215 -0.180746 22 65 175 0.620875 0.783909 0.000000
0.553413 -0.141698 -0.296275 22 65 175 0.000000 1.000000 0.000000
0.230780 -0.191031 -0.489862 22 65 175 -0.157655 0.017987 -0.987330
0.407444 -0.154721 -0.517411 22 65 175 0.157655 -0.017987 0.987330
0.285435 -0.235134 -0.499141 22 65 175 -0.159720 0.000000 -0.987162
0.183375 -0.048041 -0.277918 22 65 175 -0.011666 0.997786 -0.065481
0.392490 -0.245239 -0.178160 22 65 175 0.000000 -1.000000 0.000000
0.071302 -0.245239 -0.283077 22 65 175 0.000000 1.000000 0.000000
0.568860 -0.176682 -0.282617 22 65 175 -1.000000 0.000000 0.000000
0.114005 -0.245239 -0.105561 22 65 175 0.000000 -1.000000 0.000000
0.307341 -0.245239 -0.059764 22 65 175 0.000000 -1.000000 0.000000
0.419477 -0.245239 -0.324761 22 65 175 0.000000 -1.000000 0.000000
0.357076 -0.202859 -0.510245 22 65 175 -0.157655 0.017987 -0.987330
0.385832 -0.245239 -0.462199 22 65 175 0.000000 -1.000000 0.000000
0.396137 -0.123945 -0.500145 22 65 175 0.973337 0.168093 -0.156076
0.422478 -0.058097 -0.213200 22 65 175 -0.188383 -0.982096 0.000000
0.549387 -0.125119 -0.178013 22 65 175 -0.970598 -0.240708 0.000000
0.396762 -0.218130 -0.516860 22 65 175 -0.157655 0.017987 -0.987330
0.226440 -0.226993 -0.489595 22 65 175 0.159720 0.000000 0.987162
0.439336 -0.245239 -0.336123 22 65 175 0.000000 1.000000 0.000000
0.113738 -0.204343 -0.471361 22 65 175 -0.159720 0.000000 -0.987162
0.500422 -0.098131 -0.490307 22 65 175 0.069958 -0.898420 0.433529
0.323286 -0.245239 -0.349378 22 65 175 0.000000 1.000000 0.000000
0.466769 -0.245239 -0.238639 22 65 175 0.000000 1.000000 0.000000
0.407115 -0.245239 -0.202202 22 65 175 0.000000 -1.000000 0.000000
0.512101 -0.091269 -0.127084 22 65 175 -0.427943 -0.903806 0.000000
0.488554 -0.080120 -0.289670 22 65 175 -0.427943 -0.903806 0.000000
0.531732 -0.245239 -0.244065 22 65 175 0.000000 1.000000 0.000000
0.281921 -0.208257 -0.476759 22 65 175 -0.158142 -0.036022 -0.986759
0.458263 -0.245239 -0.072317 22 65 175 0.000000 1.000000 0.000000
0.280487 -0.044932 -0.220068 22 65 175 0.000000 -1.000000 0.000000
0.467848 -0.130230 -0.508599 22 65 175 0.157626 0.083316 0.983978
0.402406 -0.245239 -0.156658 22 65 175 0.000000 1.000000 0.000000
0.277984 -0.232680 -0.515026 22 65 175 -0.142794 -0.430664 -0.891144
0.568860 -0.151281 -0.331887 22 65 175 1.000000 0.000000 0.000000
0.293090 -0.044932 -0.130986 22 65 175 0.000000 -1.000000 0.000000
0.531868 -0.100665 -0.212471 22 65 175 0.620875 0.783909 0.000000
0.301209 -0.156771 -0.477945 22 65 175 -0.157293 0.108389 -0.981586
0.466549 -0.071815 -0.004110 22 65 175 0.310633 0.950530 0.000000
0.365841 -0.237814 -0.523058 22 65 175 -0.516716 0.852137 0.082871
0.322406 -0.228698 -0.505123 22 65 175 0.159720 0.000000 0.987162
0.238634 -0.044932 -0.190548 22 65 175 0.000000 1.000000 0.000000
0.484436 -0.078170 -0.122575 22 65 175 0.427943 0.903806 0.000000
0.566784 -0.236086 -0.431102 22 65 175 0.965791 -0.259321 0.000000
0.472952 -0.073907 -0.430679 22 65 175 0.310633 0.950530 0.000000
0.278680 -0.097232 -0.466044 22 65 175 0.155685 -0.180041 0.971261
0.493306 -0.082371 -0.350931 22 65 175 0.427943 0.903806 0.000000
0.314862 -0.046293 -0.274700 22 65 175 0.011666 -0.997786 0.065481
0.568860 -0.189534 -0.256541 22 65 175 -1.000000 0.000000 0.000000
0.196158 -0.063285 -0.355412 22 65 175 0.050779 -0.953238 0.297924
0.107619 -0.180451 -0.470003 22 65 175 0.157655 -0.017987 0.987330
0.551126 -0.141698 -0.168298 22 65 175 0.000000 -1.000000 0.000000
0.321943 -0.047993 -0.301869 22 65 175 0.011666 -0.997786 0.065481
0.382410 -0.245239 -0.452336 22 65 175 0.000000 -1.000000 0.000000
0.264421 -0.044932 -0.219140 22 65 175 0.000000 1.000000 0.000000
0.550402 -0.131301 -0.400602 22 65 175 0.996297 -0.085974 0.000000
0.233208 -0.044932 -0.215806 22 65 175 0.000000 1.000000 0.000000
0.540250 -0.188817 -0.538995 22 65 175 -0.132473 0.000000 -0.991187
0.475566 -0.074762 -0.289288 22 65 175 -0.310633 -0.950530 0.000000
0.502764 -0.086848 -0.298092 22 65 175 0.427943 0.903806 0.000000
0.130391 -0.245239 -0.202512 22 65 175 0.000000 -1.000000 0.000000
0.373317 -0.048666 -0.040390 22 65 175 0.188383 0.982096 0.000000
0.120046 -0.245239 -0.370241 22 65 175 0.000000 1.000000 0.000000
0.086005 -0.067631 -0.350545 22 65 175 -0.050779 0.953238 -0.297924
0.542152 -0.109569 -0.265187 22 65 175 -0.840896 -0.541197 0.000000
0.550176 -0.133924 -0.259662 22 65 175 -0.996297 0.085974 0.000000
0.175276 -0.044932 -0.151576 22 65 175 0.000000 1.000000 0.000000
0.354472 -0.245239 -0.508679 22 65 175 0.000000 -1.000000 0.000000
0.447945 -0.245239 -0.329790 22 65 175 0.000000 1.000000 0.000000
0.356071 -0.157041 -0.509249 22 65 175 -0.157655 0.017987 -0.987330
0.231229 -0.057492 -0.339906 22 65 175 -0.032977 0.980549 -0.193482
0.227706 -0.227076 -0.489800 22 65 175 0.159720 0.000000 0.987162
0.275264 -0.245239 -0.178953 22 65 175 0.000000 1.000000 0.000000
0.093355 -0.141698 -0.455531 22 65 175 0.000000 -1.000000 0.000000
0.275208 -0.245239 -0.164162 22 65 175 0.000000 1.000000 0.000000
0.295195 -0.231369 -0.500720 22 65 175 0.159720 0.000000 0.987162
0.443033 -0.064131 -0.050960 22 65 175 -0.310633 -0.950530 0.000000
0.373199 -0.048644 -0.306538 22 65 175 -0.188383 -0.982096 0.000000
0.531325 -0.100371 -0.248186 22 65 175 0.427943 0.903806 0.000000
0.315386 -0.089841 -0.443267 22 65 175 -0.069958 0.898420 -0.433529
0.326945 -0.091251 -0.448054 22 65 175 -0.069958 0.898420 -0.433529
0.562138 -0.142318 -0.033098 22 65 175 -0.513123 -0.858315 0.000000
0.518743 -0.094414 -0.067392 22 65 175 -0.427943 -0.903806 0.000000
0.145938 -0.172134 -0.475970 22 65 175 -0.157655 0.017987 -0.987330
0.142461 -0.044932 -0.201889 22 65 175 0.000000 -1.000000 0.000000
0.568860 -0.194183 -0.329336 22 65 175 1.000000 0.000000 0.000000
0.288176 -0.245239 -0.272599 22 65 175 0.000000 -1.000000 0.000000
0.515475 -0.245239 -0.460278 22 65 175 0.000000 1.000000 0.000000
0.546372 -0.116125 -0.055852 22 65 175 -0.840896 -0.541197 0.000000
0.550323 -0.132215 -0.083615 22 65 175 0.996297 -0.085974 0.000000
0.126734 -0.182752 -0.473098 22 65 175 0.157655 -0.017987 0.987330
0.396399 -0.245239 -0.018132 22 65 175 0.000000 1.000000 0.000000
0.224488 -0.245239 -0.092581 22 65 175 0.000000 -1.000000 0.000000
0.160546 -0.245239 -0.272951 22 65 175 0.000000 1.000000 0.000000
0.121055 -0.141654 -0.452054 22 65 175 0.157625 0.087515 0.983613
0.427397 -0.108891 -0.493459 22 65 175 -0.132563 0.550020 -0.824564
0.534994 -0.103142 -0.030500 22 65 175 0.620875 0.783909 0.000000
0.177776 -0.245239 -0.009173 22 65 175 0.000000 1.000000 0.000000
0.375616 -0.230932 -0.510668 22 65 175 -0.660623 0.743223 0.105812
0.568860 -0.183446 -0.287800 22 65 175 1.000000 0.000000 0.000000
0.333593 -0.245239 -0.055239 22 65 175 0.000000 -1.000000 0.000000
0.352706 -0.047238 -0.285099 22 65 175 0.063163 0.998003 0.000000
0.386915 -0.245239 -0.442950 22 65 175 0.000000 -1.000000 0.000000
0.176138 -0.164097 0.478765 60 147 195 -0.157658 0.017989 0.987330
0.272545 -0.145053 0.488937 60 147 195 0.987360 0.001297 0.158488
0.319331 -0.192183 0.525920 60 147 195 -0.157433 -0.101290 0.982321
0.317163 -0.055476 0.342461 60 147 195 0.032977 -0.980551 -0.193474
0.559182 -0.243748 0.168752 60 147 195 1.000000 0.000000 0.000000
0.180902 -0.044932 0.005105 60 147 195 0.000000 -1.000000 0.000000
0.375049 -0.245239 0.146423 60 147 195 0.000000 -1.000000 0.000000
0.374645 -0.048921 0.221865 60 147 195 -0.188383 -0.982096 0.000000
0.104878 -0.071711 0.363999 60 147 195 -0.052301 0.947093 0.316668
0.568860 -0.192579 0.113670 60 147 195 1.000000 0.000000 0.000000
0.538920 -0.106251 0.246140 60 147 195 0.620875 0.783909 0.000000
0.119745 -0.245239 0.282485 60 147 195 0.000000 1.000000 0.000000
0.359246 -0.107407 0.479280 60 147 195 -0.100445 0.774310 0.624784
0.567355 -0.235562 0.212907 60 147 195 0.000000 1.000000 0.000000
0.507321 -0.245239 0.216287 60 147 195 0.000000 1.000000 0.000000
0.456771 -0.245239 0.062429 60 147 195 0.000000 1.000000 0.000000
0.501535 -0.093021 0.478017 60 147 195 0.069959 -0.898419 -0.433530
0.363212 -0.245239 0.038736 60 147 195 0.000000 -1.000000 0.000000
0.144822 -0.044962 0.220223 60 147 195 -0.011279 0.998177 0.059296
0.095795 -0.245239 0.290615 60 147 195 0.000000 1.000000 0.000000
0.550275 -0.132768 0.236610 60 147 195 -0.996297 0.085974 0.000000
0.371305 -0.141698 0.496079 60 147 195 0.000000 1.000000 0.000000
0.251822 -0.076686 0.403020 60 147 195 -0.068250 0.908062 0.413238
0.384169 -0.050749 0.285638 60 147 195 -0.188383 -0.982096 0.000000
0.465701 -0.071538 0.085279 60 147 195 -0.310633 -0.950530 0.000000
0.374530 -0.245239 0.081685 60 147 195 0.000000 -1.000000 0.000000
0.471670 -0.073489 0.075705 60 147 195 0.310633 0.950530 0.000000
0.483501 -0.077728 0.166095 60 147 195 -0.427943 -0.903806 0.000000
0.294724 -0.161645 0.475561 60 147 195 -0.157307 0.108306 0.981593
0.228426 -0.072141 0.385690 60 147 195 0.052301 -0.947093 -0.316668
0.073092 -0.245239 0.180873 60 147 195 0.000000 -1.000000 0.000000
0.531214 -0.167079 0.535518 60 147 195 -0.157658 0.017989 0.987330
0.368932 -0.236337 0.510770 60 147 195 0.159723 0.000000 -0.987162
0.241223 -0.044932 0.013199 60 147 195 0.000000 1.000000 0.000000
0.193498 -0.245239 0.142804 60 147 195 0.000000 -1.000000 0.000000
0.517521 -0.245239 0.458035 60 147 195 0.000000 1.000000 0.000000
0.177163 -0.245239 0.256252 60 147 195 0.000000 1.000000 0.000000
0.568860 -0.176263 0.253341 60 147 195 1.000000 0.000000 0.000000
0.068435 -0.245239 0.374411 60 147 195 0.000000 -1.000000 0.000000
0.550086 -0.134966 0.316480 60 147 195 0.996297 -0.085974 0.000000
0.108396 -0.053756 0.298159 60 147 195 0.032977 -0.980551 -0.193474
0.557512 -0.141698 0.286850 60 147 195 0.000000 1.000000 0.000000
0.266988 -0.044932 0.147034 60 147 195 0.000000 -1.000000 0.000000
0.306138 -0.231714 0.500609 60 147 195 -0.159723 0.000000 0.987162
0.516258 -0.093238 0.417918 60 147 195 -0.427943 -0.903806 0.000000
0.226291 -0.245239 0.235130 60 147 195 0.000000 -1.000000 0.000000
0.411970 -0.097103 0.472023 60 147 195 -0.069959 0.898419 0.433530
0.205037 -0.198682 0.484010 60 147 195 0.157658 -0.017989 -0.987330
0.233694 -0.245239 0.421293 60 147 195 0.000000 -1.000000 0.000000
0.227482 -0.191993 0.487472 60 147 195 0.157658 -0.017989 -0.987330
0.205131 -0.245239 0.037433 60 147 195 0.000000 -1.000000 0.000000
0.355104 -0.048442 0.312743 60 147 195 0.011666 -0.997785 -0.065484
0.277885 -0.245239 0.215161 60 147 195 0.000000 1.000000 0.000000
0.568860 -0.186383 0.482504 60 147 195 1.000000 0.000000 0.000000
0.395742 -0.245239 0.096452 60 147 195 0.000000 1.000000 0.000000
0.165347 -0.049642 0.285907 60 147 195 -0.031900 0.983321 0.179058
0.451673 -0.075682 0.433151 60 147 195 -0.052301 0.947093 0.316668
0.216763 -0.044932 0.098304 60 147 195 0.000000 1.000000 0.000000
0.348149 -0.182032 0.506559 60 147 195 0.157658 -0.017989 -0.987330
0.477272 -0.075319 0.282985 60 147 195 -0.310633 -0.950530 0.000000
0.214661 -0.245239 0.306629 60 147 195 0.000000 1.000000 0.000000
0.499152 -0.245239 0.390133 60 147 195 0.000000 1.000000 0.000000
0.119360 -0.044932 0.074922 60 147 195 0.000000 -1.000000 0.000000
0.323851 -0.245239 0.177708 60 147 195 0.000000 -1.000000 0.000000
0.365807 -0.052447 0.335398 60 147 195 -0.032977 0.980551 0.193474
0.238135 -0.061331 0.354437 60 147 195 0.050777 -0.953242 -0.297910
0.460144 -0.069723 0.148549 60 147 195 0.310633 0.950530 0.000000
0.080877 -0.044932 0.111122 60 147 195 0.000000 1.000000 0.000000
0.568860 -0.161864 0.058656 60 147 195 -1.000000 0.000000 0.000000
0.526588 -0.098129 0.016468 60 147 195 -0.427943 -0.903806 0.000000
0.332848 -0.147171 0.480072 60 147 195 -0.157320 0.108480 0.981571
0.550360 -0.131788 0.415975 60 147 195 0.996297 -0.085974 0.000000
0.090552 -0.044932 0.019002 60 147 195 0.000000 -1.000000 0.000000
0.473545 -0.180709 0.526558 60 147 195 0.157658 -0.017989 -0.987330
0.334944 -0.245239 0.209282 60 147 195 0.000000 1.000000 0.000000
0.422344 -0.245239 0.453331 60 147 195 0.000000 -1.000000 0.000000
0.251237 -0.245239 0.167402 60 147 195 0.000000 -1.000000 0.000000
0.344177 -0.245239 0.026541 60 147 195 0.000000 1.000000 0.000000
0.132458 -0.045509 0.227089 60 147 195 0.011279 -0.998177 -0.059296
0.544379 -0.245239 0.362299 60 147 195 0.000000 1.000000 0.000000
0.457966 -0.245239 0.168148 60 147 195 0.000000 -1.000000 0.000000
0.403505 -0.245239 0.078463 60 147 195 0.000000 -1.000000 0.000000
0.366992 -0.088804 0.447567 60 147 195 -0.069959 0.898419 0.433530
0.082719 -0.057476 0.312633 60 147 195 -0.032977 0.980551 0.193474
0.322817 -0.245239 0.091305 60 147 195 0.000000 -1.000000 0.000000
0.256136 -0.062055 0.359821 60 147 195 0.050777 -0.953242 -0.297910
0.078795 -0.133135 0.444147 60 147 195 0.157626 0.083316 -0.983978
0.088372 -0.046878 0.241390 60 147 195 0.011666 -0.997785 -0.065484
0.568860 -0.185421 0.102716 60 147 195 1.000000 0.000000 0.000000
0.288286 -0.044932 0.047472 60 147 195 0.000000 -1.000000 0.000000
0.538602 -0.105998 0.493323 60 147 195 0.620875 0.783909 0.000000
0.190100 -0.070765 0.375244 60 147 195 0.052301 -0.947093 -0.316668
0.446032 -0.094430 0.471981 60 147 195 0.069959 -0.898419 -0.433530
0.340718 -0.046480 0.000118 60 147 195 -0.063163 -0.998003 0.000000
0.448926 -0.245239 0.053491 60 147 195 0.000000 1.000000 0.000000
0.270455 -0.046124 0.262341 60 147 195 -0.011666 0.997785 0.065484
0.236811 -0.245239 0.039071 60 147 195 0.000000 1.000000 0.000000
0.442819 -0.245239 0.477400 60 147 195 0.000000 -1.000000 0.000000
0.568860 -0.171968 0.275027 60 147 195 -1.000000 0.000000 0.000000
0.438511 -0.244289 0.522027 60 147 195 -0.159723 0.000000 0.987162
0.275779 -0.044932 0.239093 60 147 195 0.000000 1.000000 0.000000
0.566378 -0.146774 0.284093 60 147 195 0.951717 0.306976 0.000000
0.559182 -0.244874 0.217676 60 147 195 1.000000 0.000000 0.000000
0.377205 -0.049413 0.152570 60 147 195 -0.188383 -0.982096 0.000000
0.535764 -0.103752 0.357740 60 147 195 -0.620875 -0.783909 0.000000
0.064831 -0.245239 0.335878 60 147 195 0.000000 -1.000000 0.000000
0.528156 -0.175429 0.535182 60 147 195 -0.157658 0.017989 0.987330
0.568860 -0.219427 0.054057 60 147 195 1.000000 0.000000 0.000000
0.551742 -0.141698 0.508917 60 147 195 0.000000 -1.000000 0.000000
0.464517 -0.071151 0.189479 60 147 195 -0.310633 -0.950530 0.000000
0.476127 -0.074945 0.159727 60 147 195 0.310633 0.950530 0.000000
0.477522 -0.183282 0.527240 60 147 195 0.157658 -0.017989 -0.987330
0.563121 -0.142905 0.195974 60 147 195 0.513123 0.858315 0.000000
0.561009 -0.242812 0.159948 60 147 195 0.258714 -0.965954 0.000000
0.568860 -0.181979 0.514293 60 147 195 1.000000 0.000000 0.000000
0.240093 -0.085799 0.420861 60 147 195 -0.069959 0.898419 0.433530
0.166760 -0.245239 0.402791 60 147 195 0.000000 1.000000 0.000000
0.508536 -0.245239 0.119798 60 147 195 0.000000 1.000000 0.000000
0.499510 -0.245239 0.347760 60 147 195 0.000000 1.000000 0.000000
0.202949 -0.111690 0.457362 60 147 195 0.132579 -0.549871 -0.824660
0.207498 -0.245239 0.154757 60 147 195 0.000000 -1.000000 0.000000
0.162719 -0.044932 0.184857 60 147 195 0.000000 -1.000000 0.000000
0.164778 -0.045888 0.239620 60 147 195 0.011279 -0.998177 -0.059296
0.267628 -0.245239 0.335905 60 147 195 0.000000 -1.000000 0.000000
0.519634 -0.245239 0.196979 60 147 195 0.000000 1.000000 0.000000
0.282784 -0.213608 0.517854 60 147 195 -0.157419 -0.101273 0.982325
0.557829 -0.245239 0.448419 60 147 195 0.000000 -1.000000 0.000000
0.400605 -0.155975 0.491904 60 147 195 -0.157307 0.108306 0.981593
0.288077 -0.044932 0.124528 60 147 195 0.000000 1.000000 0.000000
0.381753 -0.128475 0.492656 60 147 195 -0.153784 0.234014 0.959994
0.283321 -0.245239 0.010794 60 147 195 0.000000 -1.000000 0.000000
0.539192 -0.245239 0.336017 60 147 195 0.000000 -1.000000 0.000000
0.128007 -0.245239 0.395490 60 147 195 0.000000 -1.000000 0.000000
0.535841 -0.103813 0.453018 60 147 195 -0.620875 -0.783909 0.000000
0.153099 -0.044932 0.069001 60 147 195 0.000000 1.000000 0.000000
0.197990 -0.192766 0.482776 60 147 195 -0.157658 0.017989 0.987330
0.230011 -0.096938 0.442317 60 147 195 0.069959 -0.898419 -0.433530
0.290162 -0.136523 0.472057 60 147 195 -0.157302 0.108346 0.981589
0.133122 -0.044932 0.039497 60 147 195 0.000000 1.000000 0.000000
0.436498 -0.245239 0.057393 60 147 195 0.000000 1.000000 0.000000
0.157294 -0.045106 0.225026 60 147 195 -0.011279 0.998177 0.059296
0.346592 -0.245239 0.329602 60 147 195 0.000000 1.000000 0.000000
0.407903 -0.245239 0.222198 60 147 195 0.000000 1.000000 0.000000
0.550734 -0.141698 0.475880 60 147 195 0.000000 -1.000000 0.000000
0.399676 -0.190143 0.501104 60 147 195 0.981536 -0.108845 0.157290
0.317337 -0.101809 0.471208 60 147 195 -0.155644 0.179869 0.971299
0.088634 -0.245239 0.173410 60 147 195 0.000000 -1.000000 0.000000
0.182277 -0.245239 0.184904 60 147 195 0.000000 1.000000 0.000000
0.137776 -0.237741 0.473369 60 147 195 -0.159723 0.000000 0.987162
0.246394 -0.245239 0.070780 60 147 195 0.000000 -1.000000 0.000000
0.173937 -0.044932 0.168531 60 147 195 0.000000 1.000000 0.000000
0.375784 -0.049140 0.109453 60 147 195 0.188383 0.982096 0.000000
0.162414 -0.044932 0.143480 60 147 195 0.000000 1.000000 0.000000
0.472873 -0.245239 0.393828 60 147 195 0.000000 1.000000 0.000000
0.359720 -0.173789 0.533139 60 147 195 -0.158213 -0.021960 0.987161
0.396882 -0.168517 0.526263 60 147 195 -0.986455 -0.044115 -0.157986
0.331926 -0.245239 0.375873 60 147 195 0.000000 1.000000 0.000000
0.419182 -0.057465 0.188406 60 147 195 0.188383 0.982096 0.000000
0.343242 -0.116190 0.478023 60 147 195 -0.155646 0.180100 0.971256
0.206825 -0.145037 0.479940 60 147 195 0.123634 -0.620714 -0.774228
0.347138 -0.193511 0.506607 60 147 195 0.157658 -0.017989 -0.987330
0.106713 -0.044932 0.002502 60 147 195 0.000000 1.000000 0.000000
0.392744 -0.105082 0.484259 60 147 195 0.945171 0.289327 0.151465
0.321954 -0.245239 0.339601 60 147 195 0.000000 -1.000000 0.000000
0.298695 -0.066248 0.379673 60 147 195 0.052301 -0.947093 -0.316668
0.331144 -0.227067 0.482080 60 147 195 0.158110 0.035891 -0.986769
0.138895 -0.044932 0.131062 60 147 195 0.000000 -1.000000 0.000000
0.535906 -0.245239 0.328041 60 147 195 0.000000 -1.000000 0.000000
0.566199 -0.146221 0.375453 60 147 195 0.951717 0.306976 0.000000
0.568860 -0.243165 0.499731 60 147 195 -1.000000 0.000000 0.000000
0.079056 -0.052563 0.286579 60 147 195 0.031900 -0.983321 -0.179058
0.270701 -0.245239 0.002785 60 147 195 0.000000 1.000000 0.000000
0.408475 -0.245239 0.410519 60 147 195 0.000000 1.000000 0.000000
0.137165 -0.245239 0.347279 60 147 195 0.000000 1.000000 0.000000
0.521255 -0.245239 0.269593 60 147 195 0.000000 1.000000 0.000000
0.387687 -0.245239 0.006730 60 147 195 0.000000 -1.000000 0.000000
0.502878 -0.086902 0.343215 60 147 195 0.427943 0.903806 0.000000
0.568860 -0.185972 0.413444 60 147 195 1.000000 0.000000 0.000000
0.274799 -0.245239 0.087923 60 147 195 0.000000 1.000000 0.000000
0.068958 -0.245239 0.209400 60 147 195 0.000000 1.000000 0.000000
0.481135 -0.076608 0.185227 60 147 195 0.427943 0.903806 0.000000
0.374824 -0.128121 0.484697 60 147 195 0.157025 -0.107484 -0.981728
0.407295 -0.055184 0.314621 60 147 195 -0.188383 -0.982096 0.000000
0.523138 -0.096496 0.010046 60 147 195 0.427943 0.903806 0.000000
0.119697 -0.245239 0.420314 60 147 195 0.000000 -1.000000 0.000000
0.120986 -0.044932 0.017781 60 147 195 0.000000 1.000000 0.000000
0.549935 -0.136714 0.050673 60 147 195 0.996297 -0.085974 0.000000
0.064996 -0.245239 0.383222 60 147 195 0.000000 -1.000000 0.000000
0.529292 -0.245239 0.001992 60 147 195 0.000000 1.000000 0.000000
0.208360 -0.245239 0.101649 60 147 195 0.000000 1.000000 0.000000
0.367954 -0.245239 0.454570 60 147 195 0.000000 1.000000 0.000000
0.487597 -0.245239 0.147708 60 147 195 0.000000 1.000000 0.000000
0.568860 -0.165187 0.074332 60 147 195 1.000000 0.000000 0.000000
0.317304 -0.245239 0.418834 60 147 195 0.000000 1.000000 0.000000
0.525258 -0.245239 0.106616 60 147 195 0.000000 1.000000 0.000000
0.568860 -0.224379 0.158662 60 147 195 1.000000 0.000000 0.000000
0.381472 -0.171129 0.511682 60 147 195 -0.157658 0.017989 0.987330
0.389647 -0.245239 0.012385 60 147 195 0.000000 -1.000000 0.000000
0.387323 -0.245239 0.050676 60 147 195 0.000000 1.000000 0.000000
0.529271 -0.099399 0.031147 60 147 195 0.427943 0.903806 0.000000
0.171557 -0.044932 0.178194 60 147 195 0.000000 1.000000 0.000000
0.397834 -0.197490 0.498781 60 147 195 -0.945733 0.287438 -0.151552
0.568860 -0.171213 0.400180 60 147 195 1.000000 0.000000 0.000000
0.119868 -0.245239 0.197307 60 147 195 0.000000 -1.000000 0.000000
0.374064 -0.245239 0.434511 60 147 195 0.000000 1.000000 0.000000
0.561802 -0.242600 0.384310 60 147 195 0.258714 -0.965954 0.000000
0.371774 -0.048445 0.146876 60 147 195 -0.063163 -0.998003 0.000000
0.254730 -0.047351 0.278237 60 147 195 -0.011666 0.997785 0.065484
0.425054 -0.244948 0.519850 60 147 195 0.159723 0.000000 -0.987162
0.283464 -0.245239 0.384312 60 147 195 0.000000 1.000000 0.000000
0.492807 -0.082134 0.231474 60 147 195 0.427943 0.903806 0.000000
0.146439 -0.044932 0.126561 60 147 195 0.000000 1.000000 0.000000
0.348802 -0.145389 0.502893 60 147 195 0.123634 -0.620714 -0.774228
0.294034 -0.044932 0.113105 60 147 195 0.000000 1.000000 0.000000
0.233387 -0.245239 0.333643 60 147 195 0.000000 -1.000000 0.000000
0.303120 -0.245239 0.185777 60 147 195 0.000000 1.000000 0.000000
0.372058 -0.048463 0.051178 60 147 195 0.063163 0.998003 0.000000
0.412454 -0.245239 0.099311 60 147 195 0.000000 1.000000 0.000000
0.568860 -0.227564 0.016673 60 147 195 1.000000 0.000000 0.000000
0.413317 -0.245239 0.133073 60 147 195 0.000000 1.000000 0.000000
0.315461 -0.245239 0.246488 60 147 195 0.000000 -1.000000 0.000000
