ply
format ascii 1.0
element vertex 710
property float x
property float y
property float z
property uchar red
property uchar green
property uchar blue
property float nx
property float ny
property float nz
end_header
-0.209109 -0.906326 0.256647 154 92 56 0.992007 0.126184 0.000000
-0.269614 -0.797469 0.288964 154 92 56 -0.992007 0.126184 0.000000
-0.279329 -0.873844 0.255615 154 92 56 -0.992007 0.126184 0.000000
-0.252085 -0.479669 -0.316388 234 187 71 0.000000 -0.608780 -0.793339
-0.234790 -0.388383 -0.332483 234 187 71 0.000000 0.000000 -1.000000
-0.201006 -0.423437 -0.227279 234 187 71 1.000000 0.000000 0.000000
-0.241456 -0.464936 -0.217384 234 187 71 0.000000 -0.608807 0.793318
-0.275593 -0.428117 -0.332483 234 187 71 0.000000 0.000000 -1.000000
-0.201006 -0.408841 -0.273517 234 187 71 1.000000 0.000000 0.000000
-0.283189 -0.287561 -0.239459 234 187 71 -0.898446 0.439084 0.000000
-0.211281 -0.323201 -0.332483 234 187 71 0.000000 0.000000 -1.000000
-0.291567 -0.429718 -0.282134 234 187 71 -1.000000 0.000000 0.000000
-0.291567 -0.400847 -0.221489 234 187 71 -1.000000 0.000000 0.000000
-0.247921 -0.493937 -0.239639 234 187 71 0.000000 -0.608807 0.793318
-0.291021 -0.303586 -0.296606 234 187 71 -0.898446 0.439084 0.000000
-0.201006 -0.431367 -0.308357 234 187 71 1.000000 0.000000 0.000000
-0.291567 -0.452595 -0.298786 234 187 71 -1.000000 0.000000 0.000000
-0.287093 -0.295548 -0.243002 234 187 71 -0.898446 0.439084 0.000000
-0.291567 -0.305550 -0.220084 234 187 71 -1.000000 0.000000 0.000000
-0.286160 -0.413583 -0.212593 234 187 71 0.000000 0.000000 1.000000
-0.201006 -0.404744 -0.217693 234 187 71 1.000000 0.000000 0.000000
-0.227796 -0.493606 -0.266474 234 187 71 0.793339 -0.608780 0.000000
-0.278944 -0.322956 -0.212593 234 187 71 0.000000 0.000000 1.000000
-0.218031 -0.269864 -0.310289 234 187 71 0.898466 0.439043 0.000000
-0.291567 -0.326706 -0.220619 234 187 71 -1.000000 0.000000 0.000000
-0.291567 -0.391418 -0.311450 234 187 71 -1.000000 0.000000 0.000000
-0.280267 -0.353960 -0.212593 234 187 71 0.000000 0.000000 1.000000
-0.203398 -0.299807 -0.254087 234 187 71 0.898466 0.439043 0.000000
-0.201006 -0.419417 -0.248187 234 187 71 1.000000 0.000000 0.000000
-0.201006 -0.399457 -0.254438 234 187 71 1.000000 0.000000 0.000000
-0.275846 -0.443805 -0.332483 234 187 71 0.000000 0.000000 -1.000000
-0.269471 -0.281575 -0.321183 234 187 71 0.000000 0.438981 -0.898496
-0.291567 -0.357188 -0.248968 234 187 71 -1.000000 0.000000 0.000000
-0.245666 -0.278389 -0.319627 234 187 71 0.000000 0.438981 -0.898496
-0.286503 -0.330722 -0.332483 234 187 71 0.000000 0.000000 -1.000000
-0.217424 -0.407252 -0.212593 234 187 71 0.000000 0.000000 1.000000
-0.203120 -0.328967 -0.212593 234 187 71 0.000000 0.000000 1.000000
-0.291567 -0.384796 -0.235766 234 187 71 -1.000000 0.000000 0.000000
-0.291567 -0.439073 -0.270454 234 187 71 -1.000000 0.000000 0.000000
-0.207904 -0.353148 -0.332483 234 187 71 0.000000 0.000000 -1.000000
-0.253735 -0.368115 -0.212593 234 187 71 0.000000 0.000000 1.000000
-0.261369 -0.440412 -0.212593 234 187 71 0.000000 0.000000 1.000000
-0.273917 -0.448462 -0.212593 234 187 71 0.000000 0.000000 1.000000
-0.283763 -0.288734 -0.322440 234 187 71 -0.898446 0.439084 0.000000
-0.275234 -0.271284 -0.278145 234 187 71 -0.898446 0.439084 0.000000
-0.201006 -0.324257 -0.243123 234 187 71 1.000000 0.000000 0.000000
-0.220878 -0.484590 -0.260929 234 187 71 0.793339 -0.608780 0.000000
-0.234726 -0.330970 -0.332483 234 187 71 0.000000 0.000000 -1.000000
-0.288116 -0.313304 -0.332483 234 187 71 0.000000 0.000000 -1.000000
-0.289656 -0.451722 -0.212593 234 187 71 0.000000 0.000000 1.000000
-0.201006 -0.452749 -0.247123 234 187 71 1.000000 0.000000 0.000000
-0.235046 -0.321892 -0.212593 234 187 71 0.000000 0.000000 1.000000
-0.256632 -0.292044 -0.218779 234 187 71 0.000000 0.439023 0.898476
-0.249883 -0.442844 -0.332483 234 187 71 0.000000 0.000000 -1.000000
-0.291567 -0.324906 -0.250054 234 187 71 -1.000000 0.000000 0.000000
-0.279054 -0.379428 -0.332483 234 187 71 0.000000 0.000000 -1.000000
-0.291567 -0.379209 -0.244874 234 187 71 -1.000000 0.000000 0.000000
-0.291567 -0.353366 -0.215396 234 187 71 -1.000000 0.000000 0.000000
-0.291567 -0.456539 -0.314135 234 187 71 -1.000000 0.000000 0.000000
-0.291567 -0.364715 -0.231270 234 187 71 -1.000000 0.000000 0.000000
-0.219129 -0.451130 -0.212593 234 187 71 0.000000 0.000000 1.000000
-0.205958 -0.348835 -0.212593 234 187 71 0.000000 0.000000 1.000000
-0.291567 -0.307061 -0.230741 234 187 71 -1.000000 0.000000 0.000000
-0.288348 -0.298116 -0.287166 234 187 71 -0.898446 0.439084 0.000000
-0.201006 -0.395168 -0.218582 234 187 71 1.000000 0.000000 0.000000
-0.291567 -0.327423 -0.327368 234 187 71 -1.000000 0.000000 0.000000
-0.214795 -0.476663 -0.307471 234 187 71 0.793339 -0.608780 0.000000
-0.248307 -0.493576 -0.305716 234 187 71 0.000000 -0.608780 -0.793339
-0.291567 -0.370853 -0.235701 234 187 71 -1.000000 0.000000 0.000000
-0.291567 -0.375542 -0.290064 234 187 71 -1.000000 0.000000 0.000000
-0.257146 -0.462766 -0.215718 234 187 71 0.000000 -0.608807 0.793318
-0.201006 -0.414818 -0.329288 234 187 71 1.000000 0.000000 0.000000
-0.280817 -0.472702 -0.270347 234 187 71 -0.793308 -0.608821 0.000000
-0.287948 -0.297299 -0.317488 234 187 71 -0.898446 0.439084 0.000000
-0.203144 -0.461481 -0.218626 234 187 71 0.793339 -0.608780 0.000000
-0.260745 -0.390113 -0.212593 234 187 71 0.000000 0.000000 1.000000
-0.226438 -0.271264 -0.228932 234 187 71 0.000000 0.439023 0.898476
-0.280850 -0.425764 -0.212593 234 187 71 0.000000 0.000000 1.000000
-0.211684 -0.282852 -0.330724 234 187 71 -0.898466 -0.439043 0.000000
-0.274997 -0.348328 -0.212593 234 187 71 0.000000 0.000000 1.000000
-0.203022 -0.300578 -0.333086 234 187 71 -0.898466 -0.439043 0.000000
-0.201006 -0.308665 -0.213770 234 187 71 1.000000 0.000000 0.000000
-0.238347 -0.467156 -0.219087 234 187 71 0.000000 -0.608807 0.793318
-0.256880 -0.427023 -0.332483 234 187 71 0.000000 0.000000 -1.000000
-0.222126 -0.404697 -0.212593 234 187 71 0.000000 0.000000 1.000000
-0.235943 -0.361375 -0.212593 234 187 71 0.000000 0.000000 1.000000
-0.291567 -0.424179 -0.224368 234 187 71 -1.000000 0.000000 0.000000
-0.201006 -0.310266 -0.254322 234 187 71 1.000000 0.000000 0.000000
-0.291567 -0.307126 -0.285547 234 187 71 -1.000000 0.000000 0.000000
-0.210297 -0.470802 -0.243606 234 187 71 0.793339 -0.608780 0.000000
-0.201006 -0.307914 -0.251274 234 187 71 1.000000 0.000000 0.000000
-0.234767 -0.438674 -0.212593 234 187 71 0.000000 0.000000 1.000000
-0.201006 -0.448393 -0.275354 234 187 71 1.000000 0.000000 0.000000
-0.223784 -0.488377 -0.323341 234 187 71 -0.793339 0.608780 0.000000
-0.203346 -0.317629 -0.212593 234 187 71 0.000000 0.000000 1.000000
-0.256742 -0.451276 -0.332483 234 187 71 0.000000 0.000000 -1.000000
-0.201006 -0.345536 -0.245127 234 187 71 1.000000 0.000000 0.000000
-0.201006 -0.390267 -0.259231 234 187 71 1.000000 0.000000 0.000000
-0.291567 -0.326121 -0.319989 234 187 71 -1.000000 0.000000 0.000000
-0.291567 -0.367308 -0.298820 234 187 71 -1.000000 0.000000 0.000000
-0.201581 -0.367990 -0.212593 234 187 71 0.000000 0.000000 1.000000
-0.201006 -0.355893 -0.213374 234 187 71 1.000000 0.000000 0.000000
-0.269584 -0.337535 -0.212593 234 187 71 0.000000 0.000000 1.000000
-0.291567 -0.338697 -0.235045 234 187 71 -1.000000 0.000000 0.000000
-0.238561 -0.399874 -0.332483 234 187 71 0.000000 0.000000 -1.000000
-0.291567 -0.309374 -0.313234 234 187 71 -1.000000 0.000000 0.000000
-0.213278 -0.343394 -0.332483 234 187 71 0.000000 0.000000 -1.000000
-0.273392 -0.482376 -0.245980 234 187 71 -0.793308 -0.608821 0.000000
-0.224498 -0.489307 -0.297571 234 187 71 0.793339 -0.608780 0.000000
-0.201006 -0.330157 -0.234969 234 187 71 1.000000 0.000000 0.000000
-0.291567 -0.431742 -0.240088 234 187 71 -1.000000 0.000000 0.000000
-0.242849 -0.442590 -0.332483 234 187 71 0.000000 0.000000 -1.000000
-0.210460 -0.285356 -0.281347 234 187 71 0.898466 0.439043 0.000000
-0.284864 -0.450939 -0.212593 234 187 71 0.000000 0.000000 1.000000
-0.268039 -0.371494 -0.332483 234 187 71 0.000000 0.000000 -1.000000
-0.260060 -0.349073 -0.212593 234 187 71 0.000000 0.000000 1.000000
-0.291567 -0.347095 -0.237737 234 187 71 -1.000000 0.000000 0.000000
-0.228238 -0.330006 -0.332483 234 187 71 0.000000 0.000000 -1.000000
-0.226361 -0.289476 -0.325044 234 187 71 0.000000 0.438981 -0.898496
-0.283105 -0.410087 -0.332483 234 187 71 0.000000 0.000000 -1.000000
-0.291567 -0.428085 -0.254762 234 187 71 -1.000000 0.000000 0.000000
-0.254146 -0.432860 -0.332483 234 187 71 0.000000 0.000000 -1.000000
-0.222158 -0.297459 -0.216132 234 187 71 0.000000 0.439023 0.898476
-0.201006 -0.313868 -0.256623 234 187 71 1.000000 0.000000 0.000000
-0.291567 -0.397859 -0.233999 234 187 71 -1.000000 0.000000 0.000000
-0.291567 -0.410670 -0.282491 234 187 71 -1.000000 0.000000 0.000000
-0.291567 -0.314791 -0.292036 234 187 71 -1.000000 0.000000 0.000000
-0.264325 -0.490431 -0.308130 234 187 71 0.000000 -0.608780 -0.793339
-0.219751 -0.420972 -0.332483 234 187 71 0.000000 0.000000 -1.000000
-0.201006 -0.433990 -0.270595 234 187 71 1.000000 0.000000 0.000000
-0.201006 -0.310971 -0.289458 234 187 71 1.000000 0.000000 0.000000
-0.201006 -0.433554 -0.249105 234 187 71 1.000000 0.000000 0.000000
-0.218073 -0.269777 -0.277530 234 187 71 0.898466 0.439043 0.000000
-0.254061 -0.347875 -0.212593 234 187 71 0.000000 0.000000 1.000000
-0.291567 -0.318935 -0.307280 234 187 71 -1.000000 0.000000 0.000000
-0.201006 -0.428483 -0.316804 234 187 71 1.000000 0.000000 0.000000
-0.233837 -0.485538 -0.311884 234 187 71 0.000000 -0.608780 -0.793339
-0.201006 -0.407807 -0.308580 234 187 71 1.000000 0.000000 0.000000
-0.275485 -0.272155 -0.316581 234 187 71 0.000000 0.438981 -0.898496
-0.272675 -0.415423 -0.332483 234 187 71 0.000000 0.000000 -1.000000
-0.230250 -0.395050 -0.332483 234 187 71 0.000000 0.000000 -1.000000
-0.201006 -0.363470 -0.270000 234 187 71 1.000000 0.000000 0.000000
-0.223899 -0.391927 -0.332483 234 187 71 0.000000 0.000000 -1.000000
-0.201006 -0.336193 -0.230361 234 187 71 1.000000 0.000000 0.000000
-0.291567 -0.408677 -0.313824 234 187 71 -1.000000 0.000000 0.000000
-0.201006 -0.373160 -0.289643 234 187 71 1.000000 0.000000 0.000000
-0.201006 -0.437678 -0.233221 234 187 71 1.000000 0.000000 0.000000
-0.210624 -0.338045 -0.212593 234 187 71 0.000000 0.000000 1.000000
-0.201006 -0.426657 -0.222888 234 187 71 1.000000 0.000000 0.000000
-0.291567 -0.417142 -0.233625 234 187 71 -1.000000 0.000000 0.000000
-0.291567 -0.307979 -0.310583 234 187 71 -1.000000 0.000000 0.000000
-0.264014 -0.494597 -0.270321 234 187 71 -0.793308 -0.608821 0.000000
-0.201006 -0.356172 -0.296213 234 187 71 1.000000 0.000000 0.000000
-0.249451 -0.348854 -0.332483 234 187 71 0.000000 0.000000 -1.000000
-0.234376 -0.444407 -0.212593 234 187 71 0.000000 0.000000 1.000000
-0.202795 -0.301041 -0.215495 234 187 71 0.898466 0.439043 0.000000
-0.279449 -0.375629 -0.212593 234 187 71 0.000000 0.000000 1.000000
-0.287949 -0.317756 -0.332483 234 187 71 0.000000 0.000000 -1.000000
-0.290485 -0.302489 -0.234304 234 187 71 -0.898446 0.439084 0.000000
-0.201006 -0.391934 -0.297878 234 187 71 1.000000 0.000000 0.000000
-0.211685 -0.282849 -0.239953 234 187 71 0.898466 0.439043 0.000000
-0.224013 -0.327514 -0.212593 234 187 71 0.000000 0.000000 1.000000
-0.286943 -0.448170 -0.332483 234 187 71 0.000000 0.000000 -1.000000
-0.201006 -0.315019 -0.272897 234 187 71 1.000000 0.000000 0.000000
-0.201006 -0.380644 -0.316606 234 187 71 1.000000 0.000000 0.000000
-0.233070 -0.280869 -0.224239 234 187 71 0.000000 0.439023 0.898476
-0.222457 -0.486648 -0.264072 234 187 71 0.793339 -0.608780 0.000000
-0.243511 -0.426049 -0.332483 234 187 71 0.000000 0.000000 -1.000000
-0.201006 -0.449052 -0.248379 234 187 71 1.000000 0.000000 0.000000
-0.275134 -0.480106 -0.262222 234 187 71 -0.793308 -0.608821 0.000000
-0.245136 -0.471737 -0.322474 234 187 71 0.000000 -0.608780 -0.793339
-0.201006 -0.409133 -0.224892 234 187 71 1.000000 0.000000 0.000000
-0.280025 -0.405271 -0.212593 234 187 71 0.000000 0.000000 1.000000
-0.291567 -0.346814 -0.298776 234 187 71 -1.000000 0.000000 0.000000
-0.291567 -0.378453 -0.239713 234 187 71 -1.000000 0.000000 0.000000
-0.213725 -0.475269 -0.321338 234 187 71 -0.793339 0.608780 0.000000
-0.253504 -0.306417 -0.332483 234 187 71 0.000000 0.000000 -1.000000
-0.291567 -0.307957 -0.261736 234 187 71 -1.000000 0.000000 0.000000
-0.259688 -0.271257 -0.316142 234 187 71 0.000000 0.438981 -0.898496
-0.201006 -0.420588 -0.296902 234 187 71 1.000000 0.000000 0.000000
-0.259972 -0.382852 -0.212593 234 187 71 0.000000 0.000000 1.000000
-0.201006 -0.451109 -0.221448 234 187 71 1.000000 0.000000 0.000000
-0.291567 -0.390412 -0.247824 234 187 71 -1.000000 0.000000 0.000000
-0.285374 -0.305096 -0.332483 234 187 71 0.000000 0.000000 -1.000000
-0.289960 -0.460788 -0.216939 234 187 71 -0.793308 -0.608821 0.000000
-0.261735 -0.270447 -0.315747 234 187 71 0.000000 0.438981 -0.898496
-0.274452 -0.317190 -0.332483 234 187 71 0.000000 0.000000 -1.000000
-0.291567 -0.318808 -0.252522 234 187 71 -1.000000 0.000000 0.000000
-0.201006 -0.318737 -0.262747 234 187 71 1.000000 0.000000 0.000000
-0.201006 -0.450904 -0.276382 234 187 71 1.000000 0.000000 0.000000
-0.223386 -0.318024 -0.332483 234 187 71 0.000000 0.000000 -1.000000
-0.215590 -0.342448 -0.212593 234 187 71 0.000000 0.000000 1.000000
-0.291567 -0.367498 -0.312053 234 187 71 -1.000000 0.000000 0.000000
-0.201006 -0.335892 -0.303131 234 187 71 1.000000 0.000000 0.000000
-0.287407 -0.343782 -0.332483 234 187 71 0.000000 0.000000 -1.000000
-0.209460 -0.322512 -0.212593 234 187 71 0.000000 0.000000 1.000000
-0.268905 -0.488224 -0.249150 234 187 71 -0.793308 -0.608821 0.000000
-0.201006 -0.312750 -0.332480 234 187 71 1.000000 0.000000 0.000000
-0.291567 -0.375941 -0.262088 234 187 71 -1.000000 0.000000 0.000000
-0.272869 -0.414184 -0.212593 234 187 71 0.000000 0.000000 1.000000
-0.236190 -0.426945 -0.212593 234 187 71 0.000000 0.000000 1.000000
-0.281913 -0.471274 -0.235142 234 187 71 -0.793308 -0.608821 0.000000
-0.206877 -0.292688 -0.281536 234 187 71 0.898466 0.439043 0.000000
-0.225200 -0.352178 -0.212593 234 187 71 0.000000 0.000000 1.000000
-0.225372 -0.490447 -0.277701 234 187 71 0.793339 -0.608780 0.000000
-0.270928 -0.485587 -0.289015 234 187 71 -0.793308 -0.608821 0.000000
-0.291567 -0.397559 -0.313844 234 187 71 -1.000000 0.000000 0.000000
-0.201006 -0.336271 -0.321015 234 187 71 1.000000 0.000000 0.000000
-0.291567 -0.354809 -0.218521 234 187 71 -1.000000 0.000000 0.000000
-0.263468 -0.368305 -0.212593 234 187 71 0.000000 0.000000 1.000000
-0.247819 -0.388430 -0.212593 234 187 71 0.000000 0.000000 1.000000
-0.291567 -0.448214 -0.272270 234 187 71 -1.000000 0.000000 0.000000
-0.291567 -0.345551 -0.272721 234 187 71 -1.000000 0.000000 0.000000
-0.291567 -0.419069 -0.320150 234 187 71 -1.000000 0.000000 0.000000
-0.291567 -0.405902 -0.248609 234 187 71 -1.000000 0.000000 0.000000
-0.291567 -0.432805 -0.255845 234 187 71 -1.000000 0.000000 0.000000
-0.232413 -0.354615 -0.332483 234 187 71 0.000000 0.000000 -1.000000
-0.287323 -0.296019 -0.289427 234 187 71 -0.898446 0.439084 0.000000
-0.206846 -0.442158 -0.212593 234 187 71 0.000000 0.000000 1.000000
-0.201006 -0.410143 -0.320682 234 187 71 1.000000 0.000000 0.000000
-0.273715 -0.312152 -0.212593 234 187 71 0.000000 0.000000 1.000000
-0.201006 -0.448507 -0.297383 234 187 71 1.000000 0.000000 0.000000
-0.291567 -0.434898 -0.239175 234 187 71 -1.000000 0.000000 0.000000
-0.286747 -0.433882 -0.212593 234 187 71 0.000000 0.000000 1.000000
-0.217036 -0.271899 -0.324434 234 187 71 -0.898466 -0.439043 0.000000
-0.272055 -0.270154 -0.315603 234 187 71 0.000000 0.438981 -0.898496
-0.211196 -0.427107 -0.212593 234 187 71 0.000000 0.000000 1.000000
-0.279625 -0.360625 -0.332483 234 187 71 0.000000 0.000000 -1.000000
-0.289069 -0.327308 -0.212593 234 187 71 0.000000 0.000000 1.000000
-0.278011 -0.359203 -0.212593 234 187 71 0.000000 0.000000 1.000000
-0.207887 -0.445901 -0.332483 234 187 71 0.000000 0.000000 -1.000000
-0.291567 -0.336546 -0.238341 234 187 71 -1.000000 0.000000 0.000000
-0.254374 -0.471419 -0.222359 234 187 71 0.000000 -0.608807 0.793318
-0.201006 -0.357147 -0.319598 234 187 71 1.000000 0.000000 0.000000
-0.291567 -0.409102 -0.325816 234 187 71 -1.000000 0.000000 0.000000
-0.257653 -0.467184 -0.219108 234 187 71 0.000000 -0.608807 0.793318
-0.253765 -0.423825 -0.332483 234 187 71 0.000000 0.000000 -1.000000
-0.201006 -0.407716 -0.323778 234 187 71 1.000000 0.000000 0.000000
-0.287624 -0.449752 -0.212593 234 187 71 0.000000 0.000000 1.000000
-0.269707 -0.291746 -0.218924 234 187 71 0.000000 0.439023 0.898476
-0.201006 -0.426067 -0.230584 234 187 71 1.000000 0.000000 0.000000
-0.214314 -0.476036 -0.302316 234 187 71 0.793339 -0.608780 0.000000
-0.260525 -0.373220 -0.332483 234 187 71 0.000000 0.000000 -1.000000
-0.291567 -0.441924 -0.258612 234 187 71 -1.000000 0.000000 0.000000
-0.291567 -0.411879 -0.236929 234 187 71 -1.000000 0.000000 0.000000
-0.209119 -0.452180 -0.212593 234 187 71 0.000000 0.000000 1.000000
-0.265644 -0.376058 -0.332483 234 187 71 0.000000 0.000000 -1.000000
-0.217555 -0.373320 -0.212593 234 187 71 0.000000 0.000000 1.000000
-0.205707 -0.295083 -0.228818 234 187 71 0.898466 0.439043 0.000000
-0.291567 -0.368105 -0.233732 234 187 71 -1.000000 0.000000 0.000000
-0.201329 -0.433966 -0.332483 234 187 71 0.000000 0.000000 -1.000000
-0.201006 -0.415934 -0.222561 234 187 71 1.000000 0.000000 0.000000
-0.216409 -0.478767 -0.275525 234 187 71 0.793339 -0.608780 0.000000
-0.201006 -0.366402 -0.327673 234 187 71 1.000000 0.000000 0.000000
-0.243934 -0.287099 -0.221195 234 187 71 0.000000 0.439023 0.898476
-0.258666 -0.336631 -0.332483 234 187 71 0.000000 0.000000 -1.000000
-0.291567 -0.404398 -0.309480 234 187 71 -1.000000 0.000000 0.000000
-0.237496 -0.364912 -0.212593 234 187 71 0.000000 0.000000 1.000000
-0.260354 -0.368364 -0.332483 234 187 71 0.000000 0.000000 -1.000000
-0.282030 -0.306380 -0.212593 234 187 71 0.000000 0.000000 1.000000
-0.272523 -0.372777 -0.332483 234 187 71 0.000000 0.000000 -1.000000
-0.291567 -0.393806 -0.265744 234 187 71 -1.000000 0.000000 0.000000
-0.205399 -0.295714 -0.272914 234 187 71 0.898466 0.439043 0.000000
-0.265053 -0.391439 -0.332483 234 187 71 0.000000 0.000000 -1.000000
-0.249642 -0.271997 -0.228574 234 187 71 0.000000 0.439023 0.898476
-0.274251 -0.413477 -0.332483 234 187 71 0.000000 0.000000 -1.000000
-0.201006 -0.409422 -0.307663 234 187 71 1.000000 0.000000 0.000000
-0.201006 -0.345211 -0.323288 234 187 71 1.000000 0.000000 0.000000
-0.279260 -0.474731 -0.244880 234 187 71 -0.793308 -0.608821 0.000000
-0.212859 -0.280446 -0.292609 234 187 71 0.898466 0.439043 0.000000
-0.280207 -0.281459 -0.252369 234 187 71 -0.898446 0.439084 0.000000
-0.244972 -0.400951 -0.332483 234 187 71 0.000000 0.000000 -1.000000
-0.208860 -0.468930 -0.278977 234 187 71 0.793339 -0.608780 0.000000
-0.283264 -0.390322 -0.212593 234 187 71 0.000000 0.000000 1.000000
-0.254821 -0.489147 -0.235963 234 187 71 0.000000 -0.608807 0.793318
-0.221566 -0.281551 -0.321172 234 187 71 0.000000 0.438981 -0.898496
-0.201006 -0.443437 -0.275044 234 187 71 1.000000 0.000000 0.000000
-0.201006 -0.422699 -0.298533 234 187 71 1.000000 0.000000 0.000000
-0.201006 -0.365461 -0.271269 234 187 71 1.000000 0.000000 0.000000
-0.291567 -0.346634 -0.230668 234 187 71 -1.000000 0.000000 0.000000
-0.201006 -0.421452 -0.333369 234 187 71 -1.000000 0.000000 0.000000
-0.291567 -0.387282 -0.235696 234 187 71 -1.000000 0.000000 0.000000
-0.283253 -0.469527 -0.236077 234 187 71 -0.793308 -0.608821 0.000000
-0.263991 -0.373196 -0.212593 234 187 71 0.000000 0.000000 1.000000
-0.210473 -0.456851 -0.212593 234 187 71 0.000000 0.000000 1.000000
-0.210169 -0.470634 -0.326368 234 187 71 -0.793339 0.608780 0.000000
-0.263913 -0.493096 -0.306084 234 187 71 0.000000 -0.608780 -0.793339
-0.201006 -0.376822 -0.321257 234 187 71 1.000000 0.000000 0.000000
-0.291567 -0.439653 -0.240615 234 187 71 -1.000000 0.000000 0.000000
-0.270666 -0.485928 -0.282831 234 187 71 -0.793308 -0.608821 0.000000
-0.201006 -0.373354 -0.238849 234 187 71 1.000000 0.000000 0.000000
-0.291567 -0.413068 -0.213328 234 187 71 -1.000000 0.000000 0.000000
-0.205128 -0.296267 -0.265987 234 187 71 0.898466 0.439043 0.000000
-0.201006 -0.359858 -0.255979 234 187 71 1.000000 0.000000 0.000000
-0.281086 -0.283258 -0.232362 234 187 71 -0.898446 0.439084 0.000000
-0.201006 -0.442206 -0.235918 234 187 71 1.000000 0.000000 0.000000
-0.218767 -0.481839 -0.279853 234 187 71 0.793339 -0.608780 0.000000
-0.289736 -0.461079 -0.329823 234 187 71 -0.793308 -0.608821 0.000000
-0.202367 -0.301918 -0.296655 234 187 71 0.898466 0.439043 0.000000
-0.214858 -0.476746 -0.227718 234 187 71 0.793339 -0.608780 0.000000
-0.201006 -0.395954 -0.218982 234 187 71 1.000000 0.000000 0.000000
-0.270210 -0.343038 -0.332483 234 187 71 0.000000 0.000000 -1.000000
-0.276103 -0.357172 -0.332483 234 187 71 0.000000 0.000000 -1.000000
-0.287109 -0.431214 -0.212593 234 187 71 0.000000 0.000000 1.000000
-0.291567 -0.330003 -0.318140 234 187 71 -1.000000 0.000000 0.000000
-0.220767 -0.374212 -0.332483 234 187 71 0.000000 0.000000 -1.000000
-0.291567 -0.436404 -0.265785 234 187 71 -1.000000 0.000000 0.000000
-0.211707 -0.379402 -0.212593 234 187 71 0.000000 0.000000 1.000000
-0.291567 -0.397366 -0.329986 234 187 71 -1.000000 0.000000 0.000000
-0.229989 -0.272437 -0.316719 234 187 71 0.000000 0.438981 -0.898496
-0.201006 -0.316215 -0.305387 234 187 71 1.000000 0.000000 0.000000
-0.291567 -0.401852 -0.251154 234 187 71 -1.000000 0.000000 0.000000
-0.201006 -0.391602 -0.289151 234 187 71 1.000000 0.000000 0.000000
-0.291567 -0.309788 -0.215939 234 187 71 -1.000000 0.000000 0.000000
-0.209149 -0.469305 -0.285214 234 187 71 0.793339 -0.608780 0.000000
-0.201006 -0.381016 -0.231410 234 187 71 1.000000 0.000000 0.000000
-0.201006 -0.409063 -0.250091 234 187 71 1.000000 0.000000 0.000000
-0.202272 -0.302112 -0.262967 234 187 71 0.898466 0.439043 0.000000
-0.201006 -0.439352 -0.279809 234 187 71 1.000000 0.000000 0.000000
-0.260423 -0.429065 -0.212593 234 187 71 0.000000 0.000000 1.000000
-0.201193 -0.458938 -0.257437 234 187 71 0.793339 -0.608780 0.000000
-0.291567 -0.401165 -0.234966 234 187 71 -1.000000 0.000000 0.000000
-0.291567 -0.420083 -0.245202 234 187 71 -1.000000 0.000000 0.000000
-0.290761 -0.390594 -0.332483 234 187 71 0.000000 0.000000 -1.000000
-0.226152 -0.491463 -0.277583 234 187 71 0.793339 -0.608780 0.000000
-0.257952 -0.413816 -0.212593 234 187 71 0.000000 0.000000 1.000000
-0.291567 -0.330743 -0.269048 234 187 71 -1.000000 0.000000 0.000000
-0.207557 -0.352338 -0.212593 234 187 71 0.000000 0.000000 1.000000
-0.269996 -0.329160 -0.212593 234 187 71 0.000000 0.000000 1.000000
-0.291567 -0.310609 -0.218982 234 187 71 -1.000000 0.000000 0.000000
-0.288802 -0.449717 -0.212593 234 187 71 0.000000 0.000000 1.000000
-0.227698 -0.493244 -0.239107 234 187 71 0.000000 -0.608807 0.793318
-0.213995 -0.454054 -0.212593 234 187 71 0.000000 0.000000 1.000000
-0.268106 -0.489265 -0.297581 234 187 71 -0.793308 -0.608821 0.000000
-0.201006 -0.428425 -0.304270 234 187 71 1.000000 0.000000 0.000000
-0.227509 -0.469569 -0.220939 234 187 71 0.000000 -0.608807 0.793318
-0.289057 -0.461964 -0.224159 234 187 71 -0.793308 -0.608821 0.000000
-0.257583 -0.457079 -0.332483 234 187 71 0.000000 0.000000 -1.000000
-0.215222 -0.477220 -0.270774 234 187 71 0.793339 -0.608780 0.000000
-0.214783 -0.288809 -0.220359 234 187 71 0.000000 0.439023 0.898476
-0.201006 -0.389850 -0.297379 234 187 71 1.000000 0.000000 0.000000
-0.210663 -0.284941 -0.248591 234 187 71 0.898466 0.439043 0.000000
-0.214482 -0.277126 -0.288181 234 187 71 0.898466 0.439043 0.000000
-0.248088 -0.475650 -0.225605 234 187 71 0.000000 -0.608807 0.793318
-0.222164 -0.486266 -0.331459 234 187 71 -0.793339 0.608780 0.000000
-0.201006 -0.402127 -0.242080 234 187 71 1.000000 0.000000 0.000000
-0.291567 -0.328530 -0.244815 234 187 71 -1.000000 0.000000 0.000000
-0.291567 -0.309671 -0.224464 234 187 71 -1.000000 0.000000 0.000000
-0.291567 -0.456217 -0.318512 234 187 71 -1.000000 0.000000 0.000000
-0.291567 -0.319879 -0.326422 234 187 71 -1.000000 0.000000 0.000000
-0.205268 -0.391852 -0.332483 234 187 71 0.000000 0.000000 -1.000000
-0.286974 -0.464678 -0.220689 234 187 71 -0.793308 -0.608821 0.000000
-0.201006 -0.431556 -0.212868 234 187 71 1.000000 0.000000 0.000000
-0.291567 -0.315569 -0.260207 234 187 71 -1.000000 0.000000 0.000000
-0.243911 -0.405863 -0.212593 234 187 71 0.000000 0.000000 1.000000
-0.291567 -0.371269 -0.222607 234 187 71 -1.000000 0.000000 0.000000
-0.291567 -0.443500 -0.282313 234 187 71 -1.000000 0.000000 0.000000
-0.291567 -0.408820 -0.232866 234 187 71 -1.000000 0.000000 0.000000
-0.224719 -0.294789 -0.327639 234 187 71 0.000000 0.438981 -0.898496
-0.291567 -0.394328 -0.318476 234 187 71 -1.000000 0.000000 0.000000
-0.276992 -0.274880 -0.295885 234 187 71 -0.898446 0.439084 0.000000
-0.250630 -0.466448 -0.326533 234 187 71 0.000000 -0.608780 -0.793339
-0.201006 -0.436262 -0.215552 234 187 71 1.000000 0.000000 0.000000
-0.225081 -0.427524 -0.212593 234 187 71 0.000000 0.000000 1.000000
-0.201006 -0.348744 -0.289025 234 187 71 1.000000 0.000000 0.000000
-0.201006 -0.333168 -0.287316 234 187 71 1.000000 0.000000 0.000000
-0.291567 -0.341697 -0.217412 234 187 71 -1.000000 0.000000 0.000000
-0.201006 -0.398793 -0.319766 234 187 71 1.000000 0.000000 0.000000
-0.291567 -0.395565 -0.264586 234 187 71 -1.000000 0.000000 0.000000
-0.291567 -0.451190 -0.295655 234 187 71 -1.000000 0.000000 0.000000
-0.231526 -0.399460 -0.332483 234 187 71 0.000000 0.000000 -1.000000
-0.208966 -0.341723 -0.332483 234 187 71 0.000000 0.000000 -1.000000
-0.257200 -0.490368 -0.308177 234 187 71 0.000000 -0.608780 -0.793339
-0.268021 -0.454683 -0.212593 234 187 71 0.000000 0.000000 1.000000
-0.217899 -0.270133 -0.244221 234 187 71 0.898466 0.439043 0.000000
-0.235791 -0.478639 -0.317178 234 187 71 0.000000 -0.608780 -0.793339
-0.264032 -0.424281 -0.332483 234 187 71 0.000000 0.000000 -1.000000
-0.239505 -0.278965 -0.319908 234 187 71 0.000000 0.438981 -0.898496
-0.201006 -0.362594 -0.224608 234 187 71 1.000000 0.000000 0.000000
-0.279126 -0.474905 -0.272303 234 187 71 -0.793308 -0.608821 0.000000
-0.201006 -0.434723 -0.325779 234 187 71 1.000000 0.000000 0.000000
-0.277494 -0.275908 -0.303859 234 187 71 -0.898446 0.439084 0.000000
-0.225474 -0.490579 -0.266049 234 187 71 0.793339 -0.608780 0.000000
-0.235853 -0.493177 -0.239056 234 187 71 0.000000 -0.608807 0.793318
-0.273980 -0.410195 -0.212593 234 187 71 0.000000 0.000000 1.000000
-0.291567 -0.416734 -0.300297 234 187 71 -1.000000 0.000000 0.000000
-0.201006 -0.417927 -0.239313 234 187 71 1.000000 0.000000 0.000000
-0.266050 -0.396942 0.212593 87 5 150 0.000000 0.000000 -1.000000
-0.242648 -0.423373 0.332483 87 5 150 0.000000 0.000000 1.000000
-0.291567 -0.339336 0.318223 87 5 150 -1.000000 0.000000 0.000000
-0.247816 -0.318924 0.212593 87 5 150 0.000000 0.000000 -1.000000
-0.240562 -0.286810 0.221338 87 5 150 0.000000 0.439084 -0.898446
-0.212246 -0.302584 0.213629 87 5 150 0.000000 0.439084 -0.898446
-0.201006 -0.391072 0.296448 87 5 150 1.000000 0.000000 0.000000
-0.289775 -0.301035 0.289402 87 5 150 -0.898446 0.439084 0.000000
-0.210311 -0.360380 0.332483 87 5 150 0.000000 0.000000 1.000000
-0.246047 -0.310479 0.212593 87 5 150 0.000000 0.000000 -1.000000
-0.242751 -0.277110 0.319002 87 5 150 0.000000 0.438981 0.898496
-0.231214 -0.301857 0.213984 87 5 150 0.000000 0.439084 -0.898446
-0.286560 -0.465219 0.294967 87 5 150 -0.793308 -0.608821 0.000000
-0.270554 -0.486075 0.248511 87 5 150 -0.793308 -0.608821 0.000000
-0.211339 -0.448755 0.212593 87 5 150 0.000000 0.000000 -1.000000
-0.232312 -0.345710 0.212593 87 5 150 0.000000 0.000000 -1.000000
-0.208362 -0.468280 0.322468 87 5 150 0.793339 -0.608780 0.000000
-0.270951 -0.485557 0.286917 87 5 150 -0.793308 -0.608821 0.000000
-0.291567 -0.313919 0.318317 87 5 150 -1.000000 0.000000 0.000000
-0.235925 -0.449153 0.332483 87 5 150 0.000000 0.000000 1.000000
-0.278037 -0.410232 0.332483 87 5 150 0.000000 0.000000 1.000000
-0.212727 -0.411753 0.212593 87 5 150 0.000000 0.000000 -1.000000
-0.266578 -0.271662 0.228741 87 5 150 0.000000 0.439084 -0.898446
-0.264814 -0.438799 0.332483 87 5 150 0.000000 0.000000 1.000000
-0.291567 -0.449526 0.289495 87 5 150 -1.000000 0.000000 0.000000
-0.285820 -0.466182 0.311196 87 5 150 -0.793308 -0.608821 0.000000
-0.201006 -0.455065 0.275349 87 5 150 1.000000 0.000000 0.000000
-0.208821 -0.374189 0.332483 87 5 150 0.000000 0.000000 1.000000
-0.201006 -0.332895 0.218442 87 5 150 1.000000 0.000000 0.000000
-0.291567 -0.306697 0.242616 87 5 150 -1.000000 0.000000 0.000000
-0.282438 -0.343026 0.212593 87 5 150 0.000000 0.000000 -1.000000
-0.201006 -0.456649 0.209145 87 5 150 -1.000000 0.000000 0.000000
-0.232880 -0.363289 0.212593 87 5 150 0.000000 0.000000 -1.000000
-0.227141 -0.435033 0.332483 87 5 150 0.000000 0.000000 1.000000
-0.291567 -0.406709 0.310452 87 5 150 -1.000000 0.000000 0.000000
-0.291567 -0.452236 0.257548 87 5 150 -1.000000 0.000000 0.000000
-0.237046 -0.360244 0.212593 87 5 150 0.000000 0.000000 -1.000000
-0.274874 -0.480445 0.251172 87 5 150 -0.793308 -0.608821 0.000000
-0.201006 -0.333401 0.258670 87 5 150 1.000000 0.000000 0.000000
-0.221184 -0.484989 0.240465 87 5 150 0.793339 -0.608780 0.000000
-0.201006 -0.312779 0.255237 87 5 150 1.000000 0.000000 0.000000
-0.201006 -0.314600 0.253851 87 5 150 1.000000 0.000000 0.000000
-0.269084 -0.487991 0.305905 87 5 150 -0.793308 -0.608821 0.000000
-0.291567 -0.380741 0.263579 87 5 150 -1.000000 0.000000 0.000000
-0.226967 -0.489196 0.236001 87 5 150 0.000000 -0.608807 -0.793318
-0.291567 -0.389382 0.285846 87 5 150 -1.000000 0.000000 0.000000
-0.269898 -0.364129 0.332483 87 5 150 0.000000 0.000000 1.000000
-0.288038 -0.297482 0.227355 87 5 150 -0.898446 0.439084 0.000000
-0.274617 -0.369597 0.332483 87 5 150 0.000000 0.000000 1.000000
-0.291567 -0.344567 0.311725 87 5 150 -1.000000 0.000000 0.000000
-0.272081 -0.362790 0.332483 87 5 150 0.000000 0.000000 1.000000
-0.201006 -0.377305 0.304472 87 5 150 1.000000 0.000000 0.000000
-0.232205 -0.477879 0.317761 87 5 150 0.000000 -0.608780 0.793339
-0.201006 -0.392357 0.302702 87 5 150 1.000000 0.000000 0.000000
-0.201006 -0.402650 0.235226 87 5 150 1.000000 0.000000 0.000000
-0.291567 -0.420045 0.255690 87 5 150 -1.000000 0.000000 0.000000
-0.216819 -0.403875 0.332483 87 5 150 0.000000 0.000000 1.000000
-0.280985 -0.283050 0.239490 87 5 150 -0.898446 0.439084 0.000000
-0.235715 -0.473079 0.223632 87 5 150 0.000000 -0.608807 -0.793318
-0.245977 -0.435656 0.332483 87 5 150 0.000000 0.000000 1.000000
-0.270575 -0.434921 0.332483 87 5 150 0.000000 0.000000 1.000000
-0.201006 -0.432803 0.246586 87 5 150 1.000000 0.000000 0.000000
-0.291567 -0.437374 0.323996 87 5 150 -1.000000 0.000000 0.000000
-0.253917 -0.275977 0.318448 87 5 150 0.000000 0.438981 0.898496
-0.201006 -0.375577 0.302805 87 5 150 1.000000 0.000000 0.000000
-0.286574 -0.304339 0.212771 87 5 150 0.000000 0.439084 -0.898446
-0.201006 -0.352731 0.215142 87 5 150 1.000000 0.000000 0.000000
-0.279173 -0.279342 0.283598 87 5 150 -0.898446 0.439084 0.000000
-0.201006 -0.395191 0.305009 87 5 150 1.000000 0.000000 0.000000
-0.231846 -0.309246 0.332483 87 5 150 0.000000 0.000000 1.000000
-0.211893 -0.282423 0.312207 87 5 150 0.898466 0.439043 0.000000
-0.257578 -0.465558 0.217860 87 5 150 0.000000 -0.608807 -0.793318
-0.205332 -0.295851 0.268588 87 5 150 0.898466 0.439043 0.000000
-0.201006 -0.354005 0.220908 87 5 150 1.000000 0.000000 0.000000
-0.201006 -0.393522 0.286637 87 5 150 1.000000 0.000000 0.000000
-0.272851 -0.383297 0.332483 87 5 150 0.000000 0.000000 1.000000
-0.262242 -0.282369 0.223508 87 5 150 0.000000 0.439084 -0.898446
-0.205852 -0.388658 0.212593 87 5 150 0.000000 0.000000 -1.000000
-0.291567 -0.383130 0.286685 87 5 150 -1.000000 0.000000 0.000000
-0.203906 -0.450332 0.212593 87 5 150 0.000000 0.000000 -1.000000
-0.201468 -0.363164 0.332483 87 5 150 0.000000 0.000000 1.000000
-0.201006 -0.454192 0.263793 87 5 150 1.000000 0.000000 0.000000
-0.257931 -0.448906 0.212593 87 5 150 0.000000 0.000000 -1.000000
-0.234360 -0.279677 0.320256 87 5 150 0.000000 0.438981 0.898496
-0.265776 -0.370370 0.332483 87 5 150 0.000000 0.000000 1.000000
-0.212967 -0.474281 0.286113 87 5 150 0.793339 -0.608780 0.000000
-0.217816 -0.270303 0.315315 87 5 150 0.898466 0.439043 0.000000
-0.201006 -0.415957 0.315945 87 5 150 1.000000 0.000000 0.000000
-0.255478 -0.361727 0.212593 87 5 150 0.000000 0.000000 -1.000000
-0.201006 -0.375208 0.308329 87 5 150 1.000000 0.000000 0.000000
-0.201006 -0.426759 0.256446 87 5 150 1.000000 0.000000 0.000000
-0.235339 -0.494858 0.304732 87 5 150 0.000000 -0.608780 0.793339
-0.291567 -0.351377 0.249022 87 5 150 -1.000000 0.000000 0.000000
-0.261475 -0.271488 0.228826 87 5 150 0.000000 0.439084 -0.898446
-0.220763 -0.350541 0.212593 87 5 150 0.000000 0.000000 -1.000000
-0.291567 -0.381529 0.315194 87 5 150 -1.000000 0.000000 0.000000
-0.201006 -0.416908 0.327765 87 5 150 1.000000 0.000000 0.000000
-0.288370 -0.462860 0.249413 87 5 150 -0.793308 -0.608821 0.000000
-0.222992 -0.339828 0.212593 87 5 150 0.000000 0.000000 -1.000000
-0.291567 -0.404986 0.305664 87 5 150 -1.000000 0.000000 0.000000
-0.255442 -0.325498 0.212593 87 5 150 0.000000 0.000000 -1.000000
-0.206771 -0.466206 0.232960 87 5 150 0.793339 -0.608780 0.000000
-0.291567 -0.373208 0.285437 87 5 150 -1.000000 0.000000 0.000000
-0.201006 -0.349445 0.215629 87 5 150 1.000000 0.000000 0.000000
-0.206928 -0.462152 0.329829 87 5 150 0.000000 -0.608780 0.793339
-0.291567 -0.456349 0.297521 87 5 150 -1.000000 0.000000 0.000000
-0.213373 -0.397568 0.212593 87 5 150 0.000000 0.000000 -1.000000
-0.248402 -0.450386 0.212593 87 5 150 0.000000 0.000000 -1.000000
-0.227191 -0.388544 0.212593 87 5 150 0.000000 0.000000 -1.000000
-0.279252 -0.474741 0.299451 87 5 150 -0.793308 -0.608821 0.000000
-0.201006 -0.314036 0.226176 87 5 150 1.000000 0.000000 0.000000
-0.201006 -0.424517 0.316792 87 5 150 1.000000 0.000000 0.000000
-0.248558 -0.395042 0.332483 87 5 150 0.000000 0.000000 1.000000
-0.213160 -0.279831 0.295307 87 5 150 0.898466 0.439043 0.000000
-0.291567 -0.393862 0.239277 87 5 150 -1.000000 0.000000 0.000000
-0.204251 -0.373427 0.332483 87 5 150 0.000000 0.000000 1.000000
-0.236481 -0.455866 0.332483 87 5 150 0.000000 0.000000 1.000000
-0.240854 -0.475328 0.319719 87 5 150 0.000000 -0.608780 0.793339
-0.201006 -0.336020 0.328852 87 5 150 1.000000 0.000000 0.000000
-0.216555 -0.478957 0.238176 87 5 150 0.793339 -0.608780 0.000000
-0.227703 -0.344385 0.212593 87 5 150 0.000000 0.000000 -1.000000
-0.201006 -0.413247 0.297119 87 5 150 1.000000 0.000000 0.000000
-0.255980 -0.390994 0.212593 87 5 150 0.000000 0.000000 -1.000000
-0.267209 -0.346447 0.212593 87 5 150 0.000000 0.000000 -1.000000
-0.279436 -0.429582 0.212593 87 5 150 0.000000 0.000000 -1.000000
-0.225726 -0.475558 0.225535 87 5 150 0.000000 -0.608807 -0.793318
-0.202521 -0.309794 0.212593 87 5 150 0.000000 0.000000 -1.000000
-0.254680 -0.324294 0.332483 87 5 150 0.000000 0.000000 1.000000
-0.221478 -0.485373 0.211679 87 5 150 -0.793339 0.608780 0.000000
-0.214548 -0.476342 0.226266 87 5 150 0.793339 -0.608780 0.000000
-0.201006 -0.398001 0.219816 87 5 150 1.000000 0.000000 0.000000
-0.201006 -0.382606 0.230254 87 5 150 1.000000 0.000000 0.000000
-0.223973 -0.488623 0.283530 87 5 150 0.793339 -0.608780 0.000000
-0.251388 -0.339352 0.212593 87 5 150 0.000000 0.000000 -1.000000
-0.291567 -0.354163 0.237363 87 5 150 -1.000000 0.000000 0.000000
-0.201006 -0.389371 0.217936 87 5 150 1.000000 0.000000 0.000000
-0.282453 -0.286053 0.291273 87 5 150 -0.898446 0.439084 0.000000
-0.291567 -0.341413 0.252643 87 5 150 -1.000000 0.000000 0.000000
-0.246329 -0.468876 0.324670 87 5 150 0.000000 -0.608780 0.793339
-0.224988 -0.489946 0.297344 87 5 150 0.793339 -0.608780 0.000000
-0.245517 -0.378584 0.332483 87 5 150 0.000000 0.000000 1.000000
-0.201006 -0.454713 0.237480 87 5 150 1.000000 0.000000 0.000000
-0.230113 -0.442782 0.212593 87 5 150 0.000000 0.000000 -1.000000
-0.209931 -0.286439 0.276789 87 5 150 0.898466 0.439043 0.000000
-0.201006 -0.324570 0.221985 87 5 150 1.000000 0.000000 0.000000
-0.201428 -0.459245 0.231684 87 5 150 0.793339 -0.608780 0.000000
-0.214642 -0.401113 0.332483 87 5 150 0.000000 0.000000 1.000000
-0.240468 -0.432178 0.332483 87 5 150 0.000000 0.000000 1.000000
-0.236482 -0.285871 0.323282 87 5 150 0.000000 0.438981 0.898496
-0.262421 -0.302526 0.213657 87 5 150 0.000000 0.439084 -0.898446
-0.283566 -0.314027 0.212593 87 5 150 0.000000 0.000000 -1.000000
-0.204368 -0.297822 0.243891 87 5 150 0.898466 0.439043 0.000000
-0.201006 -0.342792 0.262905 87 5 150 1.000000 0.000000 0.000000
-0.291567 -0.321471 0.221121 87 5 150 -1.000000 0.000000 0.000000
-0.226169 -0.290094 0.325345 87 5 150 0.000000 0.438981 0.898496
-0.291567 -0.405282 0.241756 87 5 150 -1.000000 0.000000 0.000000
-0.222686 -0.486947 0.305681 87 5 150 0.793339 -0.608780 0.000000
-0.201006 -0.400209 0.241043 87 5 150 1.000000 0.000000 0.000000
-0.201006 -0.450771 0.287226 87 5 150 1.000000 0.000000 0.000000
-0.281401 -0.326812 0.332483 87 5 150 0.000000 0.000000 1.000000
-0.201006 -0.353656 0.208928 87 5 150 -1.000000 0.000000 0.000000
-0.201537 -0.303617 0.303100 87 5 150 0.898466 0.439043 0.000000
-0.232105 -0.312710 0.332483 87 5 150 0.000000 0.000000 1.000000
-0.229223 -0.408210 0.212593 87 5 150 0.000000 0.000000 -1.000000
-0.285930 -0.293169 0.227759 87 5 150 -0.898446 0.439084 0.000000
-0.225250 -0.483201 0.231400 87 5 150 0.000000 -0.608807 -0.793318
-0.291567 -0.335459 0.277848 87 5 150 -1.000000 0.000000 0.000000
-0.212824 -0.339655 0.332483 87 5 150 0.000000 0.000000 1.000000
-0.201006 -0.440779 0.223612 87 5 150 1.000000 0.000000 0.000000
-0.201006 -0.454434 0.314543 87 5 150 1.000000 0.000000 0.000000
-0.201006 -0.312912 0.320233 87 5 150 1.000000 0.000000 0.000000
-0.215645 -0.274745 0.308047 87 5 150 0.898466 0.439043 0.000000
-0.201778 -0.303124 0.321016 87 5 150 0.898466 0.439043 0.000000
-0.291567 -0.449134 0.245472 87 5 150 -1.000000 0.000000 0.000000
-0.202019 -0.302630 0.330112 87 5 150 0.898466 0.439043 0.000000
-0.201006 -0.351664 0.241898 87 5 150 1.000000 0.000000 0.000000
-0.201006 -0.414287 0.244298 87 5 150 1.000000 0.000000 0.000000
-0.288131 -0.360087 0.212593 87 5 150 0.000000 0.000000 -1.000000
-0.252555 -0.430391 0.212593 87 5 150 0.000000 0.000000 -1.000000
-0.201006 -0.365329 0.235007 87 5 150 1.000000 0.000000 0.000000
-0.242155 -0.357278 0.212593 87 5 150 0.000000 0.000000 -1.000000
-0.240853 -0.286112 0.323400 87 5 150 0.000000 0.438981 0.898496
-0.271952 -0.458067 0.212593 87 5 150 0.000000 0.000000 -1.000000
-0.291567 -0.367971 0.222957 87 5 150 -1.000000 0.000000 0.000000
-0.291567 -0.333810 0.244028 87 5 150 -1.000000 0.000000 0.000000
-0.224856 -0.489774 0.234374 87 5 150 -0.793339 0.608780 0.000000
-0.291567 -0.428969 0.234633 87 5 150 -1.000000 0.000000 0.000000
-0.279405 -0.319988 0.332483 87 5 150 0.000000 0.000000 1.000000
-0.201006 -0.335957 0.292754 87 5 150 1.000000 0.000000 0.000000
-0.201006 -0.398150 0.309708 87 5 150 1.000000 0.000000 0.000000
-0.230961 -0.320374 0.212593 87 5 150 0.000000 0.000000 -1.000000
-0.201006 -0.431904 0.250619 87 5 150 1.000000 0.000000 0.000000
-0.229278 -0.495965 0.288381 87 5 150 1.000000 0.000000 0.000000
-0.201006 -0.402774 0.217528 87 5 150 1.000000 0.000000 0.000000
-0.291567 -0.312377 0.316884 87 5 150 -1.000000 0.000000 0.000000
-0.201006 -0.392083 0.238062 87 5 150 1.000000 0.000000 0.000000
-0.291567 -0.323755 0.263714 87 5 150 -1.000000 0.000000 0.000000
-0.291567 -0.387112 0.246635 87 5 150 -1.000000 0.000000 0.000000
-0.224309 -0.489062 0.301849 87 5 150 0.793339 -0.608780 0.000000
-0.201006 -0.421155 0.287117 87 5 150 1.000000 0.000000 0.000000
-0.291567 -0.369723 0.291154 87 5 150 -1.000000 0.000000 0.000000
-0.216024 -0.478265 0.261199 87 5 150 0.793339 -0.608780 0.000000
-0.290784 -0.303100 0.277064 87 5 150 -0.898446 0.439084 0.000000
-0.291567 -0.309539 0.244942 87 5 150 -1.000000 0.000000 0.000000
-0.291567 -0.407345 0.223981 87 5 150 -1.000000 0.000000 0.000000
-0.291567 -0.412925 0.253523 87 5 150 -1.000000 0.000000 0.000000
-0.201006 -0.377828 0.225762 87 5 150 1.000000 0.000000 0.000000
-0.240600 -0.280770 0.224289 87 5 150 0.000000 0.439084 -0.898446
-0.291567 -0.322798 0.311285 87 5 150 -1.000000 0.000000 0.000000
-0.276508 -0.273890 0.260592 87 5 150 -0.898446 0.439084 0.000000
-0.201015 -0.312268 0.212593 87 5 150 0.000000 0.000000 -1.000000
-0.201006 -0.419459 0.233508 87 5 150 1.000000 0.000000 0.000000
-0.201006 -0.419464 0.257666 87 5 150 1.000000 0.000000 0.000000
-0.282372 -0.381836 0.212593 87 5 150 0.000000 0.000000 -1.000000
-0.201006 -0.375964 0.222138 87 5 150 1.000000 0.000000 0.000000
-0.237366 -0.287222 0.221136 87 5 150 0.000000 0.439084 -0.898446
-0.248365 -0.459008 0.212834 87 5 150 0.000000 -0.608807 -0.793318
-0.291567 -0.362576 0.247827 87 5 150 -1.000000 0.000000 0.000000
-0.291567 -0.450864 0.243761 87 5 150 -1.000000 0.000000 0.000000
-0.201006 -0.399658 0.298877 87 5 150 1.000000 0.000000 0.000000
-0.216906 -0.326272 0.332483 87 5 150 0.000000 0.000000 1.000000
-0.249648 -0.341492 0.212593 87 5 150 0.000000 0.000000 -1.000000
-0.236987 -0.391258 0.212593 87 5 150 0.000000 0.000000 -1.000000
-0.280170 -0.473544 0.299800 87 5 150 -0.793308 -0.608821 0.000000
-0.231462 -0.271006 0.229061 87 5 150 0.000000 0.439084 -0.898446
-0.223326 -0.487780 0.286095 87 5 150 0.793339 -0.608780 0.000000
-0.215093 -0.440608 0.332483 87 5 150 0.000000 0.000000 1.000000
-0.291567 -0.363878 0.236212 87 5 150 -1.000000 0.000000 0.000000
-0.228954 -0.328271 0.332483 87 5 150 0.000000 0.000000 1.000000
-0.290576 -0.394458 0.332483 87 5 150 0.000000 0.000000 1.000000
-0.201006 -0.433087 0.323319 87 5 150 1.000000 0.000000 0.000000
-0.253531 -0.471486 0.322667 87 5 150 0.000000 -0.608780 0.793339
-0.284795 -0.452758 0.332483 87 5 150 0.000000 0.000000 1.000000
-0.212719 -0.280733 0.274131 87 5 150 0.898466 0.439043 0.000000
-0.209975 -0.462719 0.329395 87 5 150 0.000000 -0.608780 0.793339
-0.207949 -0.407413 0.332483 87 5 150 0.000000 0.000000 1.000000
-0.282021 -0.302467 0.331391 87 5 150 0.000000 0.438981 0.898496
-0.229943 -0.300342 0.330353 87 5 150 0.000000 0.438981 0.898496
-0.242014 -0.330673 0.212593 87 5 150 0.000000 0.000000 -1.000000
-0.206482 -0.293498 0.280541 87 5 150 0.898466 0.439043 0.000000
-0.248818 -0.378087 0.332483 87 5 150 0.000000 0.000000 1.000000
-0.227835 -0.308809 0.212593 87 5 150 0.000000 0.000000 -1.000000
-0.201006 -0.398020 0.283587 87 5 150 1.000000 0.000000 0.000000
-0.291567 -0.337649 0.323693 87 5 150 -1.000000 0.000000 0.000000
-0.275744 -0.381023 0.212593 87 5 150 0.000000 0.000000 -1.000000
-0.210713 -0.343991 0.212593 87 5 150 0.000000 0.000000 -1.000000
-0.223008 -0.487367 0.255237 87 5 150 0.793339 -0.608780 0.000000
-0.279606 -0.413577 0.212593 87 5 150 0.000000 0.000000 -1.000000
-0.266114 -0.357708 0.332483 87 5 150 0.000000 0.000000 1.000000
-0.201006 -0.316460 0.246275 87 5 150 1.000000 0.000000 0.000000
-0.201006 -0.422924 0.327615 87 5 150 1.000000 0.000000 0.000000
-0.202937 -0.300750 0.231135 87 5 150 0.898466 0.439043 0.000000
-0.224946 -0.489891 0.240784 87 5 150 0.793339 -0.608780 0.000000
-0.209025 -0.288293 0.311212 87 5 150 0.898466 0.439043 0.000000
-0.276895 -0.378835 0.332483 87 5 150 0.000000 0.000000 1.000000
-0.207523 -0.467186 0.218252 87 5 150 -0.793339 0.608780 0.000000
-0.291567 -0.383744 0.274689 87 5 150 -1.000000 0.000000 0.000000
-0.218615 -0.449084 0.332483 87 5 150 0.000000 0.000000 1.000000
-0.236925 -0.454751 0.332483 87 5 150 0.000000 0.000000 1.000000
-0.249340 -0.472595 0.223261 87 5 150 0.000000 -0.608807 -0.793318
-0.217357 -0.271242 0.248731 87 5 150 0.898466 0.439043 0.000000
-0.201006 -0.406999 0.300110 87 5 150 1.000000 0.000000 0.000000
-0.213685 -0.475217 0.254505 87 5 150 0.793339 -0.608780 0.000000
-0.201006 -0.427658 0.239475 87 5 150 1.000000 0.000000 0.000000
-0.201006 -0.409827 0.289853 87 5 150 1.000000 0.000000 0.000000
-0.219291 -0.482522 0.209705 87 5 150 -0.793339 0.608780 0.000000
-0.291567 -0.393231 0.214214 87 5 150 -1.000000 0.000000 0.000000
-0.201006 -0.330675 0.232929 87 5 150 1.000000 0.000000 0.000000
-0.201006 -0.439237 0.268979 87 5 150 1.000000 0.000000 0.000000
-0.262105 -0.379127 0.212593 87 5 150 0.000000 0.000000 -1.000000
-0.210828 -0.471494 0.308353 87 5 150 0.793339 -0.608780 0.000000
-0.291567 -0.333148 0.240938 87 5 150 -1.000000 0.000000 0.000000
-0.216210 -0.273590 0.246069 87 5 150 0.898466 0.439043 0.000000
-0.266044 -0.472902 0.223497 87 5 150 0.000000 -0.608807 -0.793318
-0.286954 -0.445708 0.332483 87 5 150 0.000000 0.000000 1.000000
-0.246363 -0.382524 0.212593 87 5 150 0.000000 0.000000 -1.000000
-0.215650 -0.351812 0.212593 87 5 150 0.000000 0.000000 -1.000000
-0.291567 -0.412841 0.273055 87 5 150 -1.000000 0.000000 0.000000
-0.226213 -0.329565 0.332483 87 5 150 0.000000 0.000000 1.000000
-0.291567 -0.407957 0.256077 87 5 150 -1.000000 0.000000 0.000000
-0.217633 -0.270677 0.246340 87 5 150 0.898466 0.439043 0.000000
-0.279274 -0.323133 0.332483 87 5 150 0.000000 0.000000 1.000000
-0.222524 -0.486735 0.210419 87 5 150 -0.793339 0.608780 0.000000
-0.230030 -0.282160 0.321469 87 5 150 0.000000 0.438981 0.898496
-0.291567 -0.408173 0.238750 87 5 150 -1.000000 0.000000 0.000000
-0.234124 -0.476898 0.226563 87 5 150 0.000000 -0.608807 -0.793318
-0.289204 -0.299867 0.261063 87 5 150 -0.898446 0.439084 0.000000
-0.283159 -0.469649 0.237520 87 5 150 -0.793308 -0.608821 0.000000
-0.201006 -0.364077 0.219625 87 5 150 1.000000 0.000000 0.000000
-0.290745 -0.458673 0.332483 87 5 150 0.000000 0.000000 1.000000
-0.232806 -0.443919 0.212593 87 5 150 0.000000 0.000000 -1.000000
-0.203896 -0.424628 0.332483 87 5 150 0.000000 0.000000 1.000000
-0.201006 -0.342019 0.295159 87 5 150 1.000000 0.000000 0.000000
-0.262937 -0.453283 0.332483 87 5 150 0.000000 0.000000 1.000000
-0.291567 -0.349725 0.283450 87 5 150 -1.000000 0.000000 0.000000
-0.223437 -0.487926 0.239671 87 5 150 0.793339 -0.608780 0.000000
-0.291567 -0.385125 0.253807 87 5 150 -1.000000 0.000000 0.000000
-0.268215 -0.464355 0.216937 87 5 150 0.000000 -0.608807 -0.793318
-0.243423 -0.271447 0.228846 87 5 150 0.000000 0.439084 -0.898446
-0.291567 -0.344727 0.234230 87 5 150 -1.000000 0.000000 0.000000
-0.211695 -0.282828 0.260398 87 5 150 0.898466 0.439043 0.000000
-0.291567 -0.386489 0.250843 87 5 150 -1.000000 0.000000 0.000000
-0.215967 -0.274086 0.263475 87 5 150 0.898466 0.439043 0.000000
-0.203751 -0.435147 0.212593 87 5 150 0.000000 0.000000 -1.000000
-0.205340 -0.295833 0.219167 87 5 150 0.898466 0.439043 0.000000
-0.291567 -0.442149 0.285086 87 5 150 -1.000000 0.000000 0.000000
-0.261829 -0.476431 0.226205 87 5 150 0.000000 -0.608807 -0.793318
-0.279564 -0.280144 0.282874 87 5 150 -0.898446 0.439084 0.000000
-0.285579 -0.382184 0.212593 87 5 150 0.000000 0.000000 -1.000000
-0.280266 -0.473420 0.260407 87 5 150 -0.793308 -0.608821 0.000000
-0.291567 -0.372244 0.310157 87 5 150 -1.000000 0.000000 0.000000
-0.291567 -0.402844 0.316046 87 5 150 -1.000000 0.000000 0.000000
-0.266824 -0.450046 0.212593 87 5 150 0.000000 0.000000 -1.000000
-0.280327 -0.284539 0.322631 87 5 150 0.000000 0.438981 0.898496
-0.201006 -0.341193 0.235835 87 5 150 1.000000 0.000000 0.000000
-0.291567 -0.349246 0.264551 87 5 150 -1.000000 0.000000 0.000000
-0.275496 -0.395853 0.212593 87 5 150 0.000000 0.000000 -1.000000
-0.291567 -0.408937 0.223058 87 5 150 -1.000000 0.000000 0.000000
-0.209771 -0.470116 0.221141 87 5 150 -0.793339 0.608780 0.000000
-0.217547 -0.270854 0.276466 87 5 150 0.898466 0.439043 0.000000
-0.203477 -0.394869 0.212593 87 5 150 0.000000 0.000000 -1.000000
-0.269633 -0.487274 0.287196 87 5 150 -0.793308 -0.608821 0.000000
-0.220015 -0.420622 0.212593 87 5 150 0.000000 0.000000 -1.000000
