ply
format ascii 1.0
element vertex 710
property float x
property float y
property float z
property uchar red
property uchar green
property uchar blue
property float nx
property float ny
property float nz
end_header
-0.532231 0.403252 0.150884 158 207 156 -0.971341 -0.198244 0.131134
-0.471128 0.473639 0.083236 158 207 156 0.993882 0.108136 -0.022468
-0.457111 0.424299 -0.268479 158 207 156 0.988603 0.140864 0.053122
-0.469950 0.474968 0.137588 158 207 156 0.993310 0.112713 -0.025126
-0.502489 0.301593 -0.214429 158 207 156 -0.968701 -0.189984 -0.159766
-0.456225 0.389142 0.198803 158 207 156 0.987026 0.144851 -0.069267
-0.468051 0.455029 -0.049905 158 207 156 0.992865 0.114771 0.032352
-0.511334 0.416239 -0.298191 158 207 156 -0.972747 -0.167542 -0.160292
-0.536944 0.431250 0.152812 158 207 156 -0.977367 -0.165942 0.131216
-0.460086 0.448510 -0.346857 158 207 156 0.984649 0.129725 -0.116777
-0.536654 0.380970 -0.051037 158 207 156 -0.979380 -0.194554 -0.054444
-0.458297 0.425209 -0.248710 158 207 156 0.988692 0.140343 0.052833
-0.461121 0.417786 -0.128900 158 207 156 0.993226 0.110275 0.036618
-0.541558 0.406527 0.070360 158 207 156 -0.978369 -0.192283 0.076301
-0.525868 0.482578 -0.277682 158 207 156 -0.975277 -0.151440 -0.160936
-0.464619 0.410811 0.052630 158 207 156 0.992241 0.124292 -0.003100
-0.452228 0.396996 0.275497 158 207 156 0.988158 0.146891 -0.044353
-0.462509 0.422396 0.169043 158 207 156 0.990582 0.128885 -0.046225
-0.508804 0.481369 0.357474 158 207 156 -0.953961 -0.142474 0.263930
-0.459059 0.372363 0.093454 158 207 156 0.990418 0.134865 -0.029717
-0.448574 0.309889 0.147637 158 207 156 0.994059 0.091318 -0.059233
-0.487498 0.482875 -0.372287 158 207 156 0.027113 0.150776 0.988196
-0.469030 0.466699 0.136861 158 207 156 0.993310 0.112713 -0.025126
-0.546546 0.456402 -0.099336 158 207 156 -0.977500 -0.176566 -0.115403
-0.461339 0.427605 -0.166065 158 207 156 0.993552 0.111104 0.022591
-0.496463 0.438992 0.373627 158 207 156 -0.928345 -0.175887 0.327474
-0.492770 0.308691 -0.282317 158 207 156 -0.969638 -0.189534 -0.154528
-0.502674 0.455732 0.365011 158 207 156 -0.928345 -0.175887 0.327474
-0.473158 0.453254 0.375809 158 207 156 0.256290 0.197979 -0.946108
-0.506246 0.473182 -0.368851 158 207 156 -0.931692 -0.159908 -0.326159
-0.532668 0.461678 0.218859 158 207 156 -0.973884 -0.170294 0.150164
-0.453161 0.326512 -0.340196 158 207 156 -0.595561 0.097752 0.797340
-0.462002 0.459374 -0.273843 158 207 156 0.987911 0.148652 0.043989
-0.461057 0.388882 -0.032832 158 207 156 0.993169 0.113533 0.026945
-0.498314 0.305764 -0.244706 158 207 156 -0.968701 -0.189984 -0.159766
-0.534695 0.394207 -0.104567 158 207 156 -0.977500 -0.176566 -0.115403
-0.441569 0.331028 0.291591 158 207 156 0.989933 0.141532 0.001127
-0.503742 0.378297 -0.300338 158 207 156 -0.970475 -0.174916 -0.166081
-0.468851 0.484151 -0.144937 158 207 156 0.991338 0.130078 0.018115
-0.504551 0.433240 0.343338 158 207 156 -0.951961 -0.168838 0.255470
-0.527457 0.395881 0.174498 158 207 156 -0.970385 -0.191123 0.147732
-0.516452 0.364426 -0.204634 158 207 156 -0.972133 -0.189277 -0.138315
-0.447961 0.344269 -0.228022 158 207 156 0.987574 0.139824 0.071736
-0.556639 0.488412 -0.051847 158 207 156 -0.981098 -0.182272 -0.064995
-0.483178 0.445959 -0.366466 158 207 156 0.130475 0.167522 0.977196
-0.465956 0.438176 -0.054418 158 207 156 0.992865 0.114771 0.032352
-0.461623 0.464980 -0.321551 158 207 156 0.988851 0.146087 -0.028846
-0.461502 0.440340 -0.222929 158 207 156 0.990842 0.131406 0.031057
-0.439824 0.301663 -0.251842 158 207 156 0.986752 0.133049 0.092840
-0.462996 0.414386 0.134150 158 207 156 0.989551 0.137455 -0.043539
-0.526080 0.449920 0.247143 158 207 156 -0.970515 -0.168253 0.172600
-0.470686 0.486313 0.175274 158 207 156 0.990296 0.134172 -0.036229
-0.460238 0.413817 -0.146695 158 207 156 0.993565 0.110996 0.022569
-0.519660 0.415098 0.247135 158 207 156 -0.969200 -0.184818 0.162768
-0.523971 0.309937 -0.016857 158 207 156 -0.986807 -0.161486 -0.011595
-0.538882 0.475892 -0.184676 158 207 156 -0.976694 -0.163056 -0.139578
-0.534977 0.364439 0.009228 158 207 156 -0.980122 -0.198143 0.010032
-0.487425 0.311921 0.310688 158 207 156 -0.961291 -0.202408 0.186950
-0.537055 0.420854 -0.125342 158 207 156 -0.977500 -0.176566 -0.115403
-0.459066 0.376496 0.105486 158 207 156 0.989496 0.137104 -0.045833
-0.449350 0.382939 0.320139 158 207 156 0.989634 0.142849 0.014762
-0.499430 0.339525 0.277389 158 207 156 -0.963968 -0.197515 0.178193
-0.448649 0.373253 0.336058 158 207 156 0.987068 0.128488 0.095857
-0.550327 0.478135 0.109886 158 207 156 -0.978044 -0.169042 0.121878
-0.539380 0.420359 -0.104894 158 207 156 -0.977500 -0.176566 -0.115403
-0.505387 0.338449 0.242624 158 207 156 -0.968055 -0.193712 0.159203
-0.472109 0.480858 0.074616 158 207 156 0.993882 0.108136 -0.022468
-0.521285 0.461030 -0.284997 158 207 156 -0.974071 -0.154617 -0.165166
-0.525277 0.339424 0.100394 158 207 156 -0.973022 -0.206883 0.102119
-0.549593 0.438901 0.013341 158 207 156 -0.983398 -0.181115 0.011194
-0.461570 0.454374 -0.266659 158 207 156 0.987911 0.148652 0.043989
-0.464696 0.423509 -0.041036 158 207 156 0.992865 0.114771 0.032352
-0.511761 0.341431 -0.205491 158 207 156 -0.969534 -0.193736 -0.149899
-0.529393 0.460718 0.238832 158 207 156 -0.973975 -0.162210 0.158308
-0.528126 0.373455 0.137416 158 207 156 -0.969863 -0.202793 0.135055
-0.529833 0.483650 -0.253478 158 207 156 -0.976080 -0.152443 -0.155016
-0.450023 0.375618 0.259446 158 207 156 0.985421 0.152635 -0.075148
-0.456984 0.363441 0.111576 158 207 156 0.989612 0.135970 -0.046699
-0.510722 0.360378 0.236860 158 207 156 -0.968055 -0.193712 0.159203
-0.526373 0.333334 0.071585 158 207 156 -0.976257 -0.203954 0.072979
-0.464382 0.428003 -0.071215 158 207 156 0.993226 0.110275 0.036618
-0.522746 0.546471 -0.349796 84 148 76 -0.961855 -0.152334 -0.227222
-0.479608 0.575958 0.290151 84 148 76 0.983163 0.171519 -0.063026
-0.541305 0.511138 -0.206770 84 148 76 -0.978003 -0.152382 -0.142440
-0.492779 0.642053 -0.260305 84 148 76 0.980297 0.196898 0.015748
-0.482151 0.559585 -0.084708 84 148 76 0.983904 0.174780 0.037209
-0.531684 0.584705 -0.333799 84 148 76 -0.973441 -0.147823 -0.174815
-0.523667 0.654550 0.386643 84 148 76 -0.922896 -0.123863 0.364584
-0.496230 0.619833 0.093827 84 148 76 0.974148 0.224940 -0.020921
-0.559976 0.559055 0.144686 84 148 76 -0.975107 -0.171172 0.140950
-0.499496 0.669282 -0.205536 84 148 76 0.975087 0.219594 0.031354
-0.495781 0.614923 0.053002 84 148 76 0.975566 0.219658 -0.004625
-0.533918 0.510251 -0.379808 84 148 76 -0.565004 0.014942 0.824953
-0.481516 0.542512 0.025131 84 148 76 0.984882 0.173088 0.006954
-0.472377 0.497770 -0.087491 84 148 76 0.989646 0.139817 0.032438
-0.525758 0.489068 -0.284448 84 148 76 -0.975277 -0.151440 -0.160936
-0.554325 0.675848 0.283109 84 148 76 -0.961579 -0.152867 0.228031
-0.469098 0.507704 -0.276882 84 148 76 0.987107 0.156963 0.031339
-0.493630 0.605620 0.008098 84 148 76 0.977853 0.209065 0.009784
-0.537721 0.568506 0.284935 84 148 76 -0.969818 -0.133949 0.203743
-0.570253 0.637659 -0.143506 84 148 76 -0.974646 -0.146934 -0.168749
-0.475144 0.510897 -0.057369 84 148 76 0.990462 0.134831 0.028374
-0.569577 0.578772 -0.086521 84 148 76 -0.982050 -0.150798 -0.113300
-0.535304 0.668199 -0.373053 84 148 76 -0.928005 -0.117719 -0.353482
-0.489174 0.640438 0.312551 84 148 76 0.983963 0.163346 -0.071665
-0.542802 0.536796 0.233381 84 148 76 -0.975035 -0.146687 0.166704
-0.474129 0.542145 -0.334543 84 148 76 0.986373 0.162234 -0.027344
-0.472390 0.518861 -0.223989 84 148 76 0.989825 0.140943 0.019551
-0.581661 0.627540 -0.033230 84 148 76 -0.986285 -0.150000 -0.068856
-0.579699 0.611248 -0.015918 84 148 76 -0.988274 -0.149672 -0.030224
-0.498218 0.627537 0.086359 84 148 76 0.966516 0.255836 -0.019882
-0.500479 0.529868 0.386158 84 148 76 0.007371 0.135037 -0.990813
-0.530165 0.511262 0.280755 84 148 76 -0.971010 -0.146007 0.189264
-0.547984 0.637996 -0.281438 84 148 76 -0.979704 -0.140091 -0.143366
-0.567954 0.540771 0.040092 84 148 76 -0.982882 -0.169430 0.072361
-0.545392 0.670717 0.317338 84 148 76 -0.961579 -0.152867 0.228031
-0.544114 0.584386 -0.256021 84 148 76 -0.978603 -0.137162 -0.153373
-0.497165 0.622178 0.075586 84 148 76 0.975238 0.219857 -0.023960
-0.488164 0.582721 -0.033801 84 148 76 0.982550 0.184083 0.026643
-0.508409 0.517550 -0.384270 84 148 76 -0.929432 -0.153389 -0.335600
-0.480406 0.576700 0.282622 84 148 76 0.981283 0.171300 -0.087977
-0.548288 0.660445 -0.303395 84 148 76 -0.976864 -0.154316 -0.148062
-0.478084 0.577945 0.322123 84 148 76 0.985299 0.162275 -0.053413
-0.478484 0.564330 -0.271848 84 148 76 0.987135 0.158323 0.022316
-0.472146 0.529931 -0.308077 84 148 76 0.986099 0.164905 0.020378
-0.502107 0.644502 0.117028 84 148 76 0.966370 0.255794 -0.026437
-0.483647 0.578297 0.242412 84 148 76 0.979940 0.194907 -0.041587
-0.488690 0.639846 0.317834 84 148 76 0.983963 0.163346 -0.071665
-0.501112 0.637436 0.073049 84 148 76 0.966516 0.255836 -0.019882
-0.548329 0.654715 0.398602 84 148 76 -0.223823 -0.057974 -0.972904
-0.489827 0.650669 0.361626 84 148 76 0.986947 0.155813 0.040726
-0.482421 0.547808 0.021463 84 148 76 0.984882 0.173088 0.006954
-0.467112 0.497197 -0.341002 84 148 76 0.987482 0.153239 -0.037381
-0.526175 0.620801 0.365170 84 148 76 -0.957268 -0.129643 0.258518
-0.531778 0.491880 0.392460 84 148 76 -0.910194 -0.069402 -0.408327
-0.544543 0.517251 -0.191076 84 148 76 -0.978003 -0.152382 -0.142440
-0.539838 0.547739 0.398248 84 148 76 -0.905940 -0.095641 -0.412463
-0.525333 0.596624 0.356164 84 148 76 -0.957268 -0.129643 0.258518
-0.561219 0.513767 -0.054140 84 148 76 -0.980179 -0.184571 -0.071989
-0.478162 0.552682 0.255064 84 148 76 0.981686 0.177693 -0.068689
-0.478903 0.532589 -0.044471 84 148 76 0.986146 0.163489 0.028055
-0.489169 0.595457 0.176300 84 148 76 0.973478 0.228411 -0.012974
-0.482515 0.549654 -0.012841 84 148 76 0.986661 0.162780 0.001425
-0.525869 0.578173 -0.357313 84 148 76 -0.961425 -0.148465 -0.231561
-0.561717 0.549155 -0.109838 84 148 76 -0.978463 -0.153845 -0.137629
-0.505075 0.653736 0.091068 84 148 76 0.965519 0.259811 -0.016441
-0.554716 0.541920 0.161123 84 148 76 -0.976305 -0.163972 0.141216
-0.537285 0.551865 0.394765 84 148 76 -0.580062 0.014647 -0.814440
-0.481158 0.554987 0.168917 84 148 76 0.981844 0.189357 -0.011219
-0.470606 0.506460 0.244703 84 148 76 0.984608 0.162319 -0.064803
-0.554761 0.646626 0.404579 84 148 76 -0.881973 -0.138139 -0.450600
-0.485050 0.571926 0.126584 84 148 76 0.981602 0.189553 -0.022962
-0.557220 0.677793 0.272208 84 148 76 -0.961579 -0.152867 0.228031
-0.559561 0.568859 0.159464 84 148 76 -0.975107 -0.171172 0.140950
-0.556843 0.514924 0.109102 84 148 76 -0.976618 -0.177245 0.121664
-0.529922 0.514901 0.284812 84 148 76 -0.971010 -0.146007 0.189264
-0.483099 0.586711 -0.361799 84 148 76 0.982112 0.170844 -0.079175
-0.469041 0.489067 -0.171483 84 148 76 0.991967 0.125839 0.012850
-0.567223 0.669763 -0.191658 84 148 76 -0.970266 -0.172568 -0.169717
-0.472286 0.508698 -0.141152 84 148 76 0.989039 0.146506 0.018388
-0.516552 0.571803 -0.386143 84 148 76 -0.934035 -0.147181 -0.325448
-0.546204 0.576548 0.248024 84 148 76 -0.971892 -0.145955 0.184725
-0.548535 0.558460 -0.204361 84 148 76 -0.979818 -0.132153 -0.149971
-0.561481 0.652516 -0.208375 84 148 76 -0.973168 -0.168622 -0.156560
-0.587240 0.658458 -0.014839 84 148 76 -0.981610 -0.188747 -0.028589
-0.470954 0.516764 -0.356568 84 148 76 0.984256 0.146943 -0.098223
-0.546757 0.555102 0.226357 84 148 76 -0.975035 -0.146687 0.166704
-0.470838 0.511578 0.253944 84 148 76 0.985017 0.157974 -0.069179
-0.470016 0.518836 -0.321334 84 148 76 0.986099 0.164905 0.020378
-0.556212 0.633195 -0.394197 84 148 76 -0.561885 -0.102007 0.820902
-0.505044 0.675450 0.215567 84 148 76 0.972413 0.216237 -0.087485
-0.564926 0.676500 -0.212492 84 148 76 -0.973783 -0.166108 -0.155419
-0.490799 0.654825 0.324737 84 148 76 0.982129 0.187348 -0.017973
-0.571260 0.622693 -0.122880 84 148 76 -0.976848 -0.150209 -0.152332
-0.482137 0.587238 -0.279962 84 148 76 0.982833 0.183212 0.021730
-0.479058 0.542876 0.169721 84 148 76 0.987602 0.156479 -0.012516
-0.539057 0.566958 0.277516 84 148 76 -0.970149 -0.133530 0.202437
-0.489195 0.616011 0.261127 84 148 76 0.981283 0.171300 -0.087977
-0.566653 0.529466 0.007242 84 148 76 -0.982657 -0.184839 0.014824
-0.565973 0.663096 -0.192026 84 148 76 -0.970266 -0.172568 -0.169717
-0.484236 0.578997 0.231787 84 148 76 0.979940 0.194907 -0.041587
-0.564989 0.529347 -0.042764 84 148 76 -0.980179 -0.184571 -0.071989
-0.563373 0.518508 -0.036972 84 148 76 -0.980179 -0.184571 -0.071989
-0.482552 0.548396 0.025504 84 148 76 0.984882 0.173088 0.006954
-0.579538 0.624964 0.077818 84 148 76 -0.981027 -0.169798 0.093568
-0.531928 0.537095 0.291420 84 148 76 -0.969167 -0.138630 0.203706
-0.546111 0.536385 -0.200299 84 148 76 -0.978057 -0.142215 -0.152250
-0.511285 0.510904 -0.372952 84 148 76 -0.931692 -0.159908 -0.326159
-0.557817 0.518706 -0.099313 84 148 76 -0.978320 -0.177162 -0.107252
-0.486907 0.495528 -0.375100 84 148 76 0.279634 0.196192 0.939848
-0.549474 0.623833 -0.257418 84 148 76 -0.979704 -0.140091 -0.143366
-0.490652 0.594875 -0.032128 84 148 76 0.977794 0.207913 0.026300
-0.551793 0.545517 0.185252 84 148 76 -0.976017 -0.158444 0.149285
-0.472824 0.498166 -0.075291 84 148 76 0.989679 0.139802 0.031482
-0.497026 0.506708 -0.375684 84 148 76 0.021711 0.151761 0.988179
-0.488621 0.619642 0.274934 84 148 76 0.979296 0.182638 -0.087307
-0.473511 0.523051 0.241746 84 148 76 0.983113 0.177081 -0.046172
-0.466440 0.502929 0.340322 84 148 76 0.990452 0.134160 0.031717
-0.548440 0.669441 -0.388438 84 148 76 -0.198220 -0.053934 0.978673
-0.480274 0.566190 -0.178853 84 148 76 0.987518 0.156476 0.018001
-0.551699 0.647649 0.273899 84 148 76 -0.962652 -0.169674 0.210977
-0.540475 0.518188 -0.219507 84 148 76 -0.978057 -0.142215 -0.152250
-0.513403 0.518448 0.360729 84 148 76 -0.958988 -0.131923 0.250874
-0.510329 0.606094 0.394639 84 148 76 0.002311 0.088344 -0.996087
-0.524301 0.603720 0.394765 84 148 76 -0.056721 0.079178 -0.995245
-0.574285 0.604547 0.095913 84 148 76 -0.981161 -0.169010 0.093585
-0.500453 0.656638 0.220931 84 148 76 0.978985 0.182521 -0.090960
-0.479938 0.575810 -0.335903 84 148 76 0.984306 0.172229 -0.038455
-0.556556 0.489837 -0.057087 84 148 76 -0.981098 -0.182272 -0.064995
-0.583293 0.634023 -0.011417 84 148 76 -0.988223 -0.150263 -0.028918
-0.465210 0.494534 0.337415 84 148 76 0.990452 0.134160 0.031717
-0.562668 0.532989 -0.078661 84 148 76 -0.978320 -0.177162 -0.107252
-0.479913 0.545259 -0.079565 84 148 76 0.986586 0.158847 0.037618
-0.493010 0.601543 0.030062 84 148 76 0.977191 0.212012 0.012160
-0.482012 0.602149 0.323602 84 148 76 0.983963 0.163346 -0.071665
-0.489786 0.649193 0.326235 84 148 76 0.986887 0.160389 -0.018131
-0.476097 0.549467 0.275142 84 148 76 0.981977 0.173495 -0.074972
-0.497261 0.622339 0.009077 84 148 76 0.977191 0.212012 0.012160
-0.555914 0.642256 -0.232330 84 148 76 -0.976142 -0.148995 -0.157947
-0.479314 0.537604 -0.059232 84 148 76 0.986146 0.163489 0.028055
-0.491237 0.655485 0.375485 84 148 76 0.981709 0.186279 0.039351
-0.548393 0.558840 -0.205629 84 148 76 -0.979818 -0.132153 -0.149971
-0.576860 0.590746 -0.007231 84 148 76 -0.988274 -0.149672 -0.030224
-0.487442 0.581348 0.104058 84 148 76 0.981057 0.192142 -0.024676
-0.477241 0.527732 0.128778 84 148 76 0.987874 0.154587 -0.014390
-0.524679 0.532551 -0.329303 84 148 76 -0.973376 -0.145425 -0.177176
-0.485677 0.570280 0.088070 84 148 76 0.981057 0.192142 -0.024676
-0.538478 0.534340 0.398405 84 148 76 -0.909056 -0.098219 -0.404933
-0.527385 0.567273 0.331456 84 148 76 -0.965602 -0.131961 0.224052
-0.496680 0.662929 -0.288197 84 148 76 0.976449 0.215723 0.003381
-0.517575 0.592469 -0.392048 84 148 76 -0.929041 -0.138055 -0.343254
-0.541556 0.507686 -0.201351 84 148 76 -0.978003 -0.152382 -0.142440
-0.478709 0.534106 0.108995 84 148 76 0.986896 0.159620 -0.023634
-0.569707 0.677219 0.215981 84 148 76 -0.962022 -0.170655 0.213050
-0.500785 0.674006 -0.198540 84 148 76 0.975087 0.219594 0.031354
-0.469074 0.508419 0.368718 84 148 76 0.988055 0.126802 0.087571
-0.477266 0.550159 -0.367920 84 148 76 0.982704 0.152164 -0.105539
-0.491765 0.599443 -0.026953 84 148 76 0.977558 0.208917 0.027083
-0.520760 0.500167 -0.323478 84 148 76 -0.970830 -0.151079 -0.186182
-0.558827 0.489330 0.025507 84 148 76 -0.982553 -0.185499 0.013441
-0.479811 0.583597 0.371017 84 148 76 0.988677 0.140095 0.053774
-0.517404 0.511913 0.341863 84 148 76 -0.965602 -0.131961 0.224052
-0.571762 0.670765 0.198893 84 148 76 -0.963583 -0.193604 0.184461
-0.482268 0.548187 -0.015825 84 148 76 0.986661 0.162780 0.001425
-0.560987 0.514838 -0.060331 84 148 76 -0.981098 -0.182272 -0.064995
-0.581318 0.622888 -0.021084 84 148 76 -0.988223 -0.150263 -0.028918
-0.578819 0.605991 0.040263 84 148 76 -0.986313 -0.155038 0.056131
-0.561928 0.506308 0.031751 84 148 76 -0.982657 -0.184839 0.014824
-0.474674 0.546664 -0.327384 84 148 76 0.986373 0.162234 -0.027344
-0.564398 0.616533 -0.158927 84 148 76 -0.974646 -0.146934 -0.168749
-0.474079 0.509560 0.160881 84 148 76 0.991022 0.132858 -0.014964
-0.498206 0.625943 0.064777 84 148 76 0.975566 0.219658 -0.004625
-0.473870 0.497641 0.089619 84 148 76 0.991558 0.127750 -0.022197
-0.558061 0.618917 -0.399462 84 148 76 -0.893136 -0.104662 0.437441
-0.487636 0.588903 0.175835 84 148 76 0.973478 0.228411 -0.012974
-0.483479 0.586566 -0.184236 84 148 76 0.984110 0.177082 0.013044
-0.503005 0.645950 0.000391 84 148 76 0.968825 0.247451 0.012091
-0.478661 0.582867 0.350108 84 148 76 0.988179 0.152973 -0.010031
-0.469183 0.514004 -0.323094 84 148 76 0.986373 0.162234 -0.027344
-0.546053 0.573091 0.246087 84 148 76 -0.971892 -0.145955 0.184725
-0.577014 0.595208 0.042186 84 148 76 -0.986313 -0.155038 0.056131
-0.472955 0.534659 -0.336606 84 148 76 0.986373 0.162234 -0.027344
-0.491107 0.643526 0.292771 84 148 76 0.983721 0.167455 -0.065206
-0.537100 0.491708 0.223168 84 148 76 -0.973975 -0.162210 0.158308
-0.490434 0.591349 0.063935 84 148 76 0.977116 0.212273 -0.013602
-0.477893 0.552698 -0.192226 84 148 76 0.987518 0.156476 0.018001
-0.474770 0.497681 0.023461 84 148 76 0.992062 0.125740 0.001365
-0.577848 0.646990 0.130342 84 148 76 -0.975200 -0.185465 0.120776
-0.571179 0.568015 0.064321 84 148 76 -0.982322 -0.177390 0.059809
-0.559834 0.505388 0.064367 84 148 76 -0.982589 -0.177958 0.053388
-0.475934 0.507817 -0.012342 84 148 76 0.990837 0.134842 0.007736
-0.555146 0.515609 0.123726 84 148 76 -0.976618 -0.177245 0.121664
-0.497430 0.634787 -0.088377 84 148 76 0.972314 0.229544 0.043771
-0.539792 0.650244 0.327875 84 148 76 -0.964579 -0.143259 0.221505
-0.569137 0.548862 -0.034427 84 148 76 -0.983470 -0.166767 -0.070542
-0.494527 0.627753 -0.112602 84 148 76 0.973503 0.221860 0.055402
-0.505048 0.496505 0.376426 84 148 76 -0.927005 -0.146359 0.345312
-0.489422 0.604647 -0.391932 84 148 76 0.969819 0.155143 -0.188101
-0.466468 0.495517 -0.330848 84 148 76 0.987482 0.153239 -0.037381
-0.548756 0.610893 -0.249819 84 148 76 -0.979296 -0.138519 -0.147619
-0.496569 0.623461 -0.038822 84 148 76 0.977558 0.208917 0.027083
-0.564105 0.520176 0.040095 84 148 76 -0.980617 -0.185122 0.064188
-0.490310 0.652966 0.332109 84 148 76 0.982129 0.187348 -0.017973
-0.490937 0.601401 0.148217 84 148 76 0.973478 0.228411 -0.012974
-0.467481 0.496086 -0.274242 84 148 76 0.988370 0.146170 0.041943
-0.581010 0.617214 0.009364 84 148 76 -0.988604 -0.149948 0.013354
-0.529798 0.574041 -0.335281 84 148 76 -0.973441 -0.147823 -0.174815
-0.497093 0.620869 0.058738 84 148 76 0.975566 0.219658 -0.004625
-0.562086 0.600818 0.178500 84 148 76 -0.975024 -0.164725 0.148978
-0.546043 0.551504 -0.214306 84 148 76 -0.978603 -0.137162 -0.153373
-0.574432 0.574891 0.019749 84 148 76 -0.985508 -0.169107 0.013311
-0.475360 0.526789 -0.126665 84 148 76 0.988718 0.146741 0.030064
-0.541359 0.518301 -0.388073 84 148 76 -0.903030 -0.098197 0.418204
-0.572944 0.644042 0.159882 84 148 76 -0.971228 -0.183606 0.151676
-0.468744 0.509797 -0.309714 84 148 76 0.986099 0.164905 0.020378
-0.476565 0.537521 -0.140653 84 148 76 0.989039 0.146506 0.018388
-0.480525 0.572787 -0.234067 84 148 76 0.987246 0.158591 0.013952
-0.492663 0.605292 -0.039716 84 148 76 0.977794 0.207913 0.026300
-0.527075 0.667379 0.382375 84 148 76 -0.922896 -0.123863 0.364584
-0.549510 0.601465 0.406217 84 148 76 -0.899321 -0.104691 -0.424572
-0.507285 0.668959 0.155231 84 148 76 0.963334 0.264552 -0.044713
-0.501943 0.653480 -0.086922 84 148 76 0.969919 0.237499 0.053402
-0.479991 0.576857 -0.293375 84 148 76 0.985662 0.168455 0.009668
-0.480391 0.583112 0.297411 84 148 76 0.983163 0.171519 -0.063026
-0.472980 0.498913 0.139124 84 148 76 0.991022 0.132858 -0.014964
-0.534314 0.619443 0.331962 84 148 76 -0.967538 -0.128942 0.217358
-0.558904 0.628821 -0.201179 84 148 76 -0.976142 -0.148995 -0.157947
-0.478469 0.525135 -0.012488 84 148 76 0.986661 0.162780 0.001425
-0.501050 0.637179 0.050409 84 148 76 0.970441 0.241299 -0.004334
-0.582636 0.677493 -0.109624 84 148 76 -0.971346 -0.180731 -0.154350
-0.488584 0.587016 -0.047958 84 148 76 0.982550 0.184083 0.026643
-0.478527 0.535776 0.127875 84 148 76 0.986896 0.159620 -0.023634
-0.582739 0.628791 0.013533 84 148 76 -0.987955 -0.154724 0.002523
-0.531648 0.520467 -0.278258 84 148 76 -0.976080 -0.152443 -0.155016
-0.540566 0.554883 0.398191 84 148 76 -0.905940 -0.095641 -0.412463
-0.465331 0.496824 0.329260 84 148 76 0.988965 0.147064 0.017875
-0.549195 0.507422 0.158164 84 148 76 -0.977378 -0.167125 0.129620
-0.577466 0.647906 0.134823 84 148 76 -0.975200 -0.185465 0.120776
-0.474692 0.502366 0.080122 84 148 76 0.991558 0.127750 -0.022197
-0.548294 0.592631 -0.236052 84 148 76 -0.979818 -0.132153 -0.149971
-0.548856 0.508981 -0.152843 84 148 76 -0.977823 -0.152577 -0.143469
-0.483877 0.571211 0.195463 84 148 76 0.983221 0.181782 -0.015224
-0.473256 0.520139 -0.373858 84 148 76 0.982704 0.152164 -0.105539
-0.569917 0.615007 -0.124079 84 148 76 -0.978188 -0.147447 -0.146313
-0.527973 0.553648 -0.328524 84 148 76 -0.973376 -0.145425 -0.177176
-0.484434 0.600897 -0.291416 84 148 76 0.983018 0.183463 0.004044
-0.578479 0.603002 0.037966 84 148 76 -0.986313 -0.155038 0.056131
-0.525762 0.606967 -0.375612 84 148 76 -0.934035 -0.147181 -0.325448
-0.481750 0.555241 -0.074920 84 148 76 0.983904 0.174780 0.037209
-0.469166 0.516464 0.290810 84 148 76 0.984071 0.172524 -0.042886
-0.561453 0.570908 -0.136023 84 148 76 -0.978463 -0.153845 -0.137629
-0.522577 0.569087 -0.365155 84 148 76 -0.961425 -0.148465 -0.231561
-0.507031 0.536815 0.387415 84 148 76 -0.923864 -0.138385 0.356826
-0.516884 0.608943 0.387815 84 148 76 -0.928296 -0.127386 0.349341
-0.490181 0.599169 0.165658 84 148 76 0.973478 0.228411 -0.012974
-0.552049 0.554177 0.192765 84 148 76 -0.976017 -0.158444 0.149285
-0.578643 0.605245 0.041275 84 148 76 -0.986313 -0.155038 0.056131
-0.563125 0.546147 -0.095555 84 148 76 -0.980777 -0.162805 -0.107565
-0.475910 0.535848 -0.375927 84 148 76 0.982704 0.152164 -0.105539
-0.528386 0.520533 0.297001 84 148 76 -0.969167 -0.138630 0.203706
-0.532972 0.550713 -0.297355 84 148 76 -0.975714 -0.145461 -0.163778
-0.552250 0.489493 -0.101377 84 148 76 -0.974588 -0.177256 -0.136960
-0.538689 0.577639 -0.285128 84 148 76 -0.979056 -0.138247 -0.149456
-0.534305 0.496115 -0.237581 84 148 76 -0.976080 -0.152443 -0.155016
-0.559722 0.520751 0.093263 84 148 76 -0.978672 -0.177193 0.103944
-0.489392 0.607002 -0.126840 84 148 76 0.978055 0.200573 0.056375
-0.559382 0.630745 0.224007 84 148 76 -0.968504 -0.159327 0.191348
-0.544565 0.519383 -0.193211 84 148 76 -0.978003 -0.152382 -0.142440
-0.518761 0.580099 0.372211 84 148 76 -0.957268 -0.129643 0.258518
-0.546459 0.530940 0.204649 84 148 76 -0.976017 -0.158444 0.149285
-0.469858 0.500510 -0.219327 84 148 76 0.989216 0.144711 0.022604
-0.478151 0.532691 -0.071466 84 148 76 0.986146 0.163489 0.028055
-0.545277 0.522176 -0.191306 84 148 76 -0.978003 -0.152382 -0.142440
-0.555716 0.555217 -0.157149 84 148 76 -0.976503 -0.153663 -0.151096
-0.472067 0.519837 -0.246398 84 148 76 0.989216 0.144711 0.022604
-0.557422 0.544245 0.144978 84 148 76 -0.976576 -0.171868 0.129460
-0.523551 0.554030 0.390137 84 148 76 -0.056924 0.124631 -0.990569
-0.541930 0.635914 -0.319343 84 148 76 -0.974481 -0.144920 -0.171421
-0.475572 0.540087 0.259497 84 148 76 0.981686 0.177693 -0.068689
-0.511060 0.527003 -0.378163 84 148 76 0.021742 0.135032 0.990603
-0.536209 0.595894 -0.318042 84 148 76 -0.974481 -0.144920 -0.171421
-0.529305 0.642491 -0.379878 84 148 76 -0.932742 -0.130428 -0.336127
-0.558204 0.488994 -0.030402 84 148 76 -0.982421 -0.184588 -0.027867
-0.472516 0.543668 0.348122 84 148 76 0.989672 0.142505 0.015543
-0.474528 0.508285 0.121953 84 148 76 0.991600 0.127778 -0.020047
-0.475315 0.503151 -0.010395 84 148 76 0.990837 0.134842 0.007736
-0.543178 0.532629 -0.215639 84 148 76 -0.978057 -0.142215 -0.152250
-0.537096 0.506096 -0.381835 84 148 76 -0.557359 0.043435 0.829135
-0.543779 0.569513 0.255226 84 148 76 -0.971892 -0.145955 0.184725
-0.482578 0.588676 -0.272126 84 148 76 0.982833 0.183212 0.021730
-0.471159 0.511685 -0.233909 84 148 76 0.989216 0.144711 0.022604
-0.477408 0.540126 -0.124381 84 148 76 0.988718 0.146741 0.030064
-0.504744 0.668017 -0.100927 84 148 76 0.968349 0.243888 0.053098
-0.561010 0.506304 -0.037854 84 148 76 -0.980179 -0.184571 -0.071989
-0.481310 0.564963 0.237256 84 148 76 0.982071 0.182217 -0.048315
-0.553237 0.542601 -0.160338 84 148 76 -0.976503 -0.153663 -0.151096
-0.556142 0.628164 -0.394759 84 148 76 -0.560965 -0.016675 0.827671
-0.535138 0.586557 0.395006 84 148 76 -0.225153 0.051092 -0.972983
-0.484801 0.600104 -0.265128 84 148 76 0.984329 0.175754 0.014401
-0.529006 0.489564 -0.264579 84 148 76 -0.976647 -0.151097 -0.152741
-0.584673 0.644102 -0.016643 84 148 76 -0.988223 -0.150263 -0.028918
-0.568725 0.603793 0.138490 84 148 76 -0.975107 -0.171172 0.140950
-0.487603 0.581942 -0.049091 84 148 76 0.982550 0.184083 0.026643
-0.510203 0.676308 0.135926 84 148 76 0.963302 0.264550 -0.045420
-0.482796 0.557804 -0.058782 84 148 76 0.982378 0.184910 0.027244
-0.544745 0.602968 -0.269346 84 148 76 -0.979704 -0.140091 -0.143366
-0.491585 0.603432 -0.065094 84 148 76 0.977794 0.207913 0.026300
-0.484729 0.595779 -0.215018 84 148 76 0.984110 0.177082 0.013044
-0.477732 0.528810 -0.063618 84 148 76 0.986146 0.163489 0.028055
-0.501590 0.645825 0.152363 84 148 76 0.967006 0.253811 -0.021897
-0.491206 0.627657 -0.188700 84 148 76 0.980203 0.196747 0.022176
-0.537162 0.522935 0.253124 84 148 76 -0.972035 -0.145963 0.183965
-0.531463 0.501055 0.265877 84 148 76 -0.972035 -0.145963 0.183965
-0.585172 0.658338 -0.054441 84 148 76 -0.980299 -0.185377 -0.068189
-0.473458 0.543493 0.301063 84 148 76 0.984071 0.172524 -0.042886
-0.522917 0.625809 -0.391001 84 148 76 -0.929041 -0.138055 -0.343254
-0.480305 0.535009 0.040422 84 148 76 0.984882 0.173088 0.006954
-0.542995 0.666167 -0.340193 84 148 76 -0.974062 -0.151309 -0.168254
-0.544697 0.570289 0.251008 84 148 76 -0.971892 -0.145955 0.184725
-0.477021 0.541779 -0.150010 84 148 76 0.989039 0.146506 0.018388
-0.476355 0.514901 0.078021 84 148 76 0.991546 0.127853 -0.022144
-0.562089 0.576348 0.151068 84 148 76 -0.975107 -0.171172 0.140950
-0.512363 0.594558 -0.386059 84 148 76 0.027286 0.086821 0.995850
-0.472124 0.528871 -0.287623 84 148 76 0.987107 0.156963 0.031339
-0.570289 0.561298 0.059009 84 148 76 -0.982322 -0.177390 0.059809
-0.469831 0.496226 -0.180639 84 148 76 0.991967 0.125839 0.012850
-0.479351 0.530323 0.005440 84 148 76 0.986661 0.162780 0.001425
-0.475876 0.533461 -0.145362 84 148 76 0.989039 0.146506 0.018388
-0.525289 0.516690 -0.377739 84 148 76 -0.206009 0.095482 0.973881
-0.552382 0.667383 0.285629 84 148 76 -0.961579 -0.152867 0.228031
-0.577265 0.630957 -0.089315 84 148 76 -0.982195 -0.150444 -0.112514
-0.483060 0.595136 0.288906 84 148 76 0.981283 0.171300 -0.087977
-0.475234 0.504418 0.067696 84 148 76 0.991558 0.127750 -0.022197
-0.509542 0.672011 -0.005290 84 148 76 0.961802 0.273118 0.018545
-0.552946 0.576320 0.209848 84 148 76 -0.973004 -0.155605 0.170442
-0.490834 0.641431 0.291522 84 148 76 0.983721 0.167455 -0.065206
-0.502295 0.643446 0.092906 84 148 76 0.966516 0.255836 -0.019882
-0.518461 0.565911 0.366209 84 148 76 -0.957268 -0.129643 0.258518
-0.523468 0.516400 -0.322531 84 148 76 -0.970830 -0.151079 -0.186182
-0.508432 0.673672 0.158412 84 148 76 0.963334 0.264552 -0.044713
-0.544441 0.488550 0.169674 84 148 76 -0.977378 -0.167125 0.129620
-0.486355 0.607535 -0.249628 84 148 76 0.984329 0.175754 0.014401
-0.508980 0.676476 -0.066407 84 148 76 0.963409 0.265718 0.035185
-0.500568 0.676712 -0.378525 84 148 76 0.978302 0.183710 -0.095793
-0.492473 0.656146 0.304271 84 148 76 0.979109 0.190820 -0.070233
-0.495759 0.674154 0.307018 84 148 76 0.979822 0.184186 -0.077618
-0.504193 0.558169 -0.382617 84 148 76 0.027248 0.137313 0.990153
-0.490884 0.629520 -0.221497 84 148 76 0.980297 0.196898 0.015748
-0.510712 0.545036 0.388273 84 148 76 -0.055681 0.124555 -0.990649
-0.477528 0.552051 -0.210560 84 148 76 0.987318 0.158161 0.013706
-0.485244 0.584758 0.235028 84 148 76 0.979940 0.194907 -0.041587
-0.560470 0.547596 0.126680 84 148 76 -0.976164 -0.171877 0.132525
-0.501318 0.637941 0.032752 84 148 76 0.970441 0.241299 -0.004334
-0.509514 0.533971 -0.388716 84 148 76 -0.929432 -0.153389 -0.335600
-0.541091 0.490582 0.196173 84 148 76 -0.976572 -0.165247 0.137841
-0.549394 0.641526 -0.275256 84 148 76 -0.979704 -0.140091 -0.143366
-0.489603 0.624581 -0.242125 84 148 76 0.981270 0.192162 0.013546
-0.498719 0.643970 -0.105870 84 148 76 0.971239 0.229359 0.063943
-0.507328 0.677659 0.195911 84 148 76 0.966879 0.249258 -0.054916
-0.576283 0.585848 0.007127 84 148 76 -0.988604 -0.149948 0.013354
-0.494406 0.602605 -0.387810 84 148 76 -0.494274 -0.001625 0.869305
-0.479176 0.533611 -0.040798 84 148 76 0.986146 0.163489 0.028055
-0.484409 0.619045 0.355598 84 148 76 0.985548 0.161308 0.051712
-0.480116 0.549428 -0.091842 84 148 76 0.986586 0.158847 0.037618
-0.481610 0.544795 -0.019697 84 148 76 0.986297 0.162674 0.027492
-0.487511 0.621714 0.291009 84 148 76 0.983721 0.167455 -0.065206
-0.469111 0.495994 -0.223084 84 148 76 0.989216 0.144711 0.022604
-0.517715 0.507525 0.337937 84 148 76 -0.965602 -0.131961 0.224052
-0.562766 0.563869 0.130828 84 148 76 -0.976472 -0.168860 0.134123
-0.560921 0.554337 -0.121285 84 148 76 -0.978463 -0.153845 -0.137629
-0.477270 0.531972 -0.092743 84 148 76 0.986586 0.158847 0.037618
-0.486920 0.609869 0.274551 84 148 76 0.981283 0.171300 -0.087977
-0.553484 0.585806 -0.196540 84 148 76 -0.977233 -0.135331 -0.163404
-0.546447 0.534132 0.208087 84 148 76 -0.975103 -0.158478 0.155111
-0.572241 0.568381 -0.037293 84 148 76 -0.983470 -0.166767 -0.070542
-0.563270 0.560993 0.123430 84 148 76 -0.976164 -0.171877 0.132525
-0.552831 0.551344 -0.171855 84 148 76 -0.976503 -0.153663 -0.151096
-0.547767 0.519418 -0.171363 84 148 76 -0.977823 -0.152577 -0.143469
-0.540930 0.594855 -0.286598 84 148 76 -0.977952 -0.145953 -0.149357
-0.471574 0.500657 0.212236 84 148 76 0.986990 0.150860 -0.055612
-0.480081 0.548004 -0.086742 84 148 76 0.986586 0.158847 0.037618
-0.559368 0.491274 -0.004992 84 148 76 -0.982235 -0.185292 -0.029693
-0.478383 0.540411 -0.099182 84 148 76 0.986586 0.158847 0.037618
-0.472310 0.543011 0.332763 84 148 76 0.986917 0.161180 0.004074
-0.533823 0.543749 0.286930 84 148 76 -0.969167 -0.138630 0.203706
-0.557025 0.511042 -0.093885 84 148 76 -0.978320 -0.177162 -0.107252
-0.475650 0.504527 0.032772 84 148 76 0.992062 0.125740 0.001365
-0.544418 0.600568 -0.269238 84 148 76 -0.979704 -0.140091 -0.143366
-0.518998 0.593737 0.393668 84 148 76 -0.056721 0.079178 -0.995245
-0.549394 0.521896 -0.162908 84 148 76 -0.977823 -0.152577 -0.143469
-0.554550 0.523791 0.139482 84 148 76 -0.976576 -0.171868 0.129460
-0.507800 0.667169 -0.025871 84 148 76 0.970032 0.242252 0.018777
-0.533561 0.624646 -0.388745 84 148 76 -0.042460 0.079182 0.995956
-0.511339 0.502913 0.359941 84 148 76 -0.953961 -0.142474 0.263930
-0.479539 0.536244 0.087720 84 148 76 0.986633 0.161512 -0.021668
-0.485945 0.569901 0.072968 84 148 76 0.980301 0.197027 -0.013776
-0.496616 0.630365 0.182618 84 148 76 0.972036 0.232717 -0.031432
-0.546476 0.536591 -0.198143 84 148 76 -0.978057 -0.142215 -0.152250
-0.484651 0.562974 -0.026921 84 148 76 0.982550 0.184083 0.026643
-0.495116 0.651195 -0.229129 84 148 76 0.980297 0.196898 0.015748
-0.566805 0.590543 0.135522 84 148 76 -0.976564 -0.171255 0.130366
-0.488663 0.608392 -0.151101 84 148 76 0.980554 0.192426 0.038556
-0.469978 0.525366 0.308014 84 148 76 0.984071 0.172524 -0.042886
-0.469474 0.522472 0.348824 84 148 76 0.989672 0.142505 0.015543
-0.551050 0.624764 -0.247618 84 148 76 -0.979296 -0.138519 -0.147619
-0.559622 0.548382 -0.123868 84 148 76 -0.978463 -0.153845 -0.137629
-0.554560 0.577280 -0.183043 84 148 76 -0.977233 -0.135331 -0.163404
-0.576267 0.637894 0.129130 84 148 76 -0.975200 -0.185465 0.120776
-0.569838 0.628645 -0.138052 84 148 76 -0.974646 -0.146934 -0.168749
-0.539887 0.609705 -0.307937 84 148 76 -0.977952 -0.145953 -0.149357
-0.481896 0.557492 0.146583 84 148 76 0.981844 0.189357 -0.011219
-0.477155 0.541694 -0.142149 84 148 76 0.989039 0.146506 0.018388
-0.479484 0.553854 -0.128324 84 148 76 0.983904 0.174780 0.037209
-0.568055 0.668629 -0.185749 84 148 76 -0.970266 -0.172568 -0.169717
-0.527630 0.543368 0.316066 84 148 76 -0.967861 -0.138721 0.209765
-0.517401 0.538986 -0.367342 84 148 76 -0.961425 -0.148465 -0.231561
-0.531004 0.578487 0.393625 84 148 76 -0.225153 0.051092 -0.972983
-0.476185 0.509686 -0.012753 84 148 76 0.990837 0.134842 0.007736
-0.504548 0.677313 -0.140218 84 148 76 0.966963 0.245733 0.067806
-0.493094 0.666306 0.371602 84 148 76 0.984282 0.174890 0.024560
-0.581805 0.630292 0.055679 84 148 76 -0.984711 -0.169739 0.039143
-0.477689 0.565105 -0.323261 84 148 76 0.985662 0.168455 0.009668
-0.486208 0.569428 -0.008212 84 148 76 0.982864 0.184203 0.006941
-0.559194 0.676651 -0.248570 84 148 76 -0.973783 -0.166108 -0.155419
-0.522948 0.563923 -0.360299 84 148 76 -0.961425 -0.148465 -0.231561
-0.553166 0.602303 -0.393342 84 148 76 -0.899147 -0.104923 0.424883
-0.474716 0.537872 -0.249540 84 148 76 0.987318 0.158161 0.013706
-0.551350 0.537453 -0.167066 84 148 76 -0.974753 -0.164812 -0.150641
-0.578692 0.632342 0.101571 84 148 76 -0.980482 -0.177308 0.084951
-0.542633 0.675729 0.332331 84 148 76 -0.961579 -0.152867 0.228031
-0.554784 0.522678 -0.126666 84 148 76 -0.979388 -0.164946 -0.116582
-0.532110 0.573073 0.393596 84 148 76 -0.225153 0.051092 -0.972983
-0.476212 0.520460 -0.068337 84 148 76 0.986146 0.163489 0.028055
-0.537408 0.550383 -0.268404 84 148 76 -0.978603 -0.137162 -0.153373
-0.484889 0.605251 0.288205 84 148 76 0.981283 0.171300 -0.087977
-0.541352 0.533524 -0.228164 84 148 76 -0.978603 -0.137162 -0.153373
-0.467411 0.500493 -0.298962 84 148 76 0.986099 0.164905 0.020378
-0.567447 0.583871 -0.109219 84 148 76 -0.978188 -0.147447 -0.146313
-0.560960 0.580346 -0.147305 84 148 76 -0.977233 -0.135331 -0.163404
-0.515729 0.558779 -0.382616 84 148 76 -0.934035 -0.147181 -0.325448
-0.541657 0.491013 -0.182799 84 148 76 -0.977246 -0.156096 -0.143614
-0.552590 0.583586 -0.200048 84 148 76 -0.977233 -0.135331 -0.163404
-0.479973 0.576720 -0.292772 84 148 76 0.985662 0.168455 0.009668
-0.562492 0.510563 0.037005 84 148 76 -0.980617 -0.185122 0.064188
-0.473374 0.521918 -0.372391 84 148 76 0.982704 0.152164 -0.105539
-0.499605 0.675865 -0.328367 84 148 76 0.978884 0.204240 -0.008533
-0.580163 0.660124 0.134313 84 148 76 -0.970081 -0.210225 0.121442
-0.497177 0.627060 0.129795 84 148 76 0.967006 0.253811 -0.021897
-0.504916 0.667881 -0.097159 84 148 76 0.968349 0.243888 0.053098
-0.579190 0.635229 0.101857 84 148 76 -0.980482 -0.177308 0.084951
-0.501258 0.640149 -0.015186 84 148 76 0.970032 0.242252 0.018777
-0.471918 0.532952 0.294001 84 148 76 0.984071 0.172524 -0.042886
-0.500021 0.638306 -0.041792 84 148 76 0.970958 0.237773 0.026541
-0.494528 0.675105 0.366409 84 148 76 0.984282 0.174890 0.024560
-0.568178 0.576824 0.107728 84 148 76 -0.976472 -0.168860 0.134123
-0.524339 0.653122 0.384316 84 148 76 -0.928726 -0.132494 0.346286
-0.539221 0.528815 0.246920 84 148 76 -0.971862 -0.146502 0.184447
-0.557117 0.632159 0.236645 84 148 76 -0.968504 -0.159327 0.191348
-0.576891 0.598152 -0.037537 84 148 76 -0.986285 -0.150000 -0.068856
-0.550745 0.673365 -0.300651 84 148 76 -0.976864 -0.154316 -0.148062
-0.489957 0.619908 -0.375483 84 148 76 0.982235 0.170404 -0.078595
-0.473465 0.542342 0.296288 84 148 76 0.984071 0.172524 -0.042886
-0.516110 0.493040 -0.341942 84 148 76 -0.970830 -0.151079 -0.186182
-0.537846 0.560114 -0.384647 84 148 76 -0.209513 0.094229 0.973255
-0.509202 0.536862 -0.390902 84 148 76 -0.929432 -0.153389 -0.335600
-0.544162 0.557095 0.243284 84 148 76 -0.975035 -0.146687 0.166704
-0.491613 0.599134 0.090125 84 148 76 0.975238 0.219857 -0.023960
-0.558420 0.676668 -0.253417 84 148 76 -0.973168 -0.168622 -0.156560
-0.572935 0.663079 -0.152387 84 148 76 -0.969005 -0.177334 -0.171992
-0.554781 0.569449 0.191629 84 148 76 -0.975024 -0.164725 0.148978
-0.473666 0.535769 -0.273577 84 148 76 0.987107 0.156963 0.031339
-0.481170 0.548840 -0.059442 84 148 76 0.986297 0.162674 0.027492
-0.477070 0.529222 0.156547 84 148 76 0.987874 0.154587 -0.014390
-0.516478 0.617036 -0.387964 84 148 76 0.016655 0.088356 0.995950
-0.489120 0.622640 -0.249579 84 148 76 0.981270 0.192162 0.013546
-0.472024 0.491344 0.137827 84 148 76 0.991600 0.127778 -0.020047
-0.507762 0.663600 0.089188 84 148 76 0.965519 0.259811 -0.016441
-0.550961 0.570014 -0.198691 84 148 76 -0.979818 -0.132153 -0.149971
-0.487555 0.575906 0.046569 84 148 76 0.981895 0.188336 -0.020285
-0.530663 0.581669 -0.336916 84 148 76 -0.973441 -0.147823 -0.174815
-0.498476 0.652412 0.233741 84 148 76 0.978985 0.182521 -0.090960
-0.501856 0.677481 0.251596 84 148 76 0.974214 0.197471 -0.109144
-0.470971 0.522886 -0.334857 84 148 76 0.986373 0.162234 -0.027344
-0.478486 0.558490 -0.365473 84 148 76 0.982112 0.170844 -0.079175
-0.501080 0.637091 0.064672 84 148 76 0.966774 0.255503 0.008149
-0.494350 0.651320 0.273576 84 148 76 0.980496 0.165984 -0.105245
-0.496541 0.639579 0.226787 84 148 76 0.975995 0.208828 -0.061849
-0.505657 0.652800 -0.391247 84 148 76 0.399163 0.029531 0.916404
-0.502865 0.522929 0.391893 84 148 76 -0.829330 -0.141358 0.540583
-0.557027 0.490067 -0.050636 84 148 76 -0.981098 -0.182272 -0.064995
-0.576443 0.588914 0.033521 84 148 76 -0.987955 -0.154724 0.002523
-0.522066 0.566378 0.352816 84 148 76 -0.958988 -0.131923 0.250874
-0.487185 0.576122 -0.024299 84 148 76 0.982550 0.184083 0.026643
-0.555825 0.593493 -0.188910 84 148 76 -0.977233 -0.135331 -0.163404
-0.533490 0.597405 0.322552 84 148 76 -0.967538 -0.128942 0.217358
-0.581143 0.676597 -0.117969 84 148 76 -0.971346 -0.180731 -0.154350
-0.474250 0.554454 0.349991 84 148 76 0.986917 0.161180 0.004074
-0.523686 0.519497 -0.323908 84 148 76 -0.970830 -0.151079 -0.186182
-0.493405 0.603499 0.027703 84 148 76 0.977191 0.212012 0.012160
-0.520721 0.560440 -0.382755 84 148 76 -0.042974 0.124612 0.991274
-0.483314 0.578669 0.248898 84 148 76 0.981553 0.180153 -0.064025
-0.494269 0.650186 -0.330926 84 148 76 0.978884 0.204240 -0.008533
-0.494953 0.653817 -0.322482 84 148 76 0.978884 0.204240 -0.008533
-0.482135 0.545856 0.029649 84 148 76 0.984882 0.173088 0.006954
-0.491843 0.639622 -0.300116 84 148 76 0.981288 0.192501 0.004087
-0.491203 0.636951 -0.392470 84 148 76 0.760010 0.075323 0.645531
-0.515538 0.562589 -0.384888 84 148 76 -0.934035 -0.147181 -0.325448
-0.540359 0.546068 -0.384869 84 148 76 -0.568557 0.014530 0.822515
-0.502482 0.647178 0.129207 84 148 76 0.966370 0.255794 -0.026437
-0.472785 0.509142 -0.125181 84 148 76 0.988718 0.146741 0.030064
-0.489613 0.598924 -0.088286 84 148 76 0.977458 0.206654 0.043247
-0.489196 0.589714 -0.045451 84 148 76 0.977794 0.207913 0.026300
-0.473227 0.519562 -0.177802 84 148 76 0.989179 0.145646 0.017660
-0.555196 0.615098 0.231749 84 148 76 -0.968877 -0.171660 0.178353
-0.538212 0.530780 -0.245739 84 148 76 -0.978603 -0.137162 -0.153373
-0.556903 0.530124 0.130299 84 148 76 -0.976164 -0.171877 0.132525
-0.490436 0.620085 0.255499 84 148 76 0.979296 0.182638 -0.087307
-0.496091 0.624252 0.145215 84 148 76 0.967006 0.253811 -0.021897
-0.574461 0.606923 -0.081659 84 148 76 -0.982195 -0.150444 -0.112514
-0.490017 0.628423 -0.266534 84 148 76 0.981270 0.192162 0.013546
-0.522541 0.592702 -0.385736 84 148 76 -0.042460 0.079182 0.995956
-0.546627 0.490196 -0.146108 84 148 76 -0.975586 -0.173260 -0.134957
-0.555676 0.558642 0.173815 84 148 76 -0.975024 -0.164725 0.148978
-0.541960 0.493086 -0.182963 84 148 76 -0.978003 -0.152382 -0.142440
-0.499891 0.659614 0.233708 84 148 76 0.972413 0.216237 -0.087485
-0.499326 0.674768 -0.279474 84 148 76 0.976449 0.215723 0.003381
-0.469325 0.522304 0.312084 84 148 76 0.988039 0.150850 -0.031977
-0.560306 0.579916 -0.150857 84 148 76 -0.977233 -0.135331 -0.163404
-0.552143 0.544385 0.181757 84 148 76 -0.976017 -0.158444 0.149285
-0.523932 0.555686 -0.350935 84 148 76 -0.961425 -0.148465 -0.231561
-0.528424 0.637418 -0.388478 84 148 76 0.016827 -0.024100 0.999568
-0.485550 0.599852 -0.208263 84 148 76 0.984110 0.177082 0.013044
-0.488478 0.584983 0.091185 84 148 76 0.981057 0.192142 -0.024676
-0.490829 0.628634 0.268967 84 148 76 0.979296 0.182638 -0.087307
-0.499905 0.634450 0.093348 84 148 76 0.966516 0.255836 -0.019882
-0.541181 0.564729 0.397771 84 148 76 -0.580062 0.014647 -0.814440
-0.556201 0.492019 -0.067693 84 148 76 -0.978331 -0.182309 -0.098142
-0.477820 0.523567 -0.029943 84 148 76 0.986146 0.163489 0.028055
-0.525831 0.510126 0.302070 84 148 76 -0.969167 -0.138630 0.203706
-0.487626 0.589803 -0.089602 84 148 76 0.977458 0.206654 0.043247
-0.475348 0.512798 0.110982 84 148 76 0.991546 0.127853 -0.022144
-0.578252 0.675732 -0.135350 84 148 76 -0.972391 -0.177794 -0.151143
-0.538664 0.649125 -0.388518 84 148 76 -0.040441 -0.032777 0.998644
-0.488362 0.621546 -0.331874 84 148 76 0.981485 0.189228 -0.029651
-0.500684 0.634444 -0.390406 84 148 76 -0.929777 -0.131775 0.343730
-0.480812 0.538510 0.045408 84 148 76 0.986829 0.160450 -0.020595
-0.543083 0.621452 0.398650 84 148 76 -0.221767 0.051114 -0.973759
-0.487880 0.635981 0.370625 84 148 76 0.986947 0.155813 0.040726
-0.480414 0.569673 -0.206467 84 148 76 0.987246 0.158591 0.013952
-0.565423 0.585617 0.139265 84 148 76 -0.975107 -0.171172 0.140950
-0.494404 0.648512 -0.239843 84 148 76 0.980297 0.196898 0.015748
-0.504806 0.534446 0.386750 84 148 76 0.007371 0.135037 -0.990813
-0.535363 0.592217 -0.319667 84 148 76 -0.973441 -0.147823 -0.174815
-0.539548 0.565567 -0.268327 84 148 76 -0.979056 -0.138247 -0.149456
-0.552561 0.583270 -0.199959 84 148 76 -0.977233 -0.135331 -0.163404
-0.474614 0.526200 -0.155386 84 148 76 0.989039 0.146506 0.018388
-0.472161 0.514764 -0.205657 84 148 76 0.989593 0.143378 0.012209
-0.483446 0.588824 -0.217381 84 148 76 0.984110 0.177082 0.013044
-0.552046 0.597407 -0.215741 84 148 76 -0.979818 -0.132153 -0.149971
-0.563466 0.534511 0.081470 84 148 76 -0.978672 -0.177193 0.103944
-0.561105 0.508951 0.053545 84 148 76 -0.980617 -0.185122 0.064188
-0.473635 0.536797 -0.348425 84 148 76 0.986373 0.162234 -0.027344
-0.484153 0.598372 -0.337409 84 148 76 0.982894 0.182325 -0.026007
-0.469388 0.514747 -0.318615 84 148 76 0.986099 0.164905 0.020378
-0.491562 0.604215 0.150845 84 148 76 0.973478 0.228411 -0.012974
-0.481007 0.565601 -0.380491 84 148 76 0.982704 0.152164 -0.105539
-0.473695 0.498383 0.101770 84 148 76 0.991546 0.127853 -0.022144
-0.573376 0.585435 -0.059567 84 148 76 -0.986021 -0.150851 -0.070755
-0.531532 0.526957 -0.284832 84 148 76 -0.975714 -0.145461 -0.163778
-0.564103 0.520157 -0.028845 84 148 76 -0.982421 -0.184588 -0.027867
-0.535898 0.559765 0.287865 84 148 76 -0.969818 -0.133949 0.203743
-0.483396 0.580745 -0.378387 84 148 76 0.982235 0.170404 -0.078595
-0.484837 0.578343 0.216030 84 148 76 0.982071 0.182217 -0.048315
-0.485674 0.580657 0.192278 84 148 76 0.983221 0.181782 -0.015224
-0.509036 0.672491 0.138440 84 148 76 0.963302 0.264550 -0.045420
-0.497934 0.631567 -0.057796 84 148 76 0.970958 0.237773 0.026541
-0.493494 0.643431 -0.232946 84 148 76 0.980297 0.196898 0.015748
-0.554339 0.667707 0.277593 84 148 76 -0.961579 -0.152867 0.228031
-0.590406 0.671806 0.011005 84 148 76 -0.980680 -0.195603 0.002314
-0.555667 0.550118 -0.152278 84 148 76 -0.976503 -0.153663 -0.151096
-0.530530 0.596472 -0.349335 84 148 76 -0.962918 -0.146103 -0.226809
-0.583540 0.635372 0.038451 84 148 76 -0.986313 -0.155038 0.056131
-0.523374 0.530637 0.387692 84 148 76 -0.224035 0.094081 -0.970029
-0.481871 0.603709 0.354647 84 148 76 0.986887 0.160389 -0.018131
-0.472227 0.518981 0.252699 84 148 76 0.981686 0.177693 -0.068689
-0.477860 0.523021 0.065639 84 148 76 0.986633 0.161512 -0.021668
-0.579827 0.618485 0.057043 84 148 76 -0.986313 -0.155038 0.056131
-0.554930 0.531167 0.146413 84 148 76 -0.976576 -0.171868 0.129460
-0.544542 0.666210 -0.331282 84 148 76 -0.974062 -0.151309 -0.168254
-0.538867 0.514335 -0.383624 84 148 76 -0.899800 -0.095618 0.425696
-0.541942 0.545335 0.245704 84 148 76 -0.971862 -0.146502 0.184447
-0.573411 0.569998 0.033165 84 148 76 -0.985508 -0.169107 0.013311
-0.492808 0.613263 0.184638 84 148 76 0.978670 0.203979 -0.024444
-0.503054 0.648789 0.123912 84 148 76 0.966370 0.255794 -0.026437
-0.480274 0.569694 -0.216621 84 148 76 0.987246 0.158591 0.013952
-0.486157 0.591346 -0.385980 84 148 76 0.976004 0.169617 -0.136548
-0.478447 0.547427 -0.127148 84 148 76 0.986586 0.158847 0.037618
-0.487769 0.586961 0.134844 84 148 76 0.975238 0.219857 -0.023960
-0.494397 0.651376 -0.317213 84 148 76 0.978884 0.204240 -0.008533
-0.475613 0.517003 -0.070042 84 148 76 0.990462 0.134831 0.028374
-0.578653 0.642599 -0.092755 84 148 76 -0.982195 -0.150444 -0.112514
-0.560394 0.673220 0.254831 84 148 76 -0.962022 -0.170655 0.213050
-0.535032 0.551942 -0.285309 84 148 76 -0.979056 -0.138247 -0.149456
-0.555397 0.570908 0.189210 84 148 76 -0.975024 -0.164725 0.148978
-0.574592 0.577619 -0.016403 84 148 76 -0.988274 -0.149672 -0.030224
-0.478555 0.524933 0.047741 84 148 76 0.986829 0.160450 -0.020595
-0.523250 0.501486 0.308472 84 148 76 -0.969167 -0.138630 0.203706
-0.510158 0.606436 0.394670 84 148 76 0.002311 0.088344 -0.996087
-0.501002 0.646624 0.170513 84 148 76 0.971422 0.232627 -0.047152
-0.546832 0.674110 0.313542 84 148 76 -0.961579 -0.152867 0.228031
-0.480984 0.539094 0.041701 84 148 76 0.986829 0.160450 -0.020595
-0.472975 0.529106 0.268202 84 148 76 0.981686 0.177693 -0.068689
-0.576677 0.634293 -0.098878 84 148 76 -0.982050 -0.150798 -0.113300
-0.480617 0.541783 0.079942 84 148 76 0.986633 0.161512 -0.021668
-0.554407 0.576409 -0.183237 84 148 76 -0.977233 -0.135331 -0.163404
-0.475403 0.561917 0.334074 84 148 76 0.986917 0.161180 0.004074
-0.576818 0.600541 -0.043778 84 148 76 -0.986285 -0.150000 -0.068856
-0.533976 0.503524 0.253789 84 148 76 -0.972339 -0.162514 0.167768
-0.515338 0.633526 -0.388792 84 148 76 0.016827 -0.024100 0.999568
-0.487178 0.613365 -0.264508 84 148 76 0.984329 0.175754 0.014401
-0.554894 0.576844 0.198749 84 148 76 -0.974349 -0.155764 0.162427
-0.576458 0.639196 0.129595 84 148 76 -0.975200 -0.185465 0.120776
-0.515804 0.645125 0.396126 84 148 76 0.002493 -0.024113 -0.999706
-0.475794 0.515832 0.108509 84 148 76 0.991546 0.127853 -0.022144
-0.568494 0.645095 0.187774 84 148 76 -0.969768 -0.171790 0.173314
-0.563906 0.594387 -0.142486 84 148 76 -0.974646 -0.146934 -0.168749
-0.550631 0.626016 -0.251646 84 148 76 -0.979704 -0.140091 -0.143366
-0.547483 0.554520 -0.392813 84 148 76 -0.899800 -0.095618 0.425696
-0.542869 0.501795 -0.186033 84 148 76 -0.978003 -0.152382 -0.142440
-0.476866 0.570755 0.338732 84 148 76 0.986917 0.161180 0.004074
