ply
format ascii 1.0
element vertex 711
property float x
property float y
property float z
property uchar red
property uchar green
property uchar blue
property float nx
property float ny
property float nz
end_header
0.442813 -0.139884 0.504953 47 30 238 0.000000 -0.913170 0.407579
0.408505 -0.049180 0.116109 47 30 238 0.000000 -1.000000 0.000000
0.375762 -0.112887 0.465440 47 30 238 0.000000 0.000000 -1.000000
0.694138 -0.098909 0.465440 47 30 238 0.000000 0.000000 1.000000
0.480117 -0.049180 0.007756 47 30 238 0.000000 -1.000000 0.000000
0.639281 -0.049180 0.079344 47 30 238 0.000000 -1.000000 0.000000
0.516676 -0.049180 0.460353 47 30 238 0.000000 -1.000000 0.000000
0.683046 -0.089673 0.436688 47 30 238 0.421302 0.906920 0.000014
0.606210 -0.152908 0.193429 47 30 238 0.407576 -0.913171 0.000000
0.437938 -0.126693 0.531799 47 30 238 0.000000 -0.906919 0.421305
0.329813 -0.049180 0.121217 47 30 238 0.000000 -1.000000 0.000000
0.382786 -0.055008 0.477986 47 30 238 0.000000 0.906919 0.421304
0.359821 -0.151125 0.479768 47 30 238 0.000000 -0.913170 0.407579
0.361116 -0.107824 0.576782 47 30 238 0.000000 -0.913170 0.407579
0.631536 -0.065745 0.198457 47 30 238 0.421315 0.906914 0.000000
0.530709 -0.065681 0.502409 47 30 238 0.000000 0.913170 0.407579
0.593870 -0.099913 0.469936 47 30 238 0.913170 0.000000 0.407579
0.000053 -0.157520 0.415267 47 30 238 0.000000 -1.000000 0.000000
0.513148 -0.096131 0.566509 47 30 238 0.000000 0.906919 0.421304
0.690961 -0.093350 0.307257 47 30 238 0.421315 0.906914 0.000000
0.471628 -0.049180 0.510881 47 30 238 0.000000 -1.000000 0.000000
0.184351 -0.157520 0.296479 47 30 238 0.000000 -1.000000 0.000000
0.037018 -0.049180 0.212461 47 30 238 0.000000 -1.000000 0.000000
0.105875 -0.157520 0.046966 47 30 238 0.000000 -1.000000 0.000000
0.073830 -0.049180 0.294799 47 30 238 0.000000 -1.000000 0.000000
0.387210 -0.133517 0.519218 47 30 238 0.000000 -0.913170 0.407579
0.680710 -0.119656 0.130116 47 30 238 0.407576 -0.913171 0.000000
0.423887 -0.049180 0.451675 47 30 238 0.000000 -1.000000 0.000000
0.577581 -0.080087 0.465440 47 30 238 0.000000 0.000000 -1.000000
0.541231 -0.049180 0.520404 47 30 238 0.000000 -1.000000 0.000000
0.426198 -0.049180 0.327345 47 30 238 0.000000 -1.000000 0.000000
0.113156 -0.157520 0.265699 47 30 238 0.000000 -1.000000 0.000000
0.102365 -0.152130 0.477517 47 30 238 0.000000 -0.913170 0.407579
0.670239 -0.124330 0.387289 47 30 238 0.407576 -0.913171 0.000000
0.455359 -0.049180 0.213663 47 30 238 0.000000 -1.000000 0.000000
0.473989 -0.110343 0.566996 47 30 238 0.000000 -0.906919 0.421305
0.584693 -0.049180 0.194584 47 30 238 0.000000 -1.000000 0.000000
0.002826 -0.157520 0.052920 47 30 238 0.000000 -1.000000 0.000000
0.656023 -0.130675 0.384413 47 30 238 0.407576 -0.913171 0.000000
0.131467 -0.157520 0.048424 47 30 238 0.000000 -1.000000 0.000000
0.618612 -0.059742 0.196606 47 30 238 0.421315 0.906914 0.000000
0.446863 -0.157520 0.017516 47 30 238 0.000000 -1.000000 0.000000
0.017473 -0.071004 0.512419 47 30 238 0.000000 0.906919 0.421305
0.660465 -0.079184 0.112448 47 30 238 0.421260 0.906940 0.000000
0.376134 -0.049180 0.309658 47 30 238 0.000000 -1.000000 0.000000
0.147837 -0.156564 0.467581 47 30 238 0.000000 -0.913170 0.407579
0.478904 -0.049180 0.377576 47 30 238 0.000000 -1.000000 0.000000
0.653447 -0.075924 0.207871 47 30 238 0.421260 0.906940 0.000000
0.621857 -0.049180 0.146742 47 30 238 0.000000 -1.000000 0.000000
0.055314 -0.049180 0.267918 47 30 238 0.000000 -1.000000 0.000000
0.393722 -0.157520 0.100023 47 30 238 0.000000 -1.000000 0.000000
0.502045 -0.110143 0.567426 47 30 238 0.000000 -0.906919 0.421305
0.633404 -0.066614 0.176913 47 30 238 0.421315 0.906914 0.000000
0.189950 -0.049180 0.318304 47 30 238 0.000000 -1.000000 0.000000
0.017831 -0.148624 0.485371 47 30 238 0.000000 -0.913170 0.407579
0.035077 -0.049180 0.062905 47 30 238 0.000000 -1.000000 0.000000
0.217808 -0.155219 0.470596 47 30 238 0.000000 -0.913170 0.407579
0.174565 -0.157520 0.192256 47 30 238 0.000000 -1.000000 0.000000
0.634253 -0.067008 0.148575 47 30 238 0.421315 0.906914 0.000000
0.552074 -0.052900 0.473775 47 30 238 0.000000 0.913170 0.407579
0.149966 -0.059251 0.487120 47 30 238 0.000000 0.906919 0.421304
0.499194 -0.098594 0.576151 47 30 238 0.000000 0.913170 0.407579
0.010194 -0.157520 0.451561 47 30 238 0.000000 -1.000000 0.000000
0.293482 -0.058838 0.465440 47 30 238 0.000000 0.000000 -1.000000
0.635964 -0.067803 0.392663 47 30 238 0.421315 0.906914 0.000000
0.141556 -0.049180 0.432738 47 30 238 0.000000 -1.000000 0.000000
0.027608 -0.157520 0.035975 47 30 238 0.000000 -1.000000 0.000000
0.315984 -0.049180 0.384709 47 30 238 0.000000 -1.000000 0.000000
0.176758 -0.074821 0.465440 47 30 238 0.000000 0.000000 -1.000000
0.235939 -0.157520 0.458360 47 30 238 0.000000 -1.000000 0.000000
0.558497 -0.071021 0.465440 47 30 238 0.000000 0.000000 -1.000000
0.028655 -0.049180 0.494953 47 30 238 0.000000 -1.000000 0.000000
0.132644 -0.084337 0.465440 47 30 238 0.000000 0.000000 -1.000000
0.451188 -0.096829 0.572195 47 30 238 0.000000 0.913170 0.407579
0.656460 -0.130480 0.358909 47 30 238 0.407576 -0.913171 0.000000
0.255178 -0.049180 0.413035 47 30 238 0.000000 -1.000000 0.000000
0.042929 -0.157520 0.115218 47 30 238 0.000000 -1.000000 0.000000
0.456289 -0.049180 0.318634 47 30 238 0.000000 -1.000000 0.000000
0.501072 -0.157520 0.235108 47 30 238 0.000000 -1.000000 0.000000
0.657251 -0.077691 0.023318 47 30 238 0.421260 0.906940 0.000000
0.048581 -0.082713 0.537625 47 30 238 0.000000 0.906919 0.421305
0.177553 -0.077145 0.525638 47 30 238 0.000000 0.906919 0.421304
0.175880 -0.049180 0.213845 47 30 238 0.000000 -1.000000 0.000000
0.176919 -0.157520 0.102538 47 30 238 0.000000 -1.000000 0.000000
0.402975 -0.157520 0.456304 47 30 238 0.000000 -1.000000 0.000000
0.649336 -0.133659 0.262437 47 30 238 0.407576 -0.913171 0.000000
0.644738 -0.071879 0.346939 47 30 238 0.421260 0.906940 0.000000
0.318177 -0.157520 0.449677 47 30 238 0.000000 -1.000000 0.000000
0.174455 -0.120279 0.548878 47 30 238 0.000000 -0.913170 0.407579
0.697215 -0.096255 0.404203 47 30 238 0.421315 0.906914 0.000000
0.205564 -0.157520 0.060174 47 30 238 0.000000 -1.000000 0.000000
0.372574 -0.157520 0.267973 47 30 238 0.000000 -1.000000 0.000000
0.412476 -0.157520 0.127385 47 30 238 0.000000 -1.000000 0.000000
0.228959 -0.140870 0.502743 47 30 238 0.000000 -0.913170 0.407579
0.469439 -0.049180 0.412221 47 30 238 0.000000 -1.000000 0.000000
0.308975 -0.157520 0.165797 47 30 238 0.000000 -1.000000 0.000000
0.322067 -0.157520 0.029386 47 30 238 0.000000 -1.000000 0.000000
0.008313 -0.049180 0.288448 47 30 238 0.000000 -1.000000 0.000000
0.573122 -0.049180 0.375383 47 30 238 0.000000 -1.000000 0.000000
0.179334 -0.049180 0.058493 47 30 238 0.000000 -1.000000 0.000000
0.331409 -0.084362 0.465440 47 30 238 0.000000 0.000000 -1.000000
0.338312 -0.049180 0.043236 47 30 238 0.000000 -1.000000 0.000000
0.669689 -0.124576 0.362326 47 30 238 0.407576 -0.913171 0.000000
0.136838 -0.131833 0.522992 47 30 238 0.000000 -0.913170 0.407579
0.164614 -0.157520 0.291082 47 30 238 0.000000 -1.000000 0.000000
0.257874 -0.157520 0.001665 47 30 238 0.000000 -1.000000 0.000000
0.527023 -0.157520 0.067195 47 30 238 0.000000 -1.000000 0.000000
0.111899 -0.100186 0.465440 47 30 238 0.000000 0.000000 -1.000000
0.549320 -0.145460 0.492459 47 30 238 0.000000 -0.913170 0.407579
0.476315 -0.073549 0.465440 47 30 238 0.000000 0.000000 -1.000000
0.643973 -0.071523 0.118062 47 30 238 0.421260 0.906940 0.000000
0.251739 -0.049180 0.227199 47 30 238 0.000000 -1.000000 0.000000
0.460769 -0.157520 0.148079 47 30 238 0.000000 -1.000000 0.000000
0.555564 -0.049180 0.244741 47 30 238 0.000000 -1.000000 0.000000
0.190918 -0.157520 0.349666 47 30 238 0.000000 -1.000000 0.000000
0.102392 -0.049180 0.362351 47 30 238 0.000000 -1.000000 0.000000
0.033152 -0.049180 0.413121 47 30 238 0.000000 -1.000000 0.000000
0.638244 -0.049180 0.368110 47 30 238 0.000000 -1.000000 0.000000
0.224896 -0.049180 0.450628 47 30 238 0.000000 -1.000000 0.000000
0.512650 -0.102179 0.584184 47 30 238 0.000000 0.913170 0.407579
0.644204 -0.049180 0.090527 47 30 238 0.000000 -1.000000 0.000000
0.175931 -0.049180 0.143698 47 30 238 0.000000 -1.000000 0.000000
0.213128 -0.157520 0.348454 47 30 238 0.000000 -1.000000 0.000000
0.390481 -0.049180 0.088811 47 30 238 0.000000 -1.000000 0.000000
0.052405 -0.097553 0.569571 47 30 238 0.000000 0.906919 0.421305
0.660024 -0.128889 0.205576 47 30 238 0.407576 -0.913171 0.000000
0.376823 -0.157520 0.453365 47 30 238 0.000000 -1.000000 0.000000
0.399111 -0.099587 0.573948 47 30 238 0.000000 0.906919 0.421305
0.488359 -0.139362 0.506122 47 30 238 0.000000 -0.913170 0.407579
0.341702 -0.049180 0.152927 47 30 238 0.000000 -1.000000 0.000000
0.039603 -0.070877 0.465440 47 30 238 0.000000 0.000000 -1.000000
0.010839 -0.049180 0.342242 47 30 238 0.000000 -1.000000 0.000000
0.138186 -0.098109 0.570767 47 30 238 0.000000 0.906919 0.421305
0.209859 -0.049180 0.266819 47 30 238 0.000000 -1.000000 0.000000
0.372918 -0.077005 0.465440 47 30 238 0.000000 0.000000 -1.000000
0.011749 -0.049180 0.508801 47 30 238 0.000000 -1.000000 0.000000
0.534415 -0.049180 0.099280 47 30 238 0.000000 -1.000000 0.000000
0.627735 -0.143301 0.045945 47 30 238 0.407576 -0.913171 0.000000
0.592603 -0.157520 0.012183 47 30 238 0.000000 -1.000000 0.000000
0.259315 -0.051897 0.471289 47 30 238 0.000000 0.906919 0.421304
0.654509 -0.076417 0.216158 47 30 238 0.421260 0.906940 0.000000
0.518964 -0.049180 0.319533 47 30 238 0.000000 -1.000000 0.000000
0.076543 -0.148120 0.486500 47 30 238 0.000000 -0.913170 0.407579
0.248036 -0.157520 0.322801 47 30 238 0.000000 -1.000000 0.000000
0.511752 -0.099571 0.578340 47 30 238 0.000000 0.913170 0.407579
0.309154 -0.082883 0.537990 47 30 238 0.000000 0.906919 0.421304
0.076475 -0.157520 0.207395 47 30 238 0.000000 -1.000000 0.000000
0.344145 -0.157520 0.364482 47 30 238 0.000000 -1.000000 0.000000
0.642328 -0.049180 0.195606 47 30 238 0.000000 -1.000000 0.000000
0.296925 -0.131620 0.523468 47 30 238 0.000000 -0.913170 0.407579
0.103546 -0.049180 0.393355 47 30 238 0.000000 -1.000000 0.000000
0.113981 -0.075906 0.465440 47 30 238 0.000000 0.000000 -1.000000
0.183906 -0.049180 0.401343 47 30 238 0.000000 -1.000000 0.000000
0.046129 -0.049180 0.261608 47 30 238 0.000000 -1.000000 0.000000
0.105035 -0.049180 0.169685 47 30 238 0.000000 -1.000000 0.000000
0.358243 -0.146604 0.465440 47 30 238 0.000000 0.000000 -1.000000
0.534905 -0.049180 0.074716 47 30 238 0.000000 -1.000000 0.000000
0.317611 -0.097431 0.569308 47 30 238 0.000000 0.906919 0.421305
0.240459 -0.049180 0.039153 47 30 238 0.000000 -1.000000 0.000000
0.003136 -0.072944 0.465440 47 30 238 0.000000 0.000000 -1.000000
0.408500 -0.058635 0.485793 47 30 238 0.000000 0.906919 0.421304
0.275893 -0.049180 0.223702 47 30 238 0.000000 -1.000000 0.000000
0.030603 -0.049180 0.394463 47 30 238 0.000000 -1.000000 0.000000
0.456294 -0.049180 0.329971 47 30 238 0.000000 -1.000000 0.000000
0.614233 -0.057707 0.399953 47 30 238 0.421315 0.906914 0.000000
0.094914 -0.049180 0.284881 47 30 238 0.000000 -1.000000 0.000000
0.637550 -0.068540 0.035459 47 30 238 0.421315 0.906914 0.000000
0.540575 -0.049180 0.302963 47 30 238 0.000000 -1.000000 0.000000
0.067728 -0.052240 0.472027 47 30 238 0.000000 0.906919 0.421304
0.218985 -0.049180 0.427472 47 30 238 0.000000 -1.000000 0.000000
0.384098 -0.157520 0.169502 47 30 238 0.000000 -1.000000 0.000000
0.179166 -0.049180 0.122389 47 30 238 0.000000 -1.000000 0.000000
0.456019 -0.081230 0.534432 47 30 238 0.000000 0.906919 0.421304
0.073436 -0.049180 0.253486 47 30 238 0.000000 -1.000000 0.000000
0.180152 -0.157520 0.111919 47 30 238 0.000000 -1.000000 0.000000
0.405576 -0.049180 0.074078 47 30 238 0.000000 -1.000000 0.000000
0.677645 -0.087164 0.108177 47 30 238 0.421315 0.906914 0.000000
0.410761 -0.049180 0.174312 47 30 238 0.000000 -1.000000 0.000000
0.637684 -0.138860 0.065242 47 30 238 0.407576 -0.913171 0.000000
0.604497 -0.153673 0.329920 47 30 238 0.407576 -0.913171 0.000000
0.380716 -0.049180 0.439867 47 30 238 0.000000 -1.000000 0.000000
0.018828 -0.157520 0.438817 47 30 238 0.000000 -1.000000 0.000000
0.106184 -0.049180 0.078417 47 30 238 0.000000 -1.000000 0.000000
0.456158 -0.049180 0.391896 47 30 238 0.000000 -1.000000 0.000000
0.338571 -0.049180 0.158940 47 30 238 0.000000 -1.000000 0.000000
0.380736 -0.129342 0.528572 47 30 238 0.000000 -0.913170 0.407579
0.580502 -0.157520 0.018844 47 30 238 0.000000 -1.000000 0.000000
0.504328 -0.134849 0.514245 47 30 238 0.000000 -0.906925 0.421292
0.392151 -0.049180 0.465625 47 30 238 0.000000 -1.000000 0.000000
0.632399 -0.066146 0.409792 47 30 238 0.421315 0.906914 0.000000
0.452880 -0.157520 0.092553 47 30 238 0.000000 -1.000000 0.000000
0.200395 -0.157520 0.327356 47 30 238 0.000000 -1.000000 0.000000
0.021474 -0.076870 0.525048 47 30 238 0.000000 0.906919 0.421305
0.309238 -0.157520 0.136037 47 30 238 0.000000 -1.000000 0.000000
0.057928 -0.157520 0.226518 47 30 238 0.000000 -1.000000 0.000000
0.178487 -0.157520 0.454800 47 30 238 0.000000 -1.000000 0.000000
0.146938 -0.049180 0.017930 47 30 238 0.000000 -1.000000 0.000000
0.583564 -0.157520 0.141494 47 30 238 0.000000 -1.000000 0.000000
0.053789 -0.157520 0.050943 47 30 238 0.000000 -1.000000 0.000000
0.260786 -0.157520 0.318879 47 30 238 0.000000 -1.000000 0.000000
0.019044 -0.052349 0.472261 47 30 238 0.000000 0.906919 0.421304
0.328062 -0.049180 0.269118 47 30 238 0.000000 -1.000000 0.000000
0.094288 -0.049180 0.023796 47 30 238 0.000000 -1.000000 0.000000
0.349260 -0.112495 0.566318 47 30 238 0.000000 -0.913170 0.407579
0.348620 -0.157520 0.284566 47 30 238 0.000000 -1.000000 0.000000
0.292813 -0.049180 0.454367 47 30 238 0.000000 -1.000000 0.000000
0.404202 -0.049180 0.269766 47 30 238 0.000000 -1.000000 0.000000
0.168660 -0.157520 0.137436 47 30 238 0.000000 -1.000000 0.000000
0.419570 -0.146665 0.489761 47 30 238 0.000000 -0.913170 0.407579
0.086554 -0.086942 0.546728 47 30 238 0.000000 0.906919 0.421305
0.219235 -0.055088 0.478157 47 30 238 0.000000 0.906919 0.421304
0.618111 -0.059509 0.070382 47 30 238 0.421315 0.906914 0.000000
0.199271 -0.049180 0.510281 47 30 238 0.000000 -1.000000 0.000000
0.673485 -0.122881 0.217668 47 30 238 0.407576 -0.913171 0.000000
0.220590 -0.071211 0.512864 47 30 238 0.000000 0.906919 0.421304
0.671904 -0.123587 0.044582 47 30 238 0.407576 -0.913171 0.000000
0.669347 -0.083309 0.304160 47 30 238 0.421315 0.906914 0.000000
0.029577 -0.049180 0.137665 47 30 238 0.000000 -1.000000 0.000000
0.500301 -0.157520 0.288210 47 30 238 0.000000 -1.000000 0.000000
0.324477 -0.049180 0.119952 47 30 238 0.000000 -1.000000 0.000000
0.042726 -0.049180 0.098437 47 30 238 0.000000 -1.000000 0.000000
0.273640 -0.157520 0.194040 47 30 238 0.000000 -1.000000 0.000000
0.409493 -0.157520 0.026825 47 30 238 0.000000 -1.000000 0.000000
0.175421 -0.146157 0.465440 47 30 238 0.000000 0.000000 -1.000000
-0.482933 0.709623 -0.417843 246 139 57 -0.540804 0.000000 -0.841149
-0.266432 0.874580 -0.410100 246 139 57 0.361925 0.000000 -0.932207
-0.409352 0.704762 -0.242346 246 139 57 0.000000 -1.000000 0.000000
-0.482607 1.000000 -0.330112 246 139 57 0.000000 1.000000 0.000000
-0.393916 0.704762 -0.268302 246 139 57 0.000000 -1.000000 0.000000
-0.288511 1.000000 -0.242268 246 139 57 0.000000 1.000000 0.000000
-0.266156 1.000000 -0.363325 246 139 57 0.000000 1.000000 0.000000
-0.228702 1.000000 -0.393979 246 139 57 0.000000 1.000000 0.000000
-0.284848 0.848563 -0.417250 246 139 57 0.361925 0.000000 -0.932207
-0.323658 1.000000 -0.355321 246 139 57 0.000000 1.000000 0.000000
-0.380022 0.704762 -0.370389 246 139 57 0.000000 -1.000000 0.000000
-0.614723 0.704762 -0.225493 246 139 57 0.000000 -1.000000 0.000000
-0.330119 0.704762 -0.411991 246 139 57 0.000000 -1.000000 0.000000
-0.342812 0.704762 -0.184984 246 139 57 0.000000 -1.000000 0.000000
-0.224464 1.000000 -0.233984 246 139 57 0.000000 1.000000 0.000000
-0.178601 0.722347 -0.278177 246 139 57 1.000000 0.000000 0.000000
-0.462900 1.000000 -0.336478 246 139 57 0.000000 1.000000 0.000000
-0.523655 1.000000 -0.265507 246 139 57 0.000000 1.000000 0.000000
-0.285001 0.883731 -0.417310 246 139 57 0.361925 0.000000 -0.932207
-0.388280 1.000000 -0.260272 246 139 57 0.000000 1.000000 0.000000
-0.559111 0.831877 -0.347996 246 139 57 -0.804498 0.000000 -0.593956
-0.264374 0.775337 -0.409301 246 139 57 0.361925 0.000000 -0.932207
-0.219535 1.000000 -0.237325 246 139 57 0.000000 1.000000 0.000000
-0.337147 0.704762 -0.397562 246 139 57 0.000000 -1.000000 0.000000
-0.246907 0.848304 -0.402520 246 139 57 0.361925 0.000000 -0.932207
-0.344330 1.000000 -0.328647 246 139 57 0.000000 1.000000 0.000000
-0.345828 0.924553 -0.440925 246 139 57 0.361925 0.000000 -0.932207
-0.321135 0.704762 -0.242056 246 139 57 0.000000 -1.000000 0.000000
-0.467403 1.000000 -0.396476 246 139 57 0.000000 1.000000 0.000000
-0.420718 0.704762 -0.329636 246 139 57 0.000000 -1.000000 0.000000
-0.240450 0.840960 -0.400013 246 139 57 0.361925 0.000000 -0.932207
-0.363605 0.991736 -0.447828 246 139 57 0.361925 -0.000036 -0.932207
-0.624245 0.717256 -0.253437 246 139 57 -0.898569 0.000000 -0.438833
-0.178601 0.974484 -0.244299 246 139 57 1.000000 0.000000 0.000000
-0.393526 0.704762 -0.269110 246 139 57 0.000000 -1.000000 0.000000
-0.267529 0.972894 -0.410526 246 139 57 0.361925 0.000000 -0.932207
-0.529511 0.898648 -0.375982 246 139 57 -0.683880 0.000000 -0.729595
-0.592189 1.000000 -0.199969 246 139 57 0.000000 1.000000 0.000000
-0.178601 0.787620 -0.307510 246 139 57 1.000000 0.000000 0.000000
-0.523338 0.872370 -0.381769 246 139 57 -0.683880 0.000000 -0.729595
-0.498570 1.000000 -0.233842 246 139 57 0.000000 1.000000 0.000000
-0.178601 0.902264 -0.262643 246 139 57 1.000000 0.000000 0.000000
-0.429384 0.781287 -0.452271 246 139 57 -0.540804 0.000000 -0.841149
-0.300386 0.922874 -0.423282 246 139 57 0.361925 0.000000 -0.932207
-0.514761 0.714761 -0.389808 246 139 57 -0.683880 0.000000 -0.729595
-0.213594 0.704762 -0.185426 246 139 57 0.000000 -1.000000 0.000000
-0.178601 0.860962 -0.296078 246 139 57 1.000000 0.000000 0.000000
-0.308697 0.704762 -0.238223 246 139 57 0.000000 -1.000000 0.000000
-0.346827 0.704762 -0.324595 246 139 57 0.000000 -1.000000 0.000000
-0.506237 1.000000 -0.220269 246 139 57 0.000000 1.000000 0.000000
-0.471467 0.704762 -0.284796 246 139 57 0.000000 -1.000000 0.000000
-0.178601 0.916624 -0.161533 246 139 57 1.000000 0.000000 0.000000
-0.291027 0.704762 -0.324293 246 139 57 0.000000 -1.000000 0.000000
-0.243260 0.704762 -0.157585 246 139 57 0.000000 -1.000000 0.000000
-0.516762 0.792459 -0.387933 246 139 57 -0.683880 0.000000 -0.729595
-0.341167 0.704762 -0.381232 246 139 57 0.000000 -1.000000 0.000000
-0.178601 0.928502 -0.177501 246 139 57 1.000000 0.000000 0.000000
-0.540143 1.000000 -0.236549 246 139 57 0.000000 1.000000 0.000000
-0.454583 0.704762 -0.267057 246 139 57 0.000000 -1.000000 0.000000
-0.178601 0.719702 -0.309493 246 139 57 1.000000 0.000000 0.000000
-0.487251 0.704762 -0.339499 246 139 57 0.000000 -1.000000 0.000000
-0.366170 1.000000 -0.236537 246 139 57 0.000000 1.000000 0.000000
-0.643694 0.760744 -0.213612 246 139 57 -0.898569 0.000000 -0.438833
-0.227639 0.826978 -0.395039 246 139 57 0.361925 0.000000 -0.932207
-0.560910 0.800162 -0.345559 246 139 57 -0.804498 0.000000 -0.593956
-0.225150 0.948032 -0.394072 246 139 57 0.361925 0.000000 -0.932207
-0.437151 0.838644 -0.447278 246 139 57 -0.540804 0.000000 -0.841149
-0.607264 0.797130 -0.282774 246 139 57 -0.804498 0.000000 -0.593956
-0.239963 0.704762 -0.377003 246 139 57 0.000000 -1.000000 0.000000
-0.184154 0.972227 -0.378156 246 139 57 0.361929 0.000000 -0.932206
-0.560311 0.846320 -0.346371 246 139 57 -0.804498 0.000000 -0.593956
-0.389388 1.000000 -0.259665 246 139 57 0.000000 1.000000 0.000000
-0.476491 1.000000 -0.158467 246 139 57 0.000000 1.000000 0.000000
-0.657637 0.744052 -0.183933 246 139 57 -0.963083 0.000000 -0.269203
-0.178601 0.710052 -0.331392 246 139 57 1.000000 0.000000 0.000000
-0.455521 1.000000 -0.219712 246 139 57 0.000000 1.000000 0.000000
-0.179171 1.000000 -0.182450 246 139 57 0.000000 1.000000 0.000000
-0.482013 1.000000 -0.368789 246 139 57 0.000000 1.000000 0.000000
-0.178601 0.771870 -0.316050 246 139 57 1.000000 0.000000 0.000000
-0.364033 1.000000 -0.410220 246 139 57 0.000000 1.000000 0.000000
-0.178601 0.861868 -0.349715 246 139 57 1.000000 0.000000 0.000000
-0.178601 0.759494 -0.361885 246 139 57 1.000000 0.000000 0.000000
-0.328236 0.878410 -0.434095 246 139 57 0.361925 0.000000 -0.932207
-0.530687 1.000000 -0.357710 246 139 57 0.000000 1.000000 0.000000
-0.601481 1.000000 -0.156673 246 139 57 0.000000 1.000000 0.000000
-0.365912 0.704762 -0.326402 246 139 57 0.000000 -1.000000 0.000000
-0.342318 0.831713 -0.439563 246 139 57 0.361925 0.000000 -0.932207
-0.613891 0.968591 -0.273798 246 139 57 -0.804498 0.000000 -0.593956
-0.561897 0.888143 -0.344223 246 139 57 -0.804498 0.000000 -0.593956
-0.275269 0.704762 -0.172653 246 139 57 0.000000 -1.000000 0.000000
-0.405239 0.704762 -0.260275 246 139 57 0.000000 -1.000000 0.000000
-0.622646 0.968362 -0.256711 246 139 57 -0.898569 0.000000 -0.438833
-0.444386 0.704762 -0.382081 246 139 57 0.000000 -1.000000 0.000000
-0.330652 0.704762 -0.370584 246 139 57 0.000000 -1.000000 0.000000
-0.178601 0.872188 -0.227839 246 139 57 1.000000 0.000000 0.000000
-0.581102 0.704762 -0.214968 246 139 57 0.000000 -1.000000 0.000000
-0.337344 0.704762 -0.189680 246 139 57 0.000000 -1.000000 0.000000
-0.502567 1.000000 -0.193845 246 139 57 0.000000 1.000000 0.000000
-0.535323 0.939729 -0.370535 246 139 57 -0.683880 0.000000 -0.729595
-0.297180 0.771954 -0.422038 246 139 57 0.361925 0.000000 -0.932207
-0.533228 0.878020 -0.372498 246 139 57 -0.683880 0.000000 -0.729595
-0.368141 1.000000 -0.403442 246 139 57 0.000000 1.000000 0.000000
-0.546470 0.888263 -0.360086 246 139 57 -0.683880 0.000000 -0.729595
-0.481834 0.747522 -0.418549 246 139 57 -0.540804 0.000000 -0.841149
-0.261023 1.000000 -0.306722 246 139 57 0.000000 1.000000 0.000000
-0.507881 0.817170 -0.396257 246 139 57 -0.683880 0.000000 -0.729595
-0.514991 1.000000 -0.299583 246 139 57 0.000000 1.000000 0.000000
-0.369381 1.000000 -0.307228 246 139 57 0.000000 -1.000000 0.000000
-0.178601 0.739862 -0.222348 246 139 57 1.000000 0.000000 0.000000
-0.368752 1.000000 -0.430775 246 139 57 0.000000 1.000000 0.000000
-0.244025 1.000000 -0.333690 246 139 57 0.000000 1.000000 0.000000
-0.178601 0.772763 -0.275357 246 139 57 1.000000 0.000000 0.000000
-0.663554 0.741597 -0.162768 246 139 57 -0.963083 0.000000 -0.269203
-0.418701 0.704762 -0.355305 246 139 57 0.000000 -1.000000 0.000000
-0.252650 0.704762 -0.216992 246 139 57 0.000000 -1.000000 0.000000
-0.321367 0.704762 -0.316316 246 139 57 0.000000 -1.000000 0.000000
-0.651030 0.955810 -0.198590 246 139 57 -0.898569 0.000000 -0.438833
-0.410359 0.704762 -0.358846 246 139 57 0.000000 -1.000000 0.000000
-0.178601 0.760968 -0.224179 246 139 57 1.000000 0.000000 0.000000
-0.408764 0.704762 -0.171334 246 139 57 0.000000 -1.000000 0.000000
-0.659577 0.823103 -0.176994 246 139 57 -0.963083 0.000000 -0.269203
-0.566286 1.000000 -0.233399 246 139 57 0.000000 1.000000 0.000000
-0.264690 0.704762 -0.369304 246 139 57 0.000000 -1.000000 0.000000
-0.231532 1.000000 -0.327916 246 139 57 0.000000 1.000000 0.000000
-0.587116 1.000000 -0.194400 246 139 57 0.000000 1.000000 0.000000
-0.227486 1.000000 -0.351525 246 139 57 0.000000 1.000000 0.000000
-0.189358 1.000000 -0.353021 246 139 57 0.000000 1.000000 0.000000
-0.281341 1.000000 -0.243578 246 139 57 0.000000 1.000000 0.000000
-0.509291 1.000000 -0.321590 246 139 57 0.000000 1.000000 0.000000
-0.202102 0.779520 -0.385124 246 139 57 0.361925 0.000000 -0.932207
-0.647342 0.971565 -0.206142 246 139 57 -0.898569 0.000000 -0.438833
-0.284380 1.000000 -0.182409 246 139 57 0.000000 1.000000 0.000000
-0.242230 0.704762 -0.318933 246 139 57 0.000000 -1.000000 0.000000
-0.655887 0.793960 -0.188646 246 139 57 -0.898569 0.000000 -0.438833
-0.484005 0.704762 -0.395712 246 139 57 0.000000 -1.000000 0.000000
-0.242942 1.000000 -0.221041 246 139 57 0.000000 1.000000 0.000000
-0.591789 0.704762 -0.224481 246 139 57 0.000000 -1.000000 0.000000
-0.301627 1.000000 -0.157854 246 139 57 0.000000 1.000000 0.000000
-0.239659 1.000000 -0.357030 246 139 57 0.000000 1.000000 0.000000
-0.545220 1.000000 -0.304892 246 139 57 0.000000 1.000000 0.000000
-0.565435 0.704762 -0.260488 246 139 57 0.000000 -1.000000 0.000000
-0.374240 1.000000 -0.165218 246 139 57 0.000000 1.000000 0.000000
-0.503589 0.704762 -0.312623 246 139 57 0.000000 -1.000000 0.000000
-0.540455 0.704762 -0.284674 246 139 57 0.000000 -1.000000 0.000000
-0.487134 0.704762 -0.183563 246 139 57 0.000000 -1.000000 0.000000
-0.178601 0.722324 -0.302606 246 139 57 1.000000 0.000000 0.000000
-0.515468 1.000000 -0.305476 246 139 57 0.000000 1.000000 0.000000
-0.535186 1.000000 -0.322166 246 139 57 0.000000 1.000000 0.000000
-0.236712 0.704762 -0.308795 246 139 57 0.000000 -1.000000 0.000000
-0.322790 0.704762 -0.336544 246 139 57 0.000000 -1.000000 0.000000
-0.437493 0.704762 -0.301865 246 139 57 0.000000 -1.000000 0.000000
-0.379511 0.775051 -0.454002 246 139 57 0.361925 0.000000 -0.932207
-0.270581 0.704762 -0.319481 246 139 57 0.000000 -1.000000 0.000000
-0.324218 1.000000 -0.354937 246 139 57 0.000000 1.000000 0.000000
-0.237339 1.000000 -0.278885 246 139 57 0.000000 1.000000 0.000000
-0.563435 0.944693 -0.342139 246 139 57 -0.804498 0.000000 -0.593956
-0.306494 0.838604 -0.425654 246 139 57 0.361925 0.000000 -0.932207
-0.439528 0.704762 -0.384986 246 139 57 0.000000 -1.000000 0.000000
-0.239935 0.745344 -0.399813 246 139 57 0.361925 0.000000 -0.932207
-0.239527 0.704762 -0.226290 246 139 57 0.000000 -1.000000 0.000000
-0.335446 1.000000 -0.392281 246 139 57 0.000000 1.000000 0.000000
-0.326045 0.779821 -0.433245 246 139 57 0.361925 0.000000 -0.932207
-0.560301 1.000000 -0.218039 246 139 57 0.000000 1.000000 0.000000
-0.550132 0.704762 -0.290323 246 139 57 0.000000 -1.000000 0.000000
-0.376907 1.000000 -0.375143 246 139 57 0.000000 1.000000 0.000000
-0.501578 0.957416 -0.402165 246 139 57 -0.683880 0.000000 -0.729595
-0.593475 0.704762 -0.291443 246 139 57 0.000000 -1.000000 0.000000
-0.419109 0.704762 -0.168842 246 139 57 0.000000 -1.000000 0.000000
-0.428903 0.906425 -0.452581 246 139 57 -0.540804 0.000000 -0.841149
-0.258501 0.704762 -0.238282 246 139 57 0.000000 -1.000000 0.000000
-0.403563 1.000000 -0.264314 246 139 57 0.000000 1.000000 0.000000
-0.360828 0.704762 -0.333844 246 139 57 0.000000 -1.000000 0.000000
-0.438353 0.704762 -0.327703 246 139 57 0.000000 -1.000000 0.000000
-0.559050 0.704762 -0.298598 246 139 57 0.000000 -1.000000 0.000000
-0.368284 0.704762 -0.329845 246 139 57 0.000000 -1.000000 0.000000
-0.178601 0.907523 -0.257139 246 139 57 1.000000 0.000000 0.000000
-0.572679 1.000000 -0.268570 246 139 57 0.000000 1.000000 0.000000
-0.254553 1.000000 -0.170887 246 139 57 0.000000 1.000000 0.000000
-0.178601 0.710212 -0.179644 246 139 57 1.000000 0.000000 0.000000
-0.411935 1.000000 -0.446677 246 139 57 0.000000 1.000000 0.000000
-0.267485 1.000000 -0.376031 246 139 57 0.000000 1.000000 0.000000
-0.590137 0.733009 -0.305972 246 139 57 -0.804498 0.000000 -0.593956
-0.434480 0.930296 -0.448995 246 139 57 -0.540804 0.000000 -0.841149
-0.464882 0.704762 -0.244201 246 139 57 0.000000 -1.000000 0.000000
-0.490945 1.000000 -0.371110 246 139 57 0.000000 1.000000 0.000000
-0.534997 0.704762 -0.337043 246 139 57 0.000000 -1.000000 0.000000
-0.527374 1.000000 -0.301694 246 139 57 0.000000 1.000000 0.000000
-0.652726 0.704762 -0.159116 246 139 57 0.000000 -1.000000 0.000000
-0.389298 0.832652 -0.457802 246 139 57 0.361959 0.000000 -0.932194
-0.352609 0.704762 -0.441085 246 139 57 0.000000 -1.000000 0.000000
-0.460388 0.704762 -0.329029 246 139 57 0.000000 -1.000000 0.000000
-0.418932 0.704762 -0.353993 246 139 57 0.000000 -1.000000 0.000000
-0.258108 1.000000 -0.261845 246 139 57 0.000000 1.000000 0.000000
-0.565165 0.704762 -0.192923 246 139 57 0.000000 -1.000000 0.000000
-0.449823 0.704762 -0.295071 246 139 57 0.000000 -1.000000 0.000000
-0.322006 0.704762 -0.278970 246 139 57 0.000000 -1.000000 0.000000
-0.490418 1.000000 -0.311321 246 139 57 0.000000 1.000000 0.000000
-0.356264 0.704762 -0.252294 246 139 57 0.000000 -1.000000 0.000000
-0.444526 1.000000 -0.387082 246 139 57 0.000000 1.000000 0.000000
-0.477140 1.000000 -0.251073 246 139 57 0.000000 1.000000 0.000000
-0.362520 0.704762 -0.307787 246 139 57 0.000000 -1.000000 0.000000
-0.499716 0.953458 -0.403910 246 139 57 -0.683880 0.000000 -0.729595
-0.619382 0.801042 -0.263394 246 139 57 -0.898569 0.000000 -0.438833
-0.234621 1.000000 -0.194450 246 139 57 0.000000 1.000000 0.000000
-0.445432 0.704762 -0.202583 246 139 57 0.000000 -1.000000 0.000000
-0.558086 0.704762 -0.189102 246 139 57 0.000000 -1.000000 0.000000
-0.351055 0.704762 -0.316129 246 139 57 0.000000 -1.000000 0.000000
-0.496431 1.000000 -0.213516 246 139 57 0.000000 1.000000 0.000000
-0.343097 1.000000 -0.178122 246 139 57 0.000000 1.000000 0.000000
-0.595277 0.704762 -0.236615 246 139 57 0.000000 -1.000000 0.000000
-0.238160 1.000000 -0.303960 246 139 57 0.000000 1.000000 0.000000
-0.272991 1.000000 -0.374500 246 139 57 0.000000 1.000000 0.000000
-0.178601 0.898226 -0.225345 246 139 57 1.000000 0.000000 0.000000
-0.301822 0.704762 -0.377008 246 139 57 0.000000 -1.000000 0.000000
-0.313151 1.000000 -0.254067 246 139 57 0.000000 1.000000 0.000000
-0.572757 0.704762 -0.299010 246 139 57 0.000000 -1.000000 0.000000
-0.315512 0.948395 -0.429155 246 139 57 0.361925 0.000000 -0.932207
-0.188643 0.748043 -0.379899 246 139 57 0.361929 0.000000 -0.932206
-0.356870 0.704762 -0.368148 246 139 57 0.000000 -1.000000 0.000000
-0.248762 0.814877 -0.403240 246 139 57 0.361925 0.000000 -0.932207
-0.525291 0.704762 -0.330002 246 139 57 0.000000 -1.000000 0.000000
-0.521834 0.764370 -0.383178 246 139 57 -0.683880 0.000000 -0.729595
-0.236790 0.959219 -0.398592 246 139 57 0.361925 0.000000 -0.932207
-0.238156 0.763072 -0.399122 246 139 57 0.361925 0.000000 -0.932207
-0.178601 0.986170 -0.279990 246 139 57 1.000000 0.000000 0.000000
-0.563260 1.000000 -0.215926 246 139 57 0.000000 1.000000 0.000000
-0.471706 0.777824 -0.425061 246 139 57 -0.540804 0.000000 -0.841149
-0.213923 1.000000 -0.255769 246 139 57 0.000000 1.000000 0.000000
-0.178601 0.777289 -0.362865 246 139 57 1.000000 0.000000 0.000000
-0.643239 0.845585 -0.214543 246 139 57 -0.898569 0.000000 -0.438833
-0.197389 0.704762 -0.191274 246 139 57 0.000000 -1.000000 0.000000
-0.181244 0.704762 -0.307051 246 139 57 0.000000 -1.000000 0.000000
-0.226500 0.704762 -0.218426 246 139 57 0.000000 -1.000000 0.000000
-0.472180 0.704762 -0.224739 246 139 57 0.000000 -1.000000 0.000000
-0.492051 0.879409 -0.411096 246 139 57 -0.683880 0.000000 -0.729595
-0.628940 0.984907 -0.243822 246 139 57 -0.898569 0.000000 -0.438833
-0.562013 0.704762 -0.221003 246 139 57 0.000000 -1.000000 0.000000
-0.419676 0.885767 -0.458513 246 139 57 -0.540804 0.000000 -0.841149
-0.499694 0.704762 -0.347739 246 139 57 0.000000 -1.000000 0.000000
-0.550526 0.745030 -0.356285 246 139 57 -0.683880 0.000000 -0.729595
-0.178601 0.738484 -0.299268 246 139 57 1.000000 0.000000 0.000000
-0.294476 0.704762 -0.318503 246 139 57 0.000000 -1.000000 0.000000
-0.458347 0.704762 -0.303560 246 139 57 0.000000 -1.000000 0.000000
-0.477084 0.704762 -0.324850 246 139 57 0.000000 -1.000000 0.000000
-0.523436 1.000000 -0.198082 246 139 57 0.000000 1.000000 0.000000
-0.238823 1.000000 -0.278296 246 139 57 0.000000 1.000000 0.000000
-0.349067 0.704762 -0.340985 246 139 57 0.000000 -1.000000 0.000000
-0.475276 1.000000 -0.419423 246 139 57 0.000000 1.000000 0.000000
-0.178601 0.754332 -0.231986 246 139 57 1.000000 0.000000 0.000000
-0.363420 0.704762 -0.203134 246 139 57 0.000000 -1.000000 0.000000
-0.545397 0.704762 -0.293062 246 139 57 0.000000 -1.000000 0.000000
-0.278240 0.704762 -0.217758 246 139 57 0.000000 -1.000000 0.000000
-0.178601 0.908423 -0.329884 246 139 57 1.000000 0.000000 0.000000
-0.315541 1.000000 -0.379690 246 139 57 0.000000 1.000000 0.000000
-0.352017 0.704762 -0.189656 246 139 57 0.000000 -1.000000 0.000000
-0.489348 0.704762 -0.273556 246 139 57 0.000000 -1.000000 0.000000
-0.627425 0.890887 -0.246925 246 139 57 -0.898569 0.000000 -0.438833
-0.228757 0.791407 -0.395473 246 139 57 0.361925 0.000000 -0.932207
-0.488304 0.930320 -0.414390 246 139 57 -0.540804 0.000000 -0.841149
-0.425369 0.931710 -0.454853 246 139 57 -0.540804 0.000000 -0.841149
-0.178601 0.993127 -0.267416 246 139 57 1.000000 0.000000 0.000000
-0.300314 1.000000 -0.364939 246 139 57 0.000000 1.000000 0.000000
-0.194869 0.955314 -0.382316 246 139 57 0.361929 0.000000 -0.932206
-0.528785 0.740000 -0.376663 246 139 57 -0.683880 0.000000 -0.729595
-0.178601 0.876279 -0.226259 246 139 57 1.000000 0.000000 0.000000
-0.366321 1.000000 -0.338948 246 139 57 0.000000 1.000000 0.000000
-0.553115 1.000000 -0.261153 246 139 57 0.000000 1.000000 0.000000
-0.292396 0.704762 -0.337665 246 139 57 0.000000 -1.000000 0.000000
-0.392679 0.946532 -0.459115 246 139 57 0.361959 0.000000 -0.932194
-0.419876 1.000000 -0.173406 246 139 57 0.000000 1.000000 0.000000
-0.297323 1.000000 -0.204424 246 139 57 0.000000 1.000000 0.000000
-0.570345 1.000000 -0.166794 246 139 57 0.000000 1.000000 0.000000
-0.504462 0.704762 -0.335520 246 139 57 0.000000 -1.000000 0.000000
-0.330820 0.728451 -0.435098 246 139 57 0.361925 0.000000 -0.932207
-0.644178 0.893519 -0.212620 246 139 57 -0.898569 0.000000 -0.438833
-0.293340 0.704762 -0.247029 246 139 57 0.000000 -1.000000 0.000000
-0.178601 0.802452 -0.353582 246 139 57 1.000000 0.000000 0.000000
-0.228983 0.961681 -0.395561 246 139 57 0.361925 0.000000 -0.932207
-0.454350 0.704762 -0.162253 246 139 57 0.000000 -1.000000 0.000000
-0.364248 0.704762 -0.368892 246 139 57 0.000000 -1.000000 0.000000
-0.630256 0.923965 -0.241129 246 139 57 -0.898569 0.000000 -0.438833
-0.392257 1.000000 -0.380479 246 139 57 0.000000 1.000000 0.000000
-0.411011 0.704762 -0.182573 246 139 57 0.000000 -1.000000 0.000000
-0.448538 0.704762 -0.370636 246 139 57 0.000000 -1.000000 0.000000
-0.337715 0.704762 -0.225385 246 139 57 0.000000 -1.000000 0.000000
-0.665050 0.778916 -0.157414 246 139 57 -0.963083 0.000000 -0.269203
-0.433255 0.704762 -0.287766 246 139 57 0.000000 -1.000000 0.000000
-0.438381 1.000000 -0.219366 246 139 57 0.000000 1.000000 0.000000
-0.443185 1.000000 -0.214392 246 139 57 0.000000 1.000000 0.000000
-0.340093 0.704762 -0.241866 246 139 57 0.000000 -1.000000 0.000000
-0.331543 0.811423 -0.435379 246 139 57 0.361925 0.000000 -0.932207
-0.282709 0.897183 -0.416419 246 139 57 0.361925 0.000000 -0.932207
-0.454648 1.000000 -0.155905 246 139 57 0.000000 1.000000 0.000000
-0.473318 1.000000 -0.330162 246 139 57 0.000000 1.000000 0.000000
-0.178601 0.762075 -0.258041 246 139 57 1.000000 0.000000 0.000000
-0.455590 1.000000 -0.335690 246 139 57 0.000000 1.000000 0.000000
-0.576463 0.730069 -0.324493 246 139 57 -0.804498 0.000000 -0.593956
-0.328439 1.000000 -0.279790 246 139 57 0.000000 1.000000 0.000000
-0.377078 0.704762 -0.305378 246 139 57 0.000000 -1.000000 0.000000
-0.495829 0.704762 -0.290825 246 139 57 0.000000 -1.000000 0.000000
-0.178601 0.810192 -0.180481 246 139 57 1.000000 0.000000 0.000000
-0.614979 0.987115 -0.272324 246 139 57 -0.804498 0.000000 -0.593956
-0.649176 0.981419 -0.202388 246 139 57 -0.898569 0.000000 -0.438833
-0.393622 1.000000 -0.426365 246 139 57 0.000000 1.000000 0.000000
-0.472583 1.000000 -0.201281 246 139 57 0.000000 1.000000 0.000000
-0.494452 1.000000 -0.278450 246 139 57 0.000000 1.000000 0.000000
-0.603185 0.704762 -0.254066 246 139 57 0.000000 -1.000000 0.000000
-0.583366 0.704762 -0.218680 246 139 57 0.000000 -1.000000 0.000000
-0.208975 0.704762 -0.167485 246 139 57 0.000000 -1.000000 0.000000
-0.306434 1.000000 -0.199160 246 139 57 0.000000 1.000000 0.000000
-0.467880 0.704762 -0.352984 246 139 57 0.000000 -1.000000 0.000000
-0.215816 1.000000 -0.222474 246 139 57 0.000000 1.000000 0.000000
-0.178601 0.848345 -0.280380 246 139 57 1.000000 0.000000 0.000000
-0.493589 1.000000 -0.390589 246 139 57 0.000000 1.000000 0.000000
-0.538737 0.704762 -0.227280 246 139 57 0.000000 -1.000000 0.000000
-0.178601 0.739057 -0.325253 246 139 57 1.000000 0.000000 0.000000
-0.187930 0.860700 -0.379622 246 139 57 0.361929 0.000000 -0.932206
-0.368716 0.866505 -0.449811 246 139 57 0.361925 0.000000 -0.932207
-0.303602 1.000000 -0.274141 246 139 57 0.000000 1.000000 0.000000
-0.178601 0.929512 -0.365556 246 139 57 1.000000 0.000000 0.000000
-0.572961 0.704762 -0.282205 246 139 57 0.000000 -1.000000 0.000000
-0.349770 0.704762 -0.183441 246 139 57 0.000000 -1.000000 0.000000
-0.356240 0.704762 -0.358392 246 139 57 0.000000 -1.000000 0.000000
-0.263955 0.704762 -0.328023 246 139 57 0.000000 -1.000000 0.000000
-0.374685 0.704762 -0.421143 246 139 57 0.000000 -1.000000 0.000000
-0.202047 1.000000 -0.338526 246 139 57 0.000000 1.000000 0.000000
-0.185939 0.704762 -0.202365 246 139 57 0.000000 -1.000000 0.000000
-0.318968 0.704762 -0.170110 246 139 57 0.000000 -1.000000 0.000000
-0.500902 0.704762 -0.324090 246 139 57 0.000000 -1.000000 0.000000
-0.485614 0.704762 -0.245275 246 139 57 0.000000 -1.000000 0.000000
-0.388126 0.704762 -0.350328 246 139 57 0.000000 -1.000000 0.000000
-0.362227 0.704762 -0.183155 246 139 57 0.000000 -1.000000 0.000000
-0.178601 0.888577 -0.215226 246 139 57 1.000000 0.000000 0.000000
-0.201436 0.758647 -0.384866 246 139 57 0.361925 0.000000 -0.932207
-0.436803 1.000000 -0.236971 246 139 57 0.000000 1.000000 0.000000
-0.311635 1.000000 -0.184108 246 139 57 0.000000 1.000000 0.000000
-0.178601 0.918482 -0.363184 246 139 57 1.000000 0.000000 0.000000
-0.584194 0.886059 -0.314021 246 139 57 -0.804498 0.000000 -0.593956
-0.554508 1.000000 -0.284125 246 139 57 0.000000 1.000000 0.000000
-0.199363 1.000000 -0.157845 246 139 57 0.000000 1.000000 0.000000
-0.383781 0.704762 -0.181727 246 139 57 0.000000 -1.000000 0.000000
-0.309070 0.807724 -0.426654 246 139 57 0.361925 0.000000 -0.932207
-0.431329 1.000000 -0.196982 246 139 57 0.000000 1.000000 0.000000
-0.349363 0.911182 -0.442298 246 139 57 0.361925 0.000000 -0.932207
-0.579403 0.704762 -0.261444 246 139 57 0.000000 -1.000000 0.000000
-0.546998 0.740085 -0.359592 246 139 57 -0.683880 0.000000 -0.729595
-0.233107 0.704762 -0.397053 246 139 57 0.000000 -1.000000 0.000000
-0.593703 0.704762 -0.245037 246 139 57 0.000000 -1.000000 0.000000
-0.599729 0.981996 -0.292979 246 139 57 -0.804498 0.000000 -0.593956
-0.472556 0.704762 -0.391138 246 139 57 0.000000 -1.000000 0.000000
-0.561524 1.000000 -0.323750 246 139 57 0.000000 1.000000 0.000000
-0.610505 1.000000 -0.204608 246 139 57 0.000000 1.000000 0.000000
-0.178601 0.819930 -0.228638 246 139 57 1.000000 0.000000 0.000000
-0.475356 0.704762 -0.167180 246 139 57 0.000000 -1.000000 0.000000
-0.483908 0.923555 -0.417216 246 139 57 -0.540804 0.000000 -0.841149
-0.342981 0.704762 -0.328780 246 139 57 0.000000 -1.000000 0.000000
-0.526128 1.000000 -0.350797 246 139 57 0.000000 1.000000 0.000000
-0.499819 0.704762 -0.160666 246 139 57 0.000000 -1.000000 0.000000
-0.308604 0.769377 -0.426473 246 139 57 0.361925 0.000000 -0.932207
-0.436713 0.704762 -0.207615 246 139 57 0.000000 -1.000000 0.000000
-0.197320 0.749459 -0.383268 246 139 57 0.361929 0.000000 -0.932206
-0.469411 0.704762 -0.348951 246 139 57 0.000000 -1.000000 0.000000
-0.219138 1.000000 -0.372775 246 139 57 0.000000 1.000000 0.000000
-0.246692 1.000000 -0.334698 246 139 57 0.000000 1.000000 0.000000
-0.502919 0.807059 -0.400908 246 139 57 -0.683880 0.000000 -0.729595
-0.435698 0.704762 -0.404894 246 139 57 0.000000 -1.000000 0.000000
-0.382287 1.000000 -0.404870 246 139 57 0.000000 1.000000 0.000000
-0.418899 1.000000 -0.357886 246 139 57 0.000000 1.000000 0.000000
-0.329461 1.000000 -0.281878 246 139 57 0.000000 1.000000 0.000000
-0.178601 0.782143 -0.355874 246 139 57 1.000000 0.000000 0.000000
-0.181821 1.000000 -0.214743 246 139 57 0.000000 1.000000 0.000000
-0.487930 1.000000 -0.225654 246 139 57 0.000000 1.000000 0.000000
-0.377160 1.000000 -0.238641 246 139 57 0.000000 1.000000 0.000000
-0.209474 0.704762 -0.306715 246 139 57 0.000000 -1.000000 0.000000
-0.471585 0.704762 -0.161555 246 139 57 0.000000 -1.000000 0.000000
-0.487847 0.960304 -0.414684 246 139 57 -0.540804 0.000000 -0.841149
-0.178601 0.857028 -0.284043 246 139 57 1.000000 0.000000 0.000000
-0.178601 0.801897 -0.356349 246 139 57 1.000000 0.000000 0.000000
-0.550572 0.774509 -0.356241 246 139 57 -0.683880 0.000000 -0.729595
-0.410691 1.000000 -0.220485 246 139 57 0.000000 1.000000 0.000000
-0.283971 1.000000 -0.315153 246 139 57 0.000000 1.000000 0.000000
-0.202036 0.800467 -0.385099 246 139 57 0.361925 0.000000 -0.932207
-0.243985 0.927083 -0.401385 246 139 57 0.361925 0.000000 -0.932207
-0.634610 0.835647 -0.232213 246 139 57 -0.898569 0.000000 -0.438833
-0.376212 0.704762 -0.227771 246 139 57 0.000000 -1.000000 0.000000
-0.233377 1.000000 -0.279419 246 139 57 0.000000 1.000000 0.000000
-0.467759 0.854450 -0.427599 246 139 57 -0.540804 0.000000 -0.841149
-0.486638 0.806639 -0.415461 246 139 57 -0.540804 0.000000 -0.841149
-0.210348 0.704762 -0.206400 246 139 57 0.000000 -1.000000 0.000000
-0.257386 1.000000 -0.348980 246 139 57 0.000000 1.000000 0.000000
-0.408346 0.750821 -0.465199 246 139 57 0.361959 0.000000 -0.932194
-0.296547 0.736598 -0.421792 246 139 57 0.361925 0.000000 -0.932207
-0.327139 1.000000 -0.277137 246 139 57 0.000000 1.000000 0.000000
-0.405440 0.824527 -0.464070 246 139 57 0.361959 0.000000 -0.932194
-0.340895 1.000000 -0.391629 246 139 57 0.000000 1.000000 0.000000
-0.515325 0.941596 -0.389280 246 139 57 -0.683880 0.000000 -0.729595
-0.401417 1.000000 -0.182136 246 139 57 0.000000 1.000000 0.000000
-0.627051 0.804091 -0.247690 246 139 57 -0.898569 0.000000 -0.438833
-0.204043 1.000000 -0.313228 246 139 57 0.000000 1.000000 0.000000
-0.557428 0.822023 -0.349814 246 139 57 -0.683880 0.000000 -0.729595
-0.308152 1.000000 -0.398236 246 139 57 0.000000 1.000000 0.000000
-0.441858 0.704762 -0.267421 246 139 57 0.000000 -1.000000 0.000000
-0.198737 1.000000 -0.250539 246 139 57 0.000000 1.000000 0.000000
-0.608980 0.868297 -0.280450 246 139 57 -0.804498 0.000000 -0.593956
-0.572838 0.900476 -0.329402 246 139 57 -0.804498 0.000000 -0.593956
-0.522962 0.704762 -0.304023 246 139 57 0.000000 -1.000000 0.000000
-0.533369 0.905882 -0.372367 246 139 57 -0.683880 0.000000 -0.729595
-0.178601 0.892830 -0.194008 246 139 57 1.000000 0.000000 0.000000
-0.262723 1.000000 -0.331629 246 139 57 0.000000 1.000000 0.000000
-0.641644 0.727854 -0.217811 246 139 57 -0.898569 0.000000 -0.438833
-0.601685 0.750084 -0.290331 246 139 57 -0.804498 0.000000 -0.593956
-0.504787 1.000000 -0.374607 246 139 57 0.000000 1.000000 0.000000
-0.307950 1.000000 -0.263044 246 139 57 0.000000 1.000000 0.000000
-0.235609 0.976300 -0.398133 246 139 57 0.361925 0.000000 -0.932207
-0.512265 0.859702 -0.392148 246 139 57 -0.683880 0.000000 -0.729595
-0.494084 1.000000 -0.162317 246 139 57 0.000000 1.000000 0.000000
-0.617213 1.000000 -0.262236 246 139 57 0.000000 1.000000 0.000000
-0.370930 0.704762 -0.409154 246 139 57 0.000000 -1.000000 0.000000
-0.628242 0.954712 -0.245252 246 139 57 -0.898569 0.000000 -0.438833
-0.457428 0.910749 -0.434241 246 139 57 -0.540804 0.000000 -0.841149
-0.271769 1.000000 -0.328101 246 139 57 0.000000 1.000000 0.000000
-0.633859 1.000000 -0.177752 246 139 57 0.000000 1.000000 0.000000
-0.384825 0.839243 -0.456066 246 139 57 0.361925 0.000000 -0.932207
-0.178601 0.824455 -0.358678 246 139 57 1.000000 0.000000 0.000000
-0.551208 1.000000 -0.305572 246 139 57 0.000000 1.000000 0.000000
-0.539080 0.704762 -0.250693 246 139 57 0.000000 -1.000000 0.000000
-0.589247 0.704762 -0.281748 246 139 57 0.000000 -1.000000 0.000000
-0.419422 0.947173 -0.458676 246 139 57 -0.540804 0.000000 -0.841149
-0.395357 0.704762 -0.347407 246 139 57 0.000000 -1.000000 0.000000
-0.610432 0.910740 -0.278482 246 139 57 -0.804498 0.000000 -0.593956
-0.248477 0.704762 -0.172524 246 139 57 0.000000 -1.000000 0.000000
-0.455334 1.000000 -0.403498 246 139 57 0.000000 1.000000 0.000000
-0.620466 0.759697 -0.261174 246 139 57 -0.898569 0.000000 -0.438833
-0.540963 0.716021 -0.365248 246 139 57 -0.683880 0.000000 -0.729595
-0.332877 0.704762 -0.209589 246 139 57 0.000000 -1.000000 0.000000
-0.178601 0.840162 -0.302896 246 139 57 1.000000 0.000000 0.000000
-0.178601 0.857296 -0.252539 246 139 57 1.000000 0.000000 0.000000
-0.428726 1.000000 -0.421161 246 139 57 0.000000 1.000000 0.000000
-0.218316 1.000000 -0.269401 246 139 57 0.000000 1.000000 0.000000
-0.178601 0.768400 -0.279260 246 139 57 1.000000 0.000000 0.000000
-0.189457 1.000000 -0.262991 246 139 57 0.000000 1.000000 0.000000
-0.231871 1.000000 -0.369480 246 139 57 0.000000 1.000000 0.000000
-0.635846 0.953017 -0.229683 246 139 57 -0.898569 0.000000 -0.438833
-0.475672 1.000000 -0.258542 246 139 57 0.000000 1.000000 0.000000
-0.464696 1.000000 -0.366802 246 139 57 0.000000 1.000000 0.000000
-0.178601 0.770539 -0.277259 246 139 57 1.000000 0.000000 0.000000
-0.540320 0.704762 -0.241282 246 139 57 0.000000 -1.000000 0.000000
-0.199376 0.704762 -0.344506 246 139 57 0.000000 -1.000000 0.000000
-0.604206 0.848521 -0.286916 246 139 57 -0.804498 0.000000 -0.593956
-0.631939 0.879556 -0.237681 246 139 57 -0.898569 0.000000 -0.438833
-0.425659 1.000000 -0.406927 246 139 57 0.000000 1.000000 0.000000
-0.345130 1.000000 -0.220518 246 139 57 0.000000 1.000000 0.000000
-0.535018 0.704762 -0.245549 246 139 57 0.000000 -1.000000 0.000000
-0.456483 0.818600 -0.434848 246 139 57 -0.540804 0.000000 -0.841149
-0.269522 0.704762 -0.339742 246 139 57 0.000000 -1.000000 0.000000
-0.606394 0.999341 -0.283952 246 139 57 -0.804498 0.000000 -0.593956
-0.358792 0.892342 -0.445958 246 139 57 0.361925 0.000000 -0.932207
-0.222383 1.000000 -0.281239 246 139 57 0.000000 1.000000 0.000000
-0.341638 1.000000 -0.390942 246 139 57 0.000000 1.000000 0.000000
-0.178601 0.862439 -0.256181 246 139 57 1.000000 0.000000 0.000000
-0.573691 0.761264 -0.328248 246 139 57 -0.804498 0.000000 -0.593956
-0.291146 0.853351 -0.419695 246 139 57 0.361925 0.000000 -0.932207
-0.226208 1.000000 -0.221061 246 139 57 0.000000 1.000000 0.000000
-0.487147 1.000000 -0.248969 246 139 57 0.000000 1.000000 0.000000
-0.609055 1.000000 -0.183888 246 139 57 0.000000 1.000000 0.000000
-0.492833 0.704762 -0.355550 246 139 57 0.000000 -1.000000 0.000000
-0.312654 0.704762 -0.291436 246 139 57 0.000000 -1.000000 0.000000
-0.199656 0.787208 -0.384175 246 139 57 0.361925 0.000000 -0.932207
-0.645305 0.878226 -0.210313 246 139 57 -0.898569 0.000000 -0.438833
-0.636062 0.929987 -0.229239 246 139 57 -0.898569 0.000000 -0.438833
-0.493527 0.704762 -0.209133 246 139 57 0.000000 -1.000000 0.000000
-0.313981 1.000000 -0.268090 246 139 57 0.000000 1.000000 0.000000
-0.188802 0.820824 -0.379961 246 139 57 0.361929 0.000000 -0.932206
-0.178601 0.793292 -0.176094 246 139 57 1.000000 0.000000 0.000000
-0.178601 0.767479 -0.366409 246 139 57 1.000000 0.000000 0.000000
-0.272557 0.892939 -0.412478 246 139 57 0.361925 0.000000 -0.932207
-0.518615 1.000000 -0.272819 246 139 57 0.000000 1.000000 0.000000
-0.425228 0.939035 -0.454943 246 139 57 -0.540804 0.000000 -0.841149
-0.275518 0.711717 -0.413628 246 139 57 0.361929 0.000000 -0.932206
-0.590407 1.000000 -0.186858 246 139 57 0.000000 1.000000 0.000000
-0.422179 1.000000 -0.398568 246 139 57 0.000000 1.000000 0.000000
-0.392457 0.837324 -0.459029 246 139 57 0.361959 0.000000 -0.932194
-0.372589 1.000000 -0.253490 246 139 57 0.000000 1.000000 0.000000
-0.315612 0.704762 -0.242523 246 139 57 0.000000 -1.000000 0.000000
-0.549337 0.973836 -0.357399 246 139 57 -0.683880 0.000000 -0.729595
-0.499433 1.000000 -0.340870 246 139 57 0.000000 1.000000 0.000000
-0.640698 0.790661 -0.219747 246 139 57 -0.898569 0.000000 -0.438833
