ply
format ascii 1.0
element vertex 695
property float x
property float y
property float z
property uchar red
property uchar green
property uchar blue
property float nx
property float ny
property float nz
end_header
0.393382 -0.318866 -0.391283 83 9 37 -0.999999 0.000000 -0.001443
-0.237577 -0.191301 -0.059897 227 120 231 0.000000 1.000000 0.000000
0.392249 -0.811824 0.397578 91 65 196 -0.999999 0.000000 -0.001435
0.354343 -0.257071 0.398586 138 212 170 0.000000 -1.000000 0.000000
-0.337664 -0.261735 0.368481 233 104 123 0.999999 0.000012 0.001436
-0.293458 -0.778180 -0.437656 183 150 138 0.000000 -1.000000 0.000000
-0.068837 0.169561 -0.479695 147 92 225 0.019912 -0.957509 0.287714
-0.358098 0.243733 -0.019150 39 23 143 0.985835 0.167702 0.002485
-0.343078 -0.191301 0.241151 233 104 123 0.000000 1.000000 0.000000
0.392258 -0.716259 0.391192 17 215 20 -1.000000 -0.000093 -0.000139
-0.334406 -0.447820 -0.486247 219 89 130 0.001448 0.000000 -0.999999
-0.316422 -0.104223 0.463329 144 198 136 0.706100 0.010475 0.708035
-0.356544 -0.735465 0.150361 52 106 181 0.000000 1.000000 0.000000
-0.344299 0.162914 -0.002074 39 23 143 0.985123 0.171843 0.001317
0.374858 -0.684062 -0.453151 153 211 104 -0.999999 0.000000 -0.001472
0.383205 -0.840626 -0.427952 89 16 140 -0.001405 0.000000 0.999999
-0.082537 -0.280912 -0.477839 227 120 231 0.001431 0.000000 -0.999999
0.349169 -0.306329 0.440713 138 212 170 0.001415 0.000000 -0.999999
-0.102999 -0.257072 0.365286 233 104 123 0.000000 -1.000000 0.000000
-0.391246 -0.195948 -0.376469 227 120 231 -0.757382 0.652971 -0.001090
0.263728 -0.194374 -0.416186 83 9 37 -0.001440 0.000000 0.999999
-0.152013 -0.287416 0.439994 233 104 123 0.001437 -0.000045 -0.999999
0.388241 -0.961975 0.481668 74 9 112 -0.001406 0.000000 0.999999
0.121592 0.206626 -0.454895 28 81 63 -0.118828 0.164287 0.979229
-0.369451 -0.257506 -0.057960 227 120 231 -0.999999 0.000012 -0.001441
-0.469171 0.932302 -0.197665 139 104 116 -0.898492 -0.438407 -0.022630
0.006246 -0.322231 0.472620 233 104 123 -0.001433 0.000000 0.999999
0.416515 -0.261476 0.420591 138 212 170 0.999999 -0.000046 0.001497
-0.397061 0.273896 -0.039138 39 23 143 -0.987213 -0.159261 -0.006821
0.040349 -0.272220 -0.445264 83 9 37 -0.001434 -0.000010 0.999999
-0.311247 -0.257072 0.255578 233 104 123 0.000000 -1.000000 0.000000
-0.146168 -0.762663 -0.428712 183 150 138 -0.001437 0.000000 0.999999
0.374880 -0.394694 -0.469164 16 5 178 0.999999 0.000000 0.001420
-0.350139 -0.735465 -0.064310 254 147 182 0.000000 1.000000 0.000000
-0.368940 -0.379192 -0.412682 219 89 130 -0.999999 0.000000 -0.001455
-0.472957 0.937971 -0.066245 56 175 92 -0.853338 -0.521357 -0.001167
-0.432475 0.823387 0.009207 226 179 192 -0.998717 0.050607 -0.001530
0.393033 -0.337288 -0.148413 83 9 37 -0.999999 -0.000032 -0.001447
0.201859 -0.191299 -0.283080 83 9 37 0.000000 1.000000 0.000000
0.430527 -0.853869 -0.075848 234 13 186 0.000000 1.000000 0.000000
-0.423566 0.909493 0.189836 19 19 219 0.505612 -0.812339 -0.290623
-0.171064 -0.191301 -0.360398 227 120 231 0.000000 1.000000 0.000000
-0.436402 0.710890 0.151350 226 179 192 -0.958424 -0.064294 0.278012
0.073919 0.196549 -0.514774 28 81 63 0.116353 -0.197926 -0.973287
0.389011 -0.669760 -0.427944 153 211 104 -0.001405 0.000000 0.999999
-0.092953 0.233422 0.468104 143 78 54 0.026900 0.951731 -0.305751
-0.182157 0.227603 -0.493436 147 92 225 -0.087703 0.703139 -0.705623
-0.323940 -0.257072 0.256751 233 104 123 0.000000 -1.000000 0.000000
0.067992 -0.257070 0.456090 138 212 170 0.000000 1.000000 0.000000
-0.394245 0.874346 -0.475029 139 104 116 0.683267 0.182649 -0.706955
0.308663 0.117130 0.435015 83 254 21 -0.685573 0.015967 -0.727829
-0.301389 -0.194860 -0.370178 227 120 231 0.999999 0.000000 0.001438
-0.354371 -0.351834 -0.486276 219 89 130 0.001448 0.000000 -0.999999
-0.321274 0.477970 -0.437703 179 220 150 0.965468 0.014305 0.260129
0.183765 -0.257071 -0.346315 83 9 37 0.000000 -1.000000 0.000000
0.170258 -0.257071 -0.307824 83 9 37 0.000000 -1.000000 0.000000
-0.037395 -0.191300 0.453148 233 104 123 0.000000 1.000000 0.000000
-0.032596 -0.301589 0.472564 233 104 123 -0.001431 0.000000 0.999999
-0.394934 0.507987 -0.105697 187 196 48 0.947461 0.097903 -0.304519
0.416947 -0.294477 0.120765 138 212 170 0.999999 0.000000 0.001441
-0.318410 -0.779154 -0.450969 209 179 137 0.999999 0.000000 0.001472
-0.389269 -0.194490 -0.202433 227 120 231 -0.432945 0.901420 -0.000623
0.392758 -0.288459 0.043664 138 212 170 -0.999999 0.000000 -0.001436
-0.387543 0.447976 -0.036536 187 196 48 0.992532 0.121866 0.005289
-0.367138 -0.361451 -0.365769 219 89 130 -0.001419 0.000000 0.999999
-0.245219 -0.326501 -0.475093 227 120 231 0.000000 -1.000000 0.000000
-0.416996 0.625447 0.105302 187 196 48 -0.003046 0.076586 0.997058
-0.250466 -0.257072 0.238779 233 104 123 0.000000 -1.000000 0.000000
0.392511 -0.279979 0.215362 138 212 170 -0.999999 0.000000 -0.001436
0.246688 -0.191299 0.175607 138 212 170 0.000000 1.000000 0.000000
-0.369071 0.117161 0.450532 140 82 88 -0.966202 -0.014304 0.257389
-0.403497 0.671717 -0.017633 226 179 192 0.999967 0.007763 0.002412
-0.334003 -0.571468 -0.486246 240 12 142 0.001448 0.000000 -0.999999
-0.382704 -0.761493 0.181614 52 106 181 -0.994144 -0.108057 -0.001427
0.012868 -0.191300 -0.265292 227 120 231 0.000000 1.000000 0.000000
-0.404469 0.319223 0.004540 39 23 143 -0.989356 -0.145507 -0.001580
0.416706 -0.275187 0.288379 138 212 170 0.999999 0.000000 0.001441
-0.320096 -0.312821 -0.430545 227 120 231 0.706361 0.000000 0.707851
0.457707 -0.199796 0.075196 138 212 170 0.757352 0.653006 0.001090
0.243928 0.224276 -0.483274 190 123 137 0.129955 0.697373 -0.704828
0.393365 -0.430601 -0.379351 16 5 178 -0.999999 0.000058 -0.001229
0.168851 -0.191299 0.181786 138 212 170 0.000000 1.000000 0.000000
-0.337207 -0.274210 0.050141 233 104 123 0.999999 0.000012 0.001436
0.416840 -0.297320 0.194492 138 212 170 0.999999 -0.000034 0.001441
0.373547 -0.767000 0.459623 91 65 196 0.999999 0.000000 0.001445
-0.318689 -0.777856 -0.256287 125 29 133 0.999999 0.000000 0.001434
-0.389768 0.467996 0.030607 187 196 48 0.994790 0.101941 -0.000824
-0.159041 -0.761281 -0.492143 183 150 138 0.001425 -0.108085 -0.994141
-0.361024 -0.051775 0.463613 144 198 136 -0.707939 -0.010469 0.706196
0.392873 -0.915946 -0.036111 234 13 186 -0.999999 0.000032 -0.001439
-0.151117 -0.309188 0.472394 233 104 123 -0.001431 0.000000 0.999999
0.353767 -0.257071 -0.317381 83 9 37 0.000000 -1.000000 0.000000
0.261035 -0.191299 0.180825 138 212 170 0.000000 1.000000 0.000000
-0.369619 -0.308623 0.059424 233 104 123 -0.999999 -0.000046 -0.001436
0.218428 -0.276255 -0.445009 83 9 37 -0.001436 0.000012 0.999999
0.032413 0.206952 0.512919 126 151 76 0.030338 0.199678 0.979392
0.413428 -0.709036 -0.427910 153 211 104 0.001480 0.000000 -0.999999
0.401557 -0.927510 0.080647 234 13 186 0.000000 -1.000000 0.000000
-0.298624 -0.257072 0.093687 233 104 123 0.000000 -1.000000 0.000000
0.292696 -0.257071 0.447955 138 212 170 0.000000 -1.000000 0.000000
0.387006 0.235409 -0.470331 234 93 131 -0.137858 0.960680 -0.241015
0.107698 -0.257071 -0.057802 83 9 37 0.000000 -1.000000 0.000000
-0.226476 -0.257072 0.028600 233 104 123 0.000000 -1.000000 0.000000
0.374857 -0.818530 -0.452633 89 16 140 -0.999999 0.000000 -0.001472
-0.234578 -0.191301 0.002054 233 104 123 0.000000 1.000000 0.000000
0.374365 -0.878703 -0.109932 234 13 186 -0.999999 0.000000 -0.001436
-0.404133 0.631276 0.096585 187 196 48 0.989857 0.044102 0.135050
0.135108 -0.200695 0.409813 138 212 170 0.000000 1.000000 0.000000
-0.456016 0.910883 0.369693 19 19 219 -0.918876 -0.394249 0.015310
-0.219680 -0.257072 0.335452 233 104 123 0.000000 -1.000000 0.000000
0.243478 -0.191299 -0.427493 83 9 37 0.000000 1.000000 0.000000
0.374856 -0.345512 -0.452246 16 5 178 -0.999999 0.000000 -0.001472
0.155704 -0.311854 -0.477498 83 9 37 0.001433 0.000000 -0.999999
-0.357105 -0.058907 -0.432372 253 63 74 -0.708007 -0.010472 0.706128
-0.319691 -0.505677 0.441528 253 188 49 0.999999 0.000000 0.001430
-0.325551 -0.352362 -0.428969 219 89 130 -0.001490 0.000000 0.999999
0.156532 -0.254601 0.498696 138 212 170 -0.000620 -0.901427 0.432931
0.005241 -0.323513 0.472618 233 104 123 -0.001433 0.000000 0.999999
-0.449659 0.900616 -0.353793 139 104 116 -0.851539 -0.524290 -0.001274
0.392679 -0.286795 0.098285 138 212 170 -0.999999 0.000000 -0.001436
0.096192 -0.257071 -0.333187 83 9 37 0.000000 -1.000000 0.000000
0.136381 -0.191300 -0.365818 83 9 37 0.000000 1.000000 0.000000
-0.046677 -0.191300 0.193664 233 104 123 0.000000 1.000000 0.000000
0.381771 -0.631827 0.424392 17 215 20 0.001448 0.000000 -0.999999
-0.319293 -0.739543 0.164556 52 106 181 0.999999 0.000000 0.001434
-0.401146 0.761723 0.019938 226 179 192 0.999065 -0.043217 0.001541
-0.243527 -0.257072 -0.357475 227 120 231 0.000000 -1.000000 0.000000
-0.462980 0.998587 0.046941 56 175 92 -0.415475 0.907696 0.058899
-0.219707 -0.191301 -0.334989 227 120 231 0.000000 1.000000 0.000000
-0.393358 0.914831 0.370393 19 19 219 0.985942 0.166398 -0.015159
-0.375464 -0.763750 0.425986 7 223 40 -0.923512 0.000000 -0.383569
0.235890 -0.257070 0.440972 138 212 170 0.000000 1.000000 0.000000
-0.327881 0.600715 -0.466097 179 220 150 0.703833 0.076903 -0.706190
0.304623 0.224552 0.469770 33 200 176 0.128940 0.576377 0.806948
0.373947 -0.574168 0.428386 0 141 167 -0.923272 0.000000 -0.384147
0.180293 -0.257071 0.293509 138 212 170 0.000000 -1.000000 0.000000
-0.007132 -0.257071 -0.394755 227 120 231 0.000000 -1.000000 0.000000
-0.375115 -0.579973 -0.445753 240 12 142 -0.999999 0.000000 -0.001429
0.395568 -0.896583 0.352927 11 196 165 0.000000 -1.000000 0.000000
-0.369319 -0.293415 -0.149521 227 120 231 -0.999999 0.000012 -0.001441
0.384553 -0.729017 -0.485216 153 211 104 0.001405 0.000000 -0.999999
-0.431459 0.548485 0.081626 187 196 48 -0.995706 -0.089885 0.022145
0.101628 -0.305533 -0.445176 83 9 37 -0.001436 0.000012 0.999999
0.401184 -0.460914 0.377611 32 234 126 0.001478 -0.066237 -0.997803
0.151102 -0.255155 -0.501335 83 9 37 0.000623 -0.901418 -0.432949
-0.432343 0.828164 0.090009 226 179 192 -0.998664 0.051653 -0.001383
-0.182164 -0.191301 -0.323244 227 120 231 0.000000 1.000000 0.000000
-0.129189 -0.245618 -0.512279 227 120 231 0.001355 -0.336199 -0.941790
0.334263 -0.778179 0.447293 253 143 102 0.000000 -1.000000 0.000000
0.412208 -0.896583 0.276943 11 196 165 0.000000 1.000000 0.000000
-0.394095 0.511966 -0.081421 187 196 48 0.996245 0.085822 -0.011442
-0.376395 -0.257072 0.330593 233 104 123 0.000000 -1.000000 0.000000
0.357067 0.043560 0.451190 4 129 75 0.260216 0.000086 -0.965550
-0.134247 -0.778180 0.437154 234 18 107 0.000000 -1.000000 0.000000
0.342209 -0.191299 0.357554 138 212 170 0.000000 1.000000 0.000000
-0.319001 -0.775517 -0.038533 254 147 182 0.999999 0.000000 0.001434
0.253083 -0.257071 0.206346 138 212 170 0.000000 -1.000000 0.000000
0.049011 -0.257071 -0.295434 83 9 37 0.000000 -1.000000 0.000000
0.119228 -0.204902 -0.512689 83 9 37 0.001355 0.336275 -0.941763
-0.348722 -0.191301 -0.462788 227 120 231 0.000000 1.000000 0.000000
0.407320 -0.191299 0.282201 138 212 170 0.000000 1.000000 0.000000
-0.412685 0.913533 0.203704 19 19 219 0.618599 -0.755797 -0.214724
0.408445 -0.257070 0.352698 138 212 170 0.000000 1.000000 0.000000
0.413764 -0.554031 0.424439 0 141 167 -0.001482 0.000000 0.999999
0.139934 -0.750298 -0.491489 87 6 29 0.001426 0.107796 -0.994172
-0.326468 -0.269369 0.480642 233 104 123 -0.001448 0.000000 0.999999
0.401838 -0.257787 0.481687 138 212 170 -0.001406 0.000000 0.999999
0.393464 -0.896583 -0.216556 152 202 46 0.000000 -1.000000 0.000000
0.105540 -0.257071 -0.143963 83 9 37 0.000000 -1.000000 0.000000
0.209853 -0.189960 0.466828 138 212 170 -0.707842 0.000802 0.706371
-0.036321 -0.778180 -0.429870 87 6 29 0.000000 -1.000000 0.000000
-0.402577 0.621936 0.072047 187 196 48 0.998108 0.061178 0.006085
0.423811 0.171911 -0.550283 234 93 131 -0.138757 -0.952855 -0.269840
-0.388818 -0.254223 -0.021908 227 120 231 -0.433043 -0.901373 -0.000623
-0.091811 -0.191300 -0.163212 227 120 231 0.000000 1.000000 0.000000
0.430888 -0.543239 -0.481999 29 102 225 0.924551 0.000000 -0.381058
0.180549 -0.261378 -0.445063 83 9 37 -0.001434 -0.000010 0.999999
-0.360574 0.260677 -0.064944 39 23 143 0.987261 0.159064 0.003828
-0.327186 0.058192 -0.088334 39 23 143 0.996985 0.076255 -0.014333
-0.168598 -0.778180 0.427421 234 18 107 0.000000 -1.000000 0.000000
-0.430465 0.862238 0.128890 226 179 192 -0.999136 0.007411 0.040886
0.379683 -0.257070 -0.231813 83 9 37 0.000000 -1.000000 0.000000
0.412647 -0.853869 0.084606 234 13 186 0.000000 1.000000 0.000000
-0.413387 0.823227 0.422394 103 42 58 -0.683097 -0.175882 -0.708833
-0.210545 -0.257072 0.122079 233 104 123 0.000000 -1.000000 0.000000
-0.178442 -0.191301 0.375885 233 104 123 0.000000 1.000000 0.000000
-0.408269 0.348824 0.071898 187 196 48 -0.989582 -0.142404 0.021165
0.030665 -0.191300 -0.156021 227 120 231 0.000000 1.000000 0.000000
0.437406 -0.257070 0.186240 138 212 170 0.000000 -1.000000 0.000000
-0.337091 -0.323260 0.423361 233 104 123 0.001405 0.000000 -0.999999
0.417706 -0.354454 -0.408311 16 5 178 0.999999 0.000020 0.001532
0.392716 -0.321113 0.073646 138 212 170 -0.999999 0.000023 -0.001444
-0.215491 0.178975 0.444065 143 78 54 0.134125 -0.602828 -0.786517
-0.372332 0.449593 0.456763 229 111 156 -0.966186 -0.014303 0.257449
-0.026942 -0.317127 0.472572 233 104 123 -0.001433 0.000000 0.999999
0.039070 -0.191300 -0.100422 83 9 37 0.000000 1.000000 0.000000
-0.111001 -0.326501 -0.465221 227 120 231 0.000000 -1.000000 0.000000
-0.396071 0.718403 0.430048 103 42 58 -0.691366 -0.141487 -0.708515
-0.376387 -0.311336 0.440745 233 104 123 -0.999999 0.000000 -0.001430
0.407459 -0.599075 0.481695 0 141 167 -0.001406 0.000000 0.999999
0.232545 -0.753045 0.487664 253 143 102 -0.001428 0.107795 0.994172
-0.400136 0.912915 0.264724 19 19 219 0.796249 -0.590031 -0.133605
0.430223 -0.732773 0.476642 17 215 20 0.999999 0.000000 0.001429
0.279887 -0.257071 0.141019 138 212 170 0.000000 -1.000000 0.000000
0.190187 -0.191299 0.248649 138 212 170 0.000000 1.000000 0.000000
-0.449672 0.900626 -0.349570 139 104 116 -0.851539 -0.524290 -0.001274
0.421122 -0.853869 0.246959 11 196 165 0.000000 1.000000 0.000000
0.245519 -0.261179 -0.477370 83 9 37 0.001431 0.000000 -0.999999
0.347772 -0.261379 -0.444823 83 9 37 -0.001436 0.000012 0.999999
0.413177 -0.257070 0.378490 138 212 170 0.000000 -1.000000 0.000000
0.224906 -0.758516 0.487879 253 143 102 -0.001428 -0.107824 0.994169
0.279357 -0.257071 0.191699 138 212 170 0.000000 -1.000000 0.000000
-0.411863 0.951292 -0.038933 56 175 92 0.869803 0.493398 0.001225
-0.330339 -0.257072 0.073334 233 104 123 0.000000 -1.000000 0.000000
0.373566 -0.280427 0.445976 138 212 170 0.999999 0.000000 0.001420
-0.305662 -0.330171 -0.445760 227 120 231 -0.001455 0.000000 0.999999
0.103748 -0.191300 -0.117841 83 9 37 0.000000 1.000000 0.000000
-0.388843 0.461397 -0.070595 187 196 48 0.994774 0.102089 0.001700
0.394735 -0.550127 -0.384978 29 102 225 -0.001481 -0.030837 0.999523
0.417148 -0.324102 -0.020376 83 9 37 0.999999 -0.000202 0.001406
-0.425991 0.883073 0.356826 19 19 219 0.274025 -0.960690 -0.044564
0.354338 -0.257071 -0.377162 83 9 37 0.000000 -1.000000 0.000000
-0.303644 -0.237914 -0.515280 227 120 231 0.001355 -0.336199 -0.941790
0.408889 -0.853869 -0.004555 234 13 186 0.000000 1.000000 0.000000
0.430254 -0.908241 0.455303 74 9 112 0.999999 0.000000 0.001429
-0.402578 0.933663 -0.159305 56 175 92 0.980808 0.194830 0.007536
0.081276 -0.257071 -0.416902 83 9 37 0.000000 -1.000000 0.000000
0.275238 -0.191299 0.320419 138 212 170 0.000000 1.000000 0.000000
-0.369834 -0.308997 0.209190 233 104 123 -0.999999 -0.000046 -0.001436
-0.398786 0.920814 -0.150846 56 175 92 0.983078 0.183169 0.002586
-0.133205 -0.191300 -0.141583 227 120 231 0.000000 1.000000 0.000000
0.443518 0.169359 -0.526183 234 93 131 0.156871 -0.985616 0.062872
-0.347368 -0.778179 0.285615 52 106 181 0.000000 -1.000000 0.000000
-0.363394 0.276543 0.039496 39 23 143 0.987260 0.159081 -0.003189
-0.358802 -0.332799 0.360071 233 104 123 0.001420 0.000000 -0.999999
-0.397782 0.279750 -0.060219 39 23 143 -0.987393 -0.158014 -0.009316
0.417686 -0.425132 -0.394464 16 5 178 0.999999 0.000020 0.001532
-0.337555 -0.778179 0.207588 52 106 181 0.000000 -1.000000 0.000000
-0.375125 -0.414260 -0.439179 219 89 130 -0.999999 0.000000 -0.001429
-0.344121 -0.326501 0.180097 233 104 123 0.000000 -1.000000 0.000000
-0.358548 -0.045022 -0.032102 218 14 77 -0.999648 -0.026481 -0.001350
-0.329502 0.045029 -0.426164 253 63 74 0.257300 0.003832 0.966324
0.263942 0.216224 -0.483622 190 123 137 0.182377 0.182039 -0.966230
0.184012 -0.257071 0.024333 138 212 170 0.000000 -1.000000 0.000000
0.057211 -0.191300 0.375321 138 212 170 0.000000 1.000000 0.000000
-0.385926 0.211825 0.089305 39 23 143 -0.984529 -0.167419 0.051708
0.392040 -0.607711 0.481674 17 215 20 -0.001406 0.000000 0.999999
0.462895 -0.224543 0.385347 138 212 170 0.999999 0.000000 0.001438
-0.339961 -0.895499 0.423357 180 233 142 0.001405 0.000000 -0.999999
0.156614 -0.257071 -0.400174 83 9 37 0.000000 -1.000000 0.000000
0.403933 -0.191299 0.243902 138 212 170 0.000000 1.000000 0.000000
-0.215122 0.174025 0.447922 143 78 54 0.134125 -0.602828 -0.786517
-0.398513 -0.240625 -0.498507 227 120 231 -0.941825 -0.336100 -0.001357
0.178575 -0.191299 0.174030 138 212 170 0.000000 1.000000 0.000000
-0.324001 0.392467 0.429763 229 111 156 0.707985 0.010473 -0.706150
-0.319614 -0.191301 -0.296852 227 120 231 0.000000 1.000000 0.000000
-0.255138 -0.405805 -0.459324 219 89 130 0.999999 0.000000 0.001420
-0.431281 0.846350 0.027990 226 179 192 -0.998553 0.053762 -0.001528
-0.359775 0.365415 0.422269 229 111 156 -0.705961 -0.010470 -0.708173
-0.193717 -0.191301 0.000166 233 104 123 0.000000 1.000000 0.000000
0.136449 -0.257071 0.367981 138 212 170 0.000000 -1.000000 0.000000
-0.369918 -0.310913 0.267713 233 104 123 -0.999999 -0.000046 -0.001436
-0.321122 -0.690086 -0.485360 69 215 41 0.383798 0.000000 -0.923417
0.392546 -0.260543 0.191022 138 212 170 -0.999999 0.000000 -0.001436
0.463437 -0.228759 0.008443 138 212 170 0.999999 0.000000 0.001438
0.382524 -0.907520 0.424393 11 196 165 0.001448 0.000000 -0.999999
0.398338 -0.596117 0.382424 0 141 167 0.001399 -0.016774 -0.999858
0.444606 -0.257070 0.353287 138 212 170 0.000000 -1.000000 0.000000
-0.332903 0.078107 -0.425390 253 63 74 0.257300 0.003832 0.966324
-0.363002 0.274042 0.036028 39 23 143 0.987256 0.159109 -0.003028
0.416943 -0.913025 0.122618 234 13 186 0.999999 -0.000027 0.001436
-0.177441 -0.253822 0.499837 233 104 123 -0.000622 -0.901374 0.433042
-0.220598 -0.257072 -0.148284 227 120 231 0.000000 -1.000000 0.000000
0.021234 -0.775202 0.423876 30 248 189 0.001434 0.000000 -0.999999
0.418358 -0.598408 0.424445 0 141 167 0.001448 0.000000 -0.999999
0.146667 -0.192046 -0.498906 83 9 37 0.000621 0.901337 -0.433117
0.374837 -0.473742 -0.439281 29 102 225 -0.999999 0.000000 -0.001472
-0.375100 -0.391966 -0.456594 219 89 130 -0.999999 0.000000 -0.001429
0.404800 -0.349226 -0.114399 83 9 37 0.000260 -0.982555 -0.185974
-0.149904 -0.200118 -0.510243 227 120 231 0.001090 0.653009 -0.757349
0.400153 -0.245572 -0.511533 83 9 37 0.001355 -0.336199 -0.941790
0.413516 -0.257070 0.198121 138 212 170 0.000000 -1.000000 0.000000
-0.369935 -0.279806 0.278685 233 104 123 -0.999999 -0.000046 -0.001436
0.398924 -0.257070 0.349493 138 212 170 0.000000 1.000000 0.000000
0.413479 -0.766668 -0.427910 89 16 140 -0.001405 0.000000 0.999999
0.176687 -0.735465 0.431988 253 143 102 0.000000 1.000000 0.000000
0.344193 0.168658 -0.455974 193 8 230 -0.037306 -0.954941 -0.294443
-0.401039 -0.227655 0.208966 233 104 123 -0.999999 0.000000 -0.001440
-0.420783 0.966122 -0.020019 56 175 92 0.854755 0.519031 0.001190
0.368132 -0.257070 -0.102438 83 9 37 0.000000 -1.000000 0.000000
-0.339897 -0.273163 -0.428990 227 120 231 -0.001490 0.000000 0.999999
0.054371 -0.257071 -0.492824 83 9 37 0.000000 -1.000000 0.000000
-0.356213 -0.120038 0.013884 218 14 77 -0.999339 -0.036340 -0.001377
-0.318747 -0.747717 -0.216208 125 29 133 0.999999 0.000000 0.001434
0.062415 0.219540 0.460013 126 151 76 -0.115841 0.163553 -0.979710
0.417674 -0.508717 -0.385216 29 102 225 0.999999 0.000020 0.001532
0.085169 -0.735465 0.457235 30 248 189 0.000000 1.000000 0.000000
-0.211267 -0.257072 -0.282216 227 120 231 0.000000 -1.000000 0.000000
-0.466404 0.946584 0.250234 19 19 219 -0.812221 0.548455 0.198731
0.359587 -0.191494 0.130431 138 212 170 0.999999 -0.000193 0.001438
-0.300154 0.227009 0.432192 143 78 54 0.116653 0.648995 -0.751796
0.172150 -0.257071 -0.321266 83 9 37 0.000000 -1.000000 0.000000
-0.392350 0.495525 -0.076009 187 196 48 0.994729 0.102054 -0.009949
0.417731 -0.450767 -0.425839 16 5 178 0.999999 0.000000 0.001436
0.048464 -0.257070 -0.475714 83 9 37 0.000000 1.000000 0.000000
-0.334573 0.555281 -0.427200 179 220 150 0.257138 0.011935 0.966301
-0.322427 -0.597281 -0.429326 240 12 142 0.381629 0.000000 0.924316
-0.426869 0.974180 0.177307 19 19 219 0.800235 0.599331 0.020664
0.374148 -0.879203 0.040947 234 13 186 -0.999999 0.000000 -0.001436
-0.240009 -0.323236 0.439870 233 104 123 0.001437 -0.000045 -0.999999
-0.178335 -0.778180 0.426148 234 18 107 0.000000 -1.000000 0.000000
-0.354229 -0.748849 0.423337 7 223 40 -0.001447 0.000000 0.999999
0.135855 0.168990 -0.473929 28 81 63 -0.032223 -0.961770 0.271956
0.178508 -0.736862 -0.485789 19 248 186 0.001227 0.517516 -0.855672
-0.398964 0.568681 0.039129 187 196 48 0.997428 0.071659 -0.001414
0.068826 -0.257071 -0.062434 83 9 37 0.000000 -1.000000 0.000000
0.410512 -0.590044 0.424434 0 141 167 -0.001482 0.000000 0.999999
-0.365286 -0.735465 0.207123 52 106 181 0.000000 1.000000 0.000000
-0.376385 -0.606410 0.439209 116 93 133 -0.999999 0.000000 -0.001430
-0.362559 -0.371507 0.423326 179 244 145 0.001405 0.000000 -0.999999
0.413899 -0.927510 0.273796 11 196 165 0.000000 -1.000000 0.000000
-0.386648 0.722749 0.471707 103 42 58 -0.254651 -0.051765 0.965647
-0.014756 -0.257071 0.204436 233 104 123 0.000000 -1.000000 0.000000
0.392439 -0.926261 0.265102 11 196 165 -0.999999 0.000032 -0.001439
0.398373 -0.257070 -0.226337 83 9 37 0.000000 -1.000000 0.000000
-0.408162 0.946389 -0.528042 139 104 116 0.848889 0.528569 -0.001403
-0.282930 -0.257072 0.487270 233 104 123 0.000000 -1.000000 0.000000
-0.318398 -0.463035 -0.459287 219 89 130 0.999999 0.000000 0.001472
0.460669 -0.244079 0.027074 138 212 170 0.941790 -0.336199 0.001356
0.392268 -0.853869 -0.332692 152 202 46 0.000000 1.000000 0.000000
0.461449 -0.240378 0.403139 138 212 170 0.941762 -0.336278 0.001355
-0.212737 -0.191301 -0.137953 227 120 231 0.000000 1.000000 0.000000
-0.320800 -0.740577 -0.428963 209 179 137 0.001411 0.000000 -0.999999
0.313748 -0.257071 0.143083 138 212 170 0.000000 -1.000000 0.000000
-0.138458 -0.778180 0.459741 234 18 107 0.000000 -1.000000 0.000000
0.295899 -0.295000 0.473035 138 212 170 -0.001433 0.000000 0.999999
-0.302144 -0.196963 0.154519 233 104 123 0.999999 0.000000 0.001438
-0.318577 0.269611 0.457475 140 82 88 0.965432 0.014304 0.260261
0.374699 -0.191299 0.378251 138 212 170 0.000000 1.000000 0.000000
0.425817 0.234822 -0.489801 234 93 131 0.151969 0.979561 0.131776
-0.341445 0.146450 0.017289 39 23 143 0.985077 0.172106 -0.001390
-0.373864 0.550477 -0.442081 179 220 150 -0.965256 -0.044539 0.257483
0.417711 -0.930134 -0.411870 29 103 240 0.999999 0.000000 0.001426
0.374854 -0.851284 -0.450734 89 16 140 -0.999999 0.000000 -0.001472
-0.352394 -0.409445 0.423340 179 244 145 0.001405 0.000000 -0.999999
-0.385681 0.207337 0.074553 39 23 143 -0.985628 -0.167077 0.024946
0.252189 -0.191299 0.308180 138 212 170 0.000000 1.000000 0.000000
0.404731 -0.927510 0.143134 234 13 186 0.000000 -1.000000 0.000000
0.093541 -0.191300 0.230885 138 212 170 0.000000 1.000000 0.000000
0.412735 0.179621 0.555732 130 39 33 -0.576169 -0.775974 0.256699
-0.375078 -0.684632 -0.472134 69 215 41 -0.999999 0.000000 -0.001387
0.417719 -0.542381 -0.417506 29 102 225 0.999999 0.000000 0.001436
0.428010 -0.191299 0.301496 138 212 170 0.000000 1.000000 0.000000
0.283451 -0.257071 -0.315272 83 9 37 0.000000 -1.000000 0.000000
0.416353 0.233390 0.528272 130 39 33 -0.239027 0.968969 0.062962
-0.337095 -0.299547 -0.027747 227 120 231 0.999999 -0.000015 0.001438
-0.345280 -0.535567 0.423350 253 188 49 0.001405 0.000000 -0.999999
-0.121930 -0.767866 -0.490590 183 150 138 0.001359 -0.319365 -0.947631
-0.368957 -0.397449 -0.401238 219 89 130 -0.999999 -0.000024 -0.001582
0.393981 -0.896583 -0.340862 152 202 46 0.000000 -1.000000 0.000000
0.238843 -0.146581 0.427443 85 190 27 0.258214 0.003605 -0.966081
0.276947 -0.191299 0.376743 138 212 170 0.000000 1.000000 0.000000
0.320368 0.048398 0.430164 4 129 75 0.234221 -0.065787 -0.969955
-0.283770 -0.248822 -0.509945 227 120 231 0.001089 -0.653011 -0.757348
0.431587 -0.765898 -0.475261 89 16 140 0.999999 0.000000 0.001430
-0.377392 -0.738762 -0.249230 125 29 133 -0.855790 0.517321 -0.001229
0.239116 -0.094962 0.426272 85 190 27 0.251487 -0.036965 -0.967154
-0.437623 0.651693 -0.068319 226 179 192 -0.999989 0.003584 -0.003159
-0.055854 -0.211345 -0.515240 227 120 231 0.001354 0.336199 -0.941790
0.374462 -0.883559 -0.177699 152 202 46 -0.999999 0.000000 -0.001436
0.417029 -0.903601 0.062717 234 13 186 0.999999 -0.000027 0.001436
0.069669 -0.191300 0.365192 138 212 170 0.000000 1.000000 0.000000
0.217317 -0.191299 -0.005119 83 9 37 0.000000 1.000000 0.000000
-0.413815 0.892040 0.483431 19 19 219 0.477677 -0.865499 0.150787
0.393098 -0.286360 -0.194211 83 9 37 -0.999999 0.000000 -0.001441
-0.434034 0.579347 0.036070 187 196 48 -0.997479 -0.070966 -0.000597
0.376439 -0.257070 -0.325610 83 9 37 0.000000 -1.000000 0.000000
-0.375914 -0.257072 0.475441 233 104 123 0.000000 -1.000000 0.000000
-0.059227 -0.191300 -0.480225 227 120 231 0.000000 1.000000 0.000000
-0.074159 -0.735465 0.445910 30 248 189 0.000000 1.000000 0.000000
-0.346715 0.176872 0.037619 39 23 143 0.985104 0.171930 -0.003296
-0.370359 -0.275089 -0.429069 227 120 231 -0.383346 0.000000 0.923605
-0.331051 0.087704 -0.079947 39 23 143 0.986927 0.161025 -0.006834
-0.147481 -0.257072 0.306781 233 104 123 0.000000 -1.000000 0.000000
-0.340969 -0.943042 -0.428992 215 108 23 -0.001490 0.000000 0.999999
-0.276334 -0.257072 -0.235050 227 120 231 0.000000 -1.000000 0.000000
-0.345517 -0.257070 0.235783 233 104 123 0.000000 1.000000 0.000000
-0.319142 0.141127 -0.468901 227 101 205 0.708055 0.010469 -0.706080
-0.410796 0.902965 0.254740 19 19 219 0.638533 -0.756308 -0.142387
-0.369764 0.317593 -0.057055 39 23 143 0.989394 0.145053 0.007651
0.368781 0.215819 0.480123 33 200 176 -0.465591 0.161075 0.870218
0.384727 -0.257070 0.168119 138 212 170 0.000000 -1.000000 0.000000
0.438698 -0.875358 -0.426031 29 103 240 0.994172 -0.107796 0.001428
-0.028085 -0.191300 -0.074745 227 120 231 0.000000 1.000000 0.000000
-0.421553 0.450055 -0.061268 187 196 48 -0.992494 -0.120722 -0.019562
-0.403430 0.651863 -0.030801 226 179 192 0.999964 -0.008049 0.002855
0.202285 -0.257071 0.111804 138 212 170 0.000000 -1.000000 0.000000
-0.323058 -0.157442 -0.116105 218 14 77 0.850298 0.027526 0.525581
0.392270 -0.739550 0.384027 91 65 196 -0.999999 -0.000012 -0.001545
-0.349453 0.434699 0.474201 229 111 156 -0.260275 -0.003837 0.965527
-0.337064 -0.269466 -0.049031 227 120 231 0.999999 0.000012 0.001436
0.392320 -0.300302 0.348588 138 212 170 -0.999999 0.000051 -0.001470
-0.369637 -0.293835 0.071059 233 104 123 -0.999999 -0.000046 -0.001436
-0.353372 -0.024885 -0.475576 253 63 74 -0.705943 -0.010469 -0.708191
-0.376372 -0.684906 0.430389 116 93 133 -0.999999 0.000000 -0.001430
-0.373549 0.472034 0.453443 229 111 156 -0.966186 -0.014303 0.257449
0.388958 0.183079 0.432911 33 200 176 0.286237 -0.746156 -0.601099
0.318951 -0.247014 -0.510637 83 9 37 0.001090 -0.652969 -0.757383
-0.319700 -0.798572 0.448226 7 223 40 0.999999 0.000000 0.001429
-0.080593 -0.735465 0.442658 234 18 107 0.000000 1.000000 0.000000
0.068887 -0.191300 -0.027663 83 9 37 0.000000 1.000000 0.000000
0.430248 -0.991142 0.459198 74 9 112 0.999999 0.000000 0.001429
-0.318562 -0.765193 -0.344857 125 29 133 0.999999 0.000000 0.001434
-0.340817 -0.257072 0.192689 233 104 123 0.000000 -1.000000 0.000000
-0.343106 -0.326501 -0.183362 227 120 231 0.000000 -1.000000 0.000000
0.057163 -0.270250 -0.477639 83 9 37 0.001431 0.000000 -0.999999
-0.337115 -0.191301 0.328055 233 104 123 0.000000 1.000000 0.000000
-0.313438 -0.257072 0.060681 233 104 123 0.000000 -1.000000 0.000000
-0.354359 -0.257070 -0.037555 227 120 231 0.000000 1.000000 0.000000
-0.233811 -0.257072 0.034366 233 104 123 0.000000 -1.000000 0.000000
-0.076480 -0.257072 0.152319 233 104 123 0.000000 -1.000000 0.000000
-0.180083 -0.257072 -0.397173 227 120 231 0.000000 -1.000000 0.000000
0.256235 -0.257071 -0.099152 83 9 37 0.000000 -1.000000 0.000000
-0.463422 0.922197 0.005328 56 175 92 -0.853312 -0.521399 -0.001236
0.359487 -0.257071 -0.120121 83 9 37 0.000000 -1.000000 0.000000
-0.361478 -0.162428 0.461518 144 198 136 -0.707939 -0.010469 0.706196
0.405484 -0.893140 0.424427 74 9 112 -0.001446 0.000000 0.999999
0.392241 -0.385546 0.403442 32 234 126 -0.999999 0.000000 -0.001450
-0.375430 -0.777871 -0.358024 125 29 133 -0.855860 -0.517206 -0.001224
0.122384 -0.257071 0.180985 138 212 170 0.000000 -1.000000 0.000000
0.296857 -0.257071 0.118316 138 212 170 0.000000 -1.000000 0.000000
0.405743 -0.257070 0.234001 138 212 170 0.000000 -1.000000 0.000000
0.374837 -0.774584 -0.438830 89 16 140 -0.999999 0.000000 -0.001472
0.408961 -0.788943 0.384196 91 65 196 0.001385 0.355198 -0.934790
0.431576 -0.667239 -0.467862 153 211 104 0.999999 0.000000 0.001430
0.388694 -0.853869 -0.283036 152 202 46 0.000000 1.000000 0.000000
-0.344500 -0.257072 -0.322899 227 120 231 0.000000 -1.000000 0.000000
-0.376389 -0.324650 0.441796 233 104 123 -0.999999 0.000000 -0.001430
-0.009939 -0.191300 0.020290 233 104 123 0.000000 1.000000 0.000000
-0.076898 -0.257072 0.371248 233 104 123 0.000000 -1.000000 0.000000
-0.316763 0.220283 0.453463 140 82 88 0.965425 0.014303 0.260287
0.288121 -0.257071 -0.026360 83 9 37 0.000000 -1.000000 0.000000
-0.354016 -0.177231 0.080621 218 14 77 -0.999060 -0.043339 -0.001289
-0.401138 -0.213520 0.277673 233 104 123 -0.999999 0.000000 -0.001440
-0.341513 -0.437080 -0.375178 219 89 130 -0.001021 -0.695275 0.718743
-0.051994 -0.287804 0.472536 233 104 123 -0.001431 0.000000 0.999999
0.026049 0.169641 -0.481413 28 81 63 -0.010791 -0.960278 0.278838
-0.456984 0.912182 -0.207197 139 104 116 -0.852537 -0.522664 -0.001360
0.316037 -0.433046 0.446281 32 234 126 -0.851581 -0.524222 -0.001209
-0.007889 -0.257071 -0.399972 227 120 231 0.000000 -1.000000 0.000000
-0.356462 0.233882 0.025232 39 23 143 0.985839 0.167689 -0.001314
-0.339885 -0.443590 -0.428990 219 89 130 0.001420 0.000000 -0.999999
0.252190 -0.195140 -0.457356 83 9 37 0.043444 -0.999056 0.000155
0.249404 -0.257071 -0.054699 83 9 37 0.000000 -1.000000 0.000000
-0.411175 0.950267 -0.298261 139 104 116 0.792923 0.609029 -0.018879
-0.315057 0.042331 0.456913 144 198 136 0.965432 0.014304 0.260261
-0.102236 -0.191300 -0.318869 227 120 231 0.000000 1.000000 0.000000
-0.419497 0.467567 0.106188 187 196 48 -0.604287 -0.068429 0.793823
0.374084 -0.853869 0.319741 11 196 165 0.000000 1.000000 0.000000
0.430288 -0.560624 0.430912 0 141 167 0.999999 0.000000 0.001429
0.138832 0.235594 -0.474420 28 81 63 -0.036649 0.953180 0.300175
0.422209 -0.257070 0.122333 138 212 170 0.000000 -1.000000 0.000000
-0.383035 0.410815 -0.019952 187 196 48 0.992533 0.121964 0.001720
0.437532 -0.870469 0.037004 234 13 186 0.994144 0.108056 0.001428
0.124375 -0.257071 -0.202568 83 9 37 0.000000 -1.000000 0.000000
0.422609 -0.699930 0.424451 17 215 20 0.001448 0.000000 -0.999999
0.417601 -0.308573 -0.335614 83 9 37 0.999999 0.000084 0.001488
0.302337 -0.257071 0.336915 138 212 170 0.000000 -1.000000 0.000000
-0.344929 0.249466 -0.479543 227 101 205 -0.257562 -0.003837 -0.966254
0.383040 -0.191299 -0.358149 83 9 37 0.000000 1.000000 0.000000
-0.129033 -0.257072 -0.127653 227 120 231 0.000000 -1.000000 0.000000
0.358589 -0.735465 0.477282 253 143 102 0.000000 1.000000 0.000000
0.074246 -0.191300 0.468656 138 212 170 0.000000 1.000000 0.000000
-0.394443 -0.249451 0.063774 233 104 123 -0.757348 -0.653011 -0.001090
-0.318404 -0.763639 -0.455547 209 179 137 -0.999999 0.000000 -0.001411
0.008947 -0.257071 0.171170 233 104 123 0.000000 -1.000000 0.000000
0.041919 -0.191300 0.055926 138 212 170 0.000000 1.000000 0.000000
-0.173032 -0.735465 0.472917 234 18 107 0.000000 1.000000 0.000000
-0.432323 0.966443 -0.554322 139 104 116 0.312284 0.927816 -0.204051
-0.291906 -0.347985 0.439792 179 244 145 0.001776 0.000100 -0.999998
0.405001 -0.855438 0.481692 91 65 196 -0.001406 0.000000 0.999999
-0.072137 -0.191300 0.368427 233 104 123 0.000000 1.000000 0.000000
-0.401784 0.749751 0.064371 226 179 192 0.999031 -0.043229 0.008237
-0.396949 -0.245325 -0.419494 227 120 231 -0.941790 -0.336200 -0.001356
0.406241 0.169856 0.463547 130 39 33 0.117897 -0.971687 -0.204756
-0.223676 0.207061 -0.441864 147 92 225 0.134000 0.169239 0.976423
0.402586 -0.410704 0.424422 32 234 126 0.001448 0.000000 -0.999999
-0.437795 0.650547 0.024989 226 179 192 -0.999886 -0.015069 -0.001313
-0.356241 0.232696 0.033317 39 23 143 0.985835 0.167688 -0.003279
-0.355076 -0.191301 0.041488 233 104 123 0.000000 1.000000 0.000000
0.417056 -0.332488 0.044269 138 212 170 0.999999 0.000285 0.001381
0.012828 -0.191300 -0.182946 227 120 231 0.000000 1.000000 0.000000
-0.042255 -0.257072 0.023805 233 104 123 0.000000 -1.000000 0.000000
0.287173 -0.191299 -0.247803 83 9 37 0.000000 1.000000 0.000000
0.009236 0.210721 0.460378 143 78 54 -0.032327 0.161553 -0.986334
-0.429036 0.519632 -0.042098 187 196 48 -0.996310 -0.085589 -0.006409
0.250029 -0.052885 -0.430893 3 67 177 -0.235972 0.097032 0.966903
0.413643 -0.638154 0.424438 17 215 20 0.001448 0.000000 -0.999999
0.037700 -0.257071 0.470456 138 212 170 0.000000 -1.000000 0.000000
-0.337348 -0.300673 0.148448 233 104 123 0.999999 -0.000015 0.001438
0.004587 -0.191300 -0.154388 227 120 231 0.000000 1.000000 0.000000
0.157463 -0.191300 0.192721 138 212 170 0.000000 1.000000 0.000000
0.461380 -0.240643 0.385404 138 212 170 0.941762 -0.336278 0.001355
0.388810 -0.896583 0.408553 11 196 165 0.000000 -1.000000 0.000000
0.437726 -0.874410 0.200406 11 196 165 0.994172 0.107796 0.001425
-0.450426 0.995994 0.095998 56 175 92 -0.060557 0.994348 0.087205
0.331075 -0.257071 -0.128331 83 9 37 0.000000 -1.000000 0.000000
0.342460 0.172333 0.439377 33 200 176 0.684377 0.041859 -0.727925
-0.407729 0.944626 -0.151710 56 175 92 0.877453 0.479652 0.003126
0.458877 -0.246533 0.485792 138 212 170 0.757383 -0.652970 0.001090
0.067110 -0.191300 0.188119 138 212 170 0.000000 1.000000 0.000000
-0.007589 -0.191300 0.095917 233 104 123 0.000000 1.000000 0.000000
0.435588 0.183031 0.462625 130 39 33 0.462852 -0.755427 -0.463787
0.092423 0.223302 -0.462902 28 81 63 -0.094652 0.622084 0.777208
0.272156 -0.009846 0.474352 4 129 75 -0.201230 0.154156 0.967338
0.111415 -0.270502 0.440372 138 212 170 0.001437 -0.000045 -0.999999
0.015724 0.201283 0.458773 126 151 76 -0.033021 -0.162584 -0.986142
0.361297 -0.268144 0.473129 138 212 170 -0.001433 0.000000 0.999999
-0.089172 -0.217365 0.511019 233 104 123 -0.001440 0.000000 0.999999
0.417725 -0.666950 -0.421819 153 211 104 0.999999 0.000000 0.001436
0.044528 -0.191300 -0.109514 83 9 37 0.000000 1.000000 0.000000
0.219999 -0.257071 0.314871 138 212 170 0.000000 -1.000000 0.000000
0.409253 -0.672568 0.357912 17 215 20 0.001051 -0.137975 -0.990435
-0.323385 -0.100663 0.124394 218 14 77 0.999139 0.035376 0.021655
-0.318400 -0.496152 -0.458167 240 12 142 0.999999 0.000000 0.001472
-0.305682 -0.257072 0.343891 233 104 123 0.000000 -1.000000 0.000000
0.431535 -0.733299 -0.439125 89 16 140 0.999999 0.000000 0.001429
-0.319716 -0.956636 0.459462 180 233 142 0.999999 0.000000 0.001429
0.430894 -0.257070 0.045094 138 212 170 0.000000 -1.000000 0.000000
-0.318383 -0.347473 -0.468832 219 89 130 -0.999999 0.000000 -0.001421
-0.060878 0.201625 -0.516243 147 92 225 -0.068832 -0.199541 -0.977469
0.344624 0.145459 0.464616 83 254 21 -0.260210 0.000014 0.965552
-0.376425 -0.463121 0.467221 179 244 145 -0.999999 0.000000 -0.001430
-0.356111 -0.719221 -0.486278 69 215 41 0.001448 0.000000 -0.999999
-0.243133 -0.191301 -0.417516 227 120 231 0.000000 1.000000 0.000000
-0.401094 -0.218711 0.246984 233 104 123 -0.999999 0.000000 -0.001440
-0.138109 -0.191300 -0.259838 227 120 231 0.000000 1.000000 0.000000
0.374883 -0.860528 -0.470233 89 16 140 -0.999999 0.000000 -0.001472
0.429083 -0.365574 -0.484182 16 5 178 0.384138 0.000000 -0.923276
-0.106832 -0.778180 -0.470047 183 150 138 0.000000 -1.000000 0.000000
-0.214680 -0.191301 0.476476 233 104 123 0.000000 1.000000 0.000000
-0.093316 -0.752784 -0.428636 183 150 138 -0.001437 0.000000 0.999999
-0.319662 -0.744667 0.422000 7 223 40 0.999999 0.000000 0.001434
0.057886 0.218386 -0.513919 28 81 63 0.033147 0.199566 -0.979324
-0.348338 -0.326501 -0.269952 227 120 231 0.000000 -1.000000 0.000000
0.421376 0.234705 -0.524440 234 93 131 -0.238832 0.968973 -0.063640
0.306646 -0.191299 0.289761 138 212 170 0.000000 1.000000 0.000000
-0.062102 -0.257072 -0.066342 227 120 231 0.000000 -1.000000 0.000000
0.187336 -0.191299 -0.270470 83 9 37 0.000000 1.000000 0.000000
0.415658 -0.337903 -0.485172 16 5 178 0.001405 0.000000 -0.999999
-0.341017 -0.735465 0.224825 52 106 181 0.000000 1.000000 0.000000
0.319307 -0.191299 -0.117562 83 9 37 0.000000 1.000000 0.000000
-0.114228 -0.191300 -0.471891 227 120 231 0.000000 1.000000 0.000000
-0.369500 0.314364 -0.009099 39 23 143 0.987272 0.159037 0.001427
0.218583 -0.735465 0.439389 253 143 102 0.000000 1.000000 0.000000
0.298195 -0.191299 -0.362682 83 9 37 0.000000 1.000000 0.000000
-0.090486 -0.200695 0.410925 233 104 123 0.000000 1.000000 0.000000
-0.355926 -0.128356 0.025746 218 14 77 -0.999339 -0.036340 -0.001377
0.435171 -0.257070 0.305601 138 212 170 0.000000 -1.000000 0.000000
0.374835 -0.702145 -0.438018 153 211 104 -0.999999 0.000000 -0.001472
0.421479 -0.896583 -0.001199 234 13 186 0.000000 -1.000000 0.000000
0.302764 -0.257071 -0.250555 83 9 37 0.000000 -1.000000 0.000000
-0.154506 -0.191300 0.306274 233 104 123 0.000000 1.000000 0.000000
-0.075683 -0.191300 -0.389913 227 120 231 0.000000 1.000000 0.000000
-0.148522 0.183431 0.499426 143 78 54 -0.125842 -0.198858 0.971915
-0.397277 0.903116 -0.433419 139 104 116 0.681247 0.182617 0.708911
-0.270850 -0.271753 -0.445710 227 120 231 -0.001434 -0.000010 0.999999
0.373565 -0.438414 0.447808 32 234 126 -0.999999 0.000000 -0.001472
0.006231 -0.778180 -0.438409 87 6 29 0.000000 -1.000000 0.000000
-0.360964 0.051488 -0.038951 39 23 143 -0.998904 -0.046637 -0.003936
0.262310 -0.065077 -0.433473 3 67 177 0.652070 -0.234484 0.720987
0.226536 -0.257070 -0.474598 83 9 37 0.000000 1.000000 0.000000
-0.162083 -0.191301 -0.030018 227 120 231 0.000000 1.000000 0.000000
0.415958 -0.789306 -0.485172 89 16 140 0.001405 0.000000 -0.999999
-0.096691 0.215607 -0.511145 147 92 225 -0.068832 0.199559 -0.977465
0.379543 -0.853869 0.059968 234 13 186 0.000000 1.000000 0.000000
-0.377658 -0.775052 0.009372 254 147 182 -0.855860 -0.517206 -0.001224
-0.026778 -0.191300 -0.008950 227 120 231 0.000000 1.000000 0.000000
-0.398965 0.501508 0.106253 187 196 48 0.243418 0.027537 0.969530
-0.124625 -0.257072 0.366182 233 104 123 0.000000 -1.000000 0.000000
-0.396660 0.852505 0.035587 226 179 192 0.998479 -0.055123 0.001446
-0.436614 0.733971 0.024104 226 179 192 -0.999176 0.040551 -0.001468
0.392777 -0.310715 0.030292 138 212 170 -0.999999 0.000000 -0.001436
0.434632 -0.889697 0.233211 11 196 165 0.947604 -0.319443 0.001359
-0.429382 0.522511 -0.021723 187 196 48 -0.996337 -0.085487 -0.001944
0.332569 -0.749312 -0.491106 19 248 186 0.001426 0.107796 -0.994172
-0.033879 -0.191300 -0.183841 227 120 231 0.000000 1.000000 0.000000
0.416523 -0.580056 0.415686 0 141 167 0.999999 0.000000 0.001436
-0.402449 0.310502 -0.075220 39 23 143 -0.987358 -0.157523 -0.017603
0.288470 -0.257071 0.194791 138 212 170 0.000000 -1.000000 0.000000
-0.428185 0.570215 -0.112160 187 196 48 -0.141355 -0.004479 -0.989949
0.374842 -0.682644 -0.442223 153 211 104 -0.999999 0.000000 -0.001472
-0.039126 0.223360 0.507656 143 78 54 -0.051873 0.704504 0.707801
-0.439610 0.967518 0.547967 19 19 219 -0.185784 0.972047 0.143560
-0.434978 0.773661 0.069575 226 179 192 -0.998949 0.045819 -0.001532
0.161271 0.184321 -0.451399 28 81 63 -0.151449 -0.159704 0.975478
0.407195 -0.557503 0.424429 0 141 167 0.001448 0.000000 -0.999999
-0.092526 0.233910 0.469773 143 78 54 0.021982 0.958301 -0.284913
-0.369069 -0.295061 -0.322941 227 120 231 -0.999999 0.000012 -0.001441
-0.320775 0.223229 -0.434404 227 101 205 0.706029 0.010471 0.708105
-0.249221 -0.257072 -0.366806 227 120 231 0.000000 -1.000000 0.000000
-0.350710 -0.191301 -0.370787 227 120 231 0.000000 1.000000 0.000000
0.327679 0.183682 0.460353 33 200 176 -0.042891 0.999080 0.000186
0.364109 -0.198197 0.364514 138 212 170 -0.999999 0.000000 -0.001438
-0.258543 -0.252463 0.501790 233 104 123 -0.001087 -0.653010 0.757349
-0.051365 0.170325 -0.478286 147 92 225 0.018411 -0.959452 0.281269
-0.237567 -0.257072 -0.142021 227 120 231 0.000000 -1.000000 0.000000
-0.354169 -0.171415 0.003442 218 14 77 -0.999113 -0.042077 -0.001504
0.386829 -0.257070 -0.048746 83 9 37 0.000000 -1.000000 0.000000
0.382010 -0.992298 -0.485220 29 103 240 0.001405 0.000000 -0.999999
0.405337 -0.257070 0.426901 138 212 170 0.000000 -1.000000 0.000000
0.030248 -0.257071 -0.292779 227 120 231 0.000000 -1.000000 0.000000
0.374829 -0.324634 -0.433699 83 9 37 -0.999999 0.000000 -0.001472
-0.233633 -0.257070 -0.471253 227 120 231 0.000000 1.000000 0.000000
-0.352894 -0.191301 -0.124006 227 120 231 0.000000 1.000000 0.000000
-0.384923 -0.256346 0.341434 233 104 123 -0.433112 -0.901340 -0.000624
0.297488 -0.023302 0.458184 4 129 75 0.794746 -0.539990 0.277109
0.439766 -0.191299 -0.252442 83 9 37 0.000000 1.000000 0.000000
0.414589 -0.951795 0.424440 74 9 112 -0.001482 0.000000 0.999999
-0.400351 -0.214455 -0.268606 227 120 231 -0.999999 0.000000 -0.001440
0.417243 -0.921590 -0.086136 234 13 186 0.999999 0.000034 0.001439
0.430243 -0.916046 0.462535 74 9 112 0.999999 0.000000 0.001429
0.017223 -0.257071 0.207817 233 104 123 0.000000 -1.000000 0.000000
0.231781 -0.191299 -0.474993 83 9 37 0.000000 1.000000 0.000000
-0.240186 -0.191301 0.490783 233 104 123 0.000000 1.000000 0.000000
0.442770 -0.257070 -0.137463 83 9 37 0.000000 -1.000000 0.000000
0.373570 -0.878382 0.444204 74 9 112 -0.999999 0.000000 -0.001430
-0.262069 -0.735465 0.426989 234 18 107 0.000000 1.000000 0.000000
0.417345 -0.277513 -0.157216 83 9 37 0.999999 0.000000 0.001436
-0.433401 0.853506 -0.448597 197 152 156 -0.933252 -0.249778 0.258169
-0.293677 -0.257072 0.025136 233 104 123 0.000000 -1.000000 0.000000
0.100233 -0.191300 -0.177862 83 9 37 0.000000 1.000000 0.000000
-0.401074 -0.213649 0.233284 233 104 123 -0.999999 0.000000 -0.001440
-0.375098 -0.921960 -0.457390 215 108 23 -0.999999 0.000000 -0.001387
0.445130 0.230835 0.495623 130 39 33 0.532129 0.799805 -0.277760
0.417135 -0.907650 -0.010731 234 13 186 0.999999 -0.000027 0.001436
0.429011 -0.257070 0.125664 138 212 170 0.000000 -1.000000 0.000000
0.368565 0.111003 -0.457119 193 8 230 0.257400 0.000026 0.966305
0.000942 -0.191300 0.429538 233 104 123 0.000000 1.000000 0.000000
-0.281394 -0.191301 0.186063 233 104 123 0.000000 1.000000 0.000000
-0.388986 0.805871 0.473655 103 42 58 0.248784 0.064324 0.966421
-0.336968 -0.307653 0.423361 233 104 123 0.001405 0.000000 -0.999999
-0.380603 -0.743262 0.334942 52 106 181 -0.947710 0.319130 -0.001361
0.201186 -0.257071 -0.234166 83 9 37 0.000000 -1.000000 0.000000
-0.403034 0.922656 0.115476 56 175 92 0.462215 0.725067 -0.510525
-0.283773 -0.237437 -0.515421 227 120 231 0.001354 -0.336274 -0.941763
-0.361113 0.156347 0.466610 140 82 88 -0.707988 -0.010472 0.706147
0.322380 -0.284278 -0.477260 83 9 37 0.001433 0.000000 -0.999999
-0.016724 -0.191300 0.169007 233 104 123 0.000000 1.000000 0.000000
0.361012 -0.327018 0.473128 138 212 170 -0.001455 0.000000 0.999999
0.430248 -0.658419 0.459038 17 215 20 0.999999 0.000000 0.001429
0.182790 -0.257071 -0.154467 83 9 37 0.000000 -1.000000 0.000000
-0.460315 0.949482 -0.520383 139 104 116 -0.738315 0.591341 0.324356
-0.256457 -0.403940 0.460167 179 244 145 0.999999 0.000000 0.001482
-0.347568 -0.257070 0.182162 233 104 123 0.000000 1.000000 0.000000
0.005538 -0.191300 0.008709 233 104 123 0.000000 1.000000 0.000000
-0.093298 0.236621 -0.483234 147 92 225 0.021162 0.958296 0.284994
-0.396576 0.854389 0.051738 226 179 192 0.998519 -0.054386 0.001098
-0.380850 0.184962 0.096106 39 23 143 -0.978844 -0.166194 0.119348
-0.363851 -0.060302 0.433123 144 198 136 -0.965451 -0.014302 -0.260193
-0.392811 0.913118 0.413122 19 19 219 0.988306 0.152428 0.004075
0.393345 -0.334849 -0.365791 16 5 178 -0.999999 -0.000029 -0.001477
-0.402915 0.932979 -0.058054 56 175 92 0.939177 0.343431 0.000850
0.362204 -0.765931 -0.490549 19 248 186 0.001359 -0.319365 -0.947631
0.394803 -0.927510 0.146327 234 13 186 0.000000 -1.000000 0.000000
-0.380260 -0.743623 0.011056 254 147 182 -0.947710 0.319130 -0.001361
-0.231221 -0.191301 0.273955 233 104 123 0.000000 1.000000 0.000000
-0.316816 0.325510 0.447877 140 82 88 0.965425 0.014303 0.260287
-0.083082 -0.257072 0.079932 233 104 123 0.000000 -1.000000 0.000000
0.255274 -0.778179 0.452660 253 143 102 0.000000 -1.000000 0.000000
0.410550 -0.321783 0.218777 138 212 170 -0.000248 -0.985851 0.167624
-0.359580 -0.648185 0.480594 116 93 133 -0.001448 0.000000 0.999999
-0.303631 -0.297474 -0.478156 227 120 231 0.001191 -0.000082 -0.999999
-0.110728 -0.191300 -0.210068 227 120 231 0.000000 1.000000 0.000000
0.183045 -0.310745 -0.445059 83 9 37 -0.001436 0.000012 0.999999
-0.307854 -0.171702 -0.451779 253 63 74 0.965442 0.014306 0.260226
0.125332 -0.735465 -0.478266 87 6 29 0.000000 1.000000 0.000000
-0.022266 -0.197880 -0.416597 227 120 231 -0.001440 0.000000 0.999999
0.399026 -0.257070 -0.097447 83 9 37 0.000000 1.000000 0.000000
0.425720 -0.853869 -0.389241 152 202 46 0.000000 1.000000 0.000000
0.202593 -0.257071 0.462717 138 212 170 0.000000 -1.000000 0.000000
-0.397839 0.828505 -0.045833 226 179 192 0.998616 -0.052563 0.001791
-0.356754 -0.735465 -0.142375 125 29 133 0.000000 1.000000 0.000000
0.190637 -0.257071 0.324271 138 212 170 0.000000 -1.000000 0.000000
-0.373168 -0.191301 -0.189639 227 120 231 0.000000 1.000000 0.000000
-0.337226 -0.321168 0.063518 233 104 123 0.999999 -0.000015 0.001438
0.279681 -0.191299 0.097316 138 212 170 0.000000 1.000000 0.000000
-0.357157 -0.095559 0.073867 218 14 77 -0.999429 -0.033755 -0.001188
-0.154527 -0.257072 -0.133248 227 120 231 0.000000 -1.000000 0.000000
-0.352483 0.210450 0.015416 39 23 143 0.985839 0.167690 0.001094
0.202433 -0.257071 -0.320986 83 9 37 0.000000 -1.000000 0.000000
0.393321 -0.191299 -0.055974 83 9 37 0.000000 1.000000 0.000000
-0.382283 -0.759523 -0.261288 125 29 133 -0.994197 -0.107569 -0.001423
-0.356811 0.377193 -0.476883 179 220 150 -0.257426 -0.003832 -0.966290
-0.360592 0.150945 -0.470978 227 101 205 -0.706031 -0.010473 -0.708104
