ply
format ascii 1.0
element vertex 717
property float x
property float y
property float z
property uchar red
property uchar green
property uchar blue
property float nx
property float ny
property float nz
end_header
-0.395176 0.118977 -0.063465 38 254 8 -1.000000 0.000000 0.000000
-0.374106 0.121995 -0.015826 38 254 8 0.000000 -0.233141 -0.972443
-0.372364 0.095704 -0.010674 38 254 8 0.000000 -0.145967 -0.989289
-0.395176 0.117287 0.005572 38 254 8 1.000000 0.000000 0.000000
-0.357503 0.100269 0.102745 38 254 8 0.000000 0.472039 0.881578
-0.356133 0.084815 -0.111101 38 254 8 0.000000 -0.472039 0.881578
-0.385252 0.092545 0.062984 38 254 8 0.000000 0.378432 0.925629
-0.391037 0.094918 0.105610 38 254 8 0.000000 -0.472039 -0.881578
-0.392939 0.085594 -0.009389 38 254 8 0.000000 0.116528 0.993187
-0.346087 0.146105 0.012207 38 254 8 1.000000 0.000000 0.000000
-0.370815 0.134452 -0.047596 38 254 8 0.000000 0.280852 -0.959751
-0.346087 0.118487 0.072623 38 254 8 1.000000 0.000000 0.000000
-0.386834 0.101333 0.011454 38 254 8 0.000000 -0.175231 0.984527
-0.364828 0.148143 0.029624 38 254 8 0.000000 -0.947668 0.319258
-0.392615 0.138841 0.087554 38 254 8 0.000000 0.280806 0.959765
-0.380856 0.064172 -0.007982 38 254 8 0.000000 -0.027711 -0.999616
-0.346087 0.095459 0.010351 38 254 8 -1.000000 0.000000 0.000000
-0.346087 0.079780 -0.109783 38 254 8 -1.000000 0.000000 0.000000
-0.371305 0.114050 -0.054273 38 254 8 0.000000 0.378459 -0.925618
-0.357015 0.141270 -0.086926 38 254 8 0.000000 -0.280806 0.959765
-0.395176 0.135307 -0.066465 38 254 8 1.000000 0.000000 0.000000
-0.366581 0.098599 0.011019 38 254 8 0.000000 -0.145967 0.989289
-0.395176 0.077103 0.079153 38 254 8 -1.000000 0.000000 0.000000
-0.367398 0.118968 0.094895 38 254 8 0.000000 0.378448 0.925623
-0.346087 0.102060 0.002133 38 254 8 1.000000 0.000000 0.000000
-0.383581 0.103687 0.011873 38 254 8 0.000000 0.175231 -0.984527
-0.350980 0.144863 0.042656 38 254 8 0.000000 0.727361 0.686255
-0.391895 0.084444 -0.067071 38 254 8 0.000000 -0.472016 0.881590
-0.354050 0.076099 0.008457 38 254 8 0.000000 -0.057700 0.998334
-0.346087 0.107134 0.088217 38 254 8 1.000000 0.000000 0.000000
-0.382231 0.095940 0.061597 38 254 8 0.000000 0.378432 0.925629
-0.346087 0.069838 -0.094017 38 254 8 1.000000 0.000000 0.000000
-0.386502 0.117093 0.095662 38 254 8 0.000000 -0.378448 -0.925623
-0.395176 0.124693 0.009323 38 254 8 -1.000000 0.000000 0.000000
-0.395176 0.102730 -0.100053 38 254 8 -1.000000 0.000000 0.000000
-0.395176 0.112173 0.072584 38 254 8 1.000000 0.000000 0.000000
-0.387875 0.147365 -0.039288 38 254 8 0.000000 0.857493 -0.514496
-0.346087 0.142624 0.017570 38 254 8 1.000000 0.000000 0.000000
-0.389721 0.108662 0.099109 38 254 8 0.000000 -0.378448 -0.925623
-0.355273 0.154398 -0.083084 38 254 8 0.000000 -0.280806 0.959765
-0.363572 0.105432 0.057715 38 254 8 0.000000 0.378432 0.925629
-0.374810 0.109994 0.055850 38 254 8 0.000000 -0.378432 -0.925629
-0.346087 0.088120 -0.001381 38 254 8 1.000000 0.000000 0.000000
-0.346087 0.130205 0.065637 38 254 8 1.000000 0.000000 0.000000
-0.361538 0.141554 0.045164 38 254 8 0.000000 -0.372653 -0.927971
-0.346087 0.108355 -0.011080 38 254 8 1.000000 0.000000 0.000000
-0.350295 0.070711 0.118911 38 254 8 0.000000 -0.560675 -0.828036
-0.353422 0.079803 0.069474 38 254 8 0.000000 -0.472016 -0.881590
-0.383543 0.126961 -0.049789 38 254 8 0.000000 0.280852 -0.959751
-0.346087 0.065370 -0.004088 38 254 8 -1.000000 0.000000 0.000000
-0.384694 0.080872 -0.008943 38 254 8 0.000000 0.087155 0.996195
-0.346087 0.083939 -0.090380 38 254 8 -1.000000 0.000000 0.000000
-0.359456 0.097907 -0.010999 38 254 8 0.000000 -0.145967 -0.989289
-0.352151 0.124770 0.050349 38 254 8 0.000000 -0.280907 -0.959735
-0.395176 0.092089 0.084157 38 254 8 -1.000000 0.000000 0.000000
-0.354499 0.091460 0.063428 38 254 8 0.000000 0.378432 0.925629
-0.366440 0.073268 -0.117284 38 254 8 0.000000 -0.472039 0.881578
-0.395176 0.129808 0.080639 38 254 8 -1.000000 0.000000 0.000000
-0.378499 0.103931 0.011916 38 254 8 0.000000 -0.175231 0.984527
-0.346087 0.067016 -0.082642 38 254 8 -1.000000 0.000000 0.000000
-0.349021 0.096504 -0.104843 38 254 8 0.000000 0.472039 -0.881578
-0.382264 0.090339 -0.108144 38 254 8 0.000000 -0.472039 0.881578
-0.395176 0.131810 -0.062165 38 254 8 -1.000000 0.000000 0.000000
-0.355337 0.090538 0.107955 38 254 8 0.000000 -0.472039 -0.881578
-0.376566 0.087251 0.109715 38 254 8 0.000000 0.472039 0.881578
-0.382757 0.112683 -0.097547 38 254 8 0.000000 0.378448 -0.925623
-0.348525 0.083111 -0.009139 38 254 8 0.000000 0.087155 0.996195
-0.395176 0.146398 -0.055421 38 254 8 -1.000000 0.000000 0.000000
-0.346087 0.068362 0.007081 38 254 8 1.000000 0.000000 0.000000
-0.372032 0.111948 0.097766 38 254 8 0.000000 -0.378448 -0.925623
-0.364801 0.126255 0.091916 38 254 8 0.000000 0.378448 0.925623
-0.391635 0.090615 0.063773 38 254 8 0.000000 0.378432 0.925629
-0.381111 0.146139 -0.085501 38 254 8 0.000000 -0.280806 0.959765
-0.395176 0.083065 0.081257 38 254 8 1.000000 0.000000 0.000000
-0.348747 0.065527 -0.077200 38 254 8 0.000000 -0.472016 0.881590
-0.395176 0.111963 -0.059529 38 254 8 1.000000 0.000000 0.000000
-0.356498 0.094895 0.010473 38 254 8 0.000000 -0.145967 0.989289
-0.395176 0.107253 0.082039 38 254 8 -1.000000 0.000000 0.000000
-0.395176 0.126097 0.004295 38 254 8 1.000000 0.000000 0.000000
-0.350470 0.071202 -0.118660 38 254 8 0.000000 0.560633 -0.828065
-0.346087 0.107587 0.065334 38 254 8 -1.000000 0.000000 0.000000
-0.346087 0.115685 -0.091834 38 254 8 1.000000 0.000000 0.000000
-0.375587 0.092973 -0.010271 38 254 8 0.000000 -0.145967 -0.989289
-0.346087 0.066718 0.107649 38 254 8 -1.000000 0.000000 0.000000
-0.346087 0.082940 -0.002527 38 254 8 -1.000000 0.000000 0.000000
-0.390214 0.140100 0.045748 38 254 8 0.000000 0.372653 0.927971
-0.362569 0.143808 -0.043754 38 254 8 0.000000 0.562958 -0.826485
-0.387335 0.137088 0.088067 38 254 8 0.000000 0.280806 0.959765
-0.350063 0.102980 -0.058800 38 254 8 0.000000 0.378459 -0.925618
-0.380817 0.121432 0.015609 38 254 8 0.000000 -0.233141 0.972443
-0.377446 0.144664 -0.085933 38 254 8 0.000000 -0.280806 0.959765
-0.391213 0.068498 0.120409 38 254 8 0.000000 -0.560675 -0.828036
-0.346087 0.077373 -0.108010 38 254 8 -1.000000 0.000000 0.000000
-0.351405 0.089584 -0.108548 38 254 8 0.000000 -0.472039 0.881578
-0.346087 0.091367 -0.075382 38 254 8 1.000000 0.000000 0.000000
-0.378922 0.071420 0.118431 38 254 8 0.000000 0.560675 0.828036
-0.346087 0.085794 -0.084055 38 254 8 -1.000000 0.000000 0.000000
-0.395176 0.104827 -0.070952 38 254 8 1.000000 0.000000 0.000000
-0.346087 0.111606 -0.066416 38 254 8 1.000000 0.000000 0.000000
-0.372978 0.090640 -0.063845 38 254 8 0.000000 0.378459 -0.925618
-0.355874 0.149967 0.006237 38 254 8 0.000000 0.589811 -0.807541
-0.346087 0.140947 0.063720 38 254 8 1.000000 0.000000 0.000000
-0.395176 0.094516 -0.105323 38 254 8 -1.000000 0.000000 0.000000
-0.395176 0.134098 0.077394 38 254 8 -1.000000 0.000000 0.000000
-0.395176 0.132293 0.006174 38 254 8 1.000000 0.000000 0.000000
-0.395176 0.127345 0.077143 38 254 8 -1.000000 0.000000 0.000000
-0.361970 0.140481 -0.021218 38 254 8 0.000000 -0.372653 -0.927971
-0.346087 0.079940 0.103102 38 254 8 -1.000000 0.000000 0.000000
-0.346087 0.143446 0.013572 38 254 8 -1.000000 0.000000 0.000000
-0.395176 0.097879 0.060936 38 254 8 1.000000 0.000000 0.000000
-0.367357 0.094336 -0.062334 38 254 8 0.000000 -0.378459 0.925618
-0.368534 0.115728 -0.053587 38 254 8 0.000000 -0.378459 0.925618
-0.370905 0.123679 -0.050749 38 254 8 0.000000 0.280852 -0.959751
-0.367990 0.064285 0.123262 38 254 8 0.000000 0.560675 0.828036
-0.389572 0.125900 0.092061 38 254 8 0.000000 -0.378448 -0.925623
-0.352043 0.148250 0.036789 38 254 8 0.000000 0.947632 0.319364
-0.391701 0.115891 -0.014365 38 254 8 0.000000 0.204500 0.978867
-0.395176 0.080838 0.110250 38 254 8 -1.000000 0.000000 0.000000
-0.365622 0.139006 0.020548 38 254 8 0.000000 -0.290533 0.956865
-0.373549 0.158163 -0.013913 38 254 8 0.000000 0.742013 0.670386
-0.395176 0.069881 0.085047 38 254 8 -1.000000 0.000000 0.000000
-0.395176 0.071196 0.077932 38 254 8 1.000000 0.000000 0.000000
-0.389465 0.106813 0.057151 38 254 8 0.000000 0.378432 0.925629
-0.346087 0.063851 0.002772 38 254 8 1.000000 0.000000 0.000000
-0.395176 0.063764 -0.106725 38 254 8 -1.000000 0.000000 0.000000
-0.346087 0.104931 -0.059837 38 254 8 1.000000 0.000000 0.000000
-0.389288 0.071304 -0.008262 38 254 8 0.000000 0.057700 0.998334
-0.389628 0.142513 0.001595 38 254 8 0.000000 -0.459108 0.888380
-0.395176 0.102077 -0.093601 38 254 8 -1.000000 0.000000 0.000000
-0.349035 0.089009 0.064545 38 254 8 0.000000 0.472016 0.881590
-0.381671 0.104459 0.100827 38 254 8 0.000000 0.378448 0.925623
-0.346087 0.102035 0.008588 38 254 8 -1.000000 0.000000 0.000000
-0.395176 0.078031 0.082853 38 254 8 1.000000 0.000000 0.000000
-0.395176 0.089021 -0.103212 38 254 8 1.000000 0.000000 0.000000
-0.366318 0.108780 -0.056428 38 254 8 0.000000 -0.378459 0.925618
-0.395176 0.114628 0.096498 38 254 8 1.000000 0.000000 0.000000
-0.355302 0.157209 -0.012856 38 254 8 0.000000 0.742013 0.670386
-0.348248 0.127535 0.017192 38 254 8 0.000000 0.261674 -0.965156
-0.390579 0.085166 0.110832 38 254 8 0.000000 0.472039 0.881578
-0.390634 0.089413 -0.108640 38 254 8 0.000000 -0.472039 0.881578
-0.358383 0.070616 0.008140 38 254 8 0.000000 0.057700 -0.998334
-0.395176 0.131924 -0.062244 38 254 8 1.000000 0.000000 0.000000
-0.394658 0.060883 -0.079688 38 254 8 0.000000 -0.477670 0.878539
-0.346087 0.139899 -0.011705 38 254 8 1.000000 0.000000 0.000000
-0.392612 0.129551 0.090568 38 254 8 0.000000 0.378448 0.925623
-0.374845 0.116747 -0.053171 38 254 8 0.000000 0.378459 -0.925618
-0.376302 0.136024 -0.088460 38 254 8 0.000000 -0.280806 0.959765
-0.359171 0.138274 0.046396 38 254 8 0.000000 -0.280587 -0.959829
-0.363584 0.082654 0.112177 38 254 8 0.000000 0.472039 0.881578
-0.359033 0.073174 -0.117334 38 254 8 0.000000 -0.472039 0.881578
-0.395176 0.148731 0.058331 38 254 8 1.000000 0.000000 0.000000
-0.395176 0.107693 -0.087035 38 254 8 1.000000 0.000000 0.000000
-0.349313 0.124651 0.050384 38 254 8 0.000000 -0.280907 -0.959735
-0.361687 0.133739 -0.089129 38 254 8 0.000000 0.280806 -0.959765
-0.354345 0.133366 -0.047914 38 254 8 0.000000 0.280852 -0.959751
-0.346087 0.120059 -0.058947 38 254 8 -1.000000 0.000000 0.000000
-0.346087 0.085249 -0.108857 38 254 8 -1.000000 0.000000 0.000000
-0.346087 0.156222 0.068967 38 254 8 -1.000000 0.000000 0.000000
-0.388301 0.097634 -0.104238 38 254 8 0.000000 0.472039 -0.881578
-0.346087 0.071935 0.091770 38 254 8 -1.000000 0.000000 0.000000
-0.394185 0.146220 -0.003750 38 254 8 0.000000 0.547541 0.836779
-0.390142 0.082830 0.009031 38 254 8 0.000000 -0.087030 0.996206
-0.346087 0.122267 -0.009676 38 254 8 1.000000 0.000000 0.000000
-0.370525 0.189107 -0.035990 199 209 154 0.000000 0.058840 0.998267
-0.349642 0.160823 -0.081205 199 209 154 0.000000 0.280806 -0.959765
-0.346087 0.283641 -0.048144 199 209 154 1.000000 0.000000 0.000000
-0.384306 0.178441 0.033507 199 209 154 0.000000 -0.410407 0.911903
-0.395176 0.166414 -0.068315 199 209 154 -1.000000 0.000000 0.000000
-0.359821 0.265834 0.037197 199 209 154 0.000000 -0.129018 0.991642
-0.379175 0.251696 -0.072642 199 209 154 0.000000 -0.025858 -0.999666
-0.346456 0.263623 -0.036991 199 209 154 0.000000 0.129018 0.991642
-0.346087 0.337287 -0.065549 199 209 154 -1.000000 0.000000 0.000000
-0.346087 0.334023 0.081344 199 209 154 -1.000000 0.000000 0.000000
-0.351098 0.317472 0.048326 199 209 154 0.000000 -0.330064 0.943959
-0.367265 0.330241 0.086427 199 209 154 0.000000 0.330110 -0.943942
-0.385463 0.307666 -0.080547 199 209 154 0.000000 -0.230774 -0.973007
-0.370504 0.301354 -0.079049 199 209 154 0.000000 -0.230774 -0.973007
-0.395176 0.278735 0.074885 199 209 154 -1.000000 0.000000 0.000000
-0.387822 0.223723 -0.072370 199 209 154 0.000000 0.077610 -0.996984
-0.395176 0.154765 0.077393 199 209 154 1.000000 0.000000 0.000000
-0.361482 0.213321 0.073097 199 209 154 0.000000 0.077610 0.996984
-0.358670 0.164244 -0.022251 199 209 154 0.000000 -0.824366 -0.566058
-0.371724 0.281450 -0.039346 199 209 154 0.000000 -0.230774 -0.973007
-0.375493 0.262998 0.073092 199 209 154 0.000000 0.129018 -0.991642
-0.365720 0.227976 -0.034518 199 209 154 0.000000 0.025859 0.999666
-0.387661 0.330976 0.086684 199 209 154 0.000000 0.330110 -0.943942
-0.381369 0.225765 0.072129 199 209 154 0.000000 -0.077610 -0.996984
-0.346087 0.292127 -0.063463 199 209 154 -1.000000 0.000000 0.000000
-0.346087 0.344292 0.073461 199 209 154 -1.000000 0.000000 0.000000
-0.346087 0.176193 -0.059621 199 209 154 -1.000000 0.000000 0.000000
-0.347994 0.323883 0.084310 199 209 154 0.000000 -0.230745 0.973014
-0.371141 0.171285 0.078922 199 209 154 0.000000 -0.180099 -0.983649
-0.350698 0.289778 -0.041323 199 209 154 0.000000 0.230774 0.973007
-0.346087 0.327300 -0.068624 199 209 154 1.000000 0.000000 0.000000
-0.346087 0.226374 -0.044225 199 209 154 -1.000000 0.000000 0.000000
-0.350792 0.338751 0.089402 199 209 154 0.000000 -0.330110 0.943942
-0.370566 0.319006 0.048862 199 209 154 0.000000 -0.330064 0.943959
-0.346087 0.274498 0.051316 199 209 154 -1.000000 0.000000 0.000000
-0.385790 0.328022 -0.085733 199 209 154 0.000000 -0.330083 -0.943952
-0.352153 0.190611 0.075383 199 209 154 0.000000 -0.180099 -0.983649
-0.371431 0.155702 -0.011286 199 209 154 0.000000 0.706175 0.708038
-0.364513 0.194647 0.074644 199 209 154 0.000000 0.180099 0.983649
-0.346087 0.180239 -0.060949 199 209 154 -1.000000 0.000000 0.000000
-0.346087 0.322150 0.067510 199 209 154 1.000000 0.000000 0.000000
-0.362924 0.287388 0.076266 199 209 154 0.000000 0.129018 -0.991642
-0.395176 0.310499 0.080546 199 209 154 1.000000 0.000000 0.000000
-0.346895 0.258999 0.072750 199 209 154 0.000000 0.025889 -0.999665
-0.362568 0.191918 0.075144 199 209 154 0.000000 -0.180099 -0.983649
-0.369298 0.245017 0.034877 199 209 154 0.000000 -0.025859 0.999666
-0.395176 0.213006 -0.052484 199 209 154 1.000000 0.000000 0.000000
-0.346087 0.284653 -0.042050 199 209 154 -1.000000 0.000000 0.000000
-0.352515 0.203066 0.073896 199 209 154 0.000000 -0.077610 -0.996984
-0.395176 0.159105 0.022567 199 209 154 1.000000 0.000000 0.000000
-0.370266 0.166273 -0.024841 199 209 154 0.000000 -0.769488 -0.638661
-0.346087 0.187247 -0.061475 199 209 154 -1.000000 0.000000 0.000000
-0.346087 0.223082 0.045361 199 209 154 1.000000 0.000000 0.000000
-0.346087 0.275923 -0.042824 199 209 154 -1.000000 0.000000 0.000000
-0.394903 0.224072 -0.072343 199 209 154 0.000000 -0.077610 0.996984
-0.346087 0.159372 -0.060836 199 209 154 -1.000000 0.000000 0.000000
-0.377998 0.199382 -0.074264 199 209 154 0.000000 -0.077610 0.996984
-0.363184 0.317115 0.082705 199 209 154 0.000000 -0.230745 0.973014
-0.368060 0.238885 -0.072311 199 209 154 0.000000 -0.025858 -0.999666
-0.395176 0.306650 -0.066913 199 209 154 -1.000000 0.000000 0.000000
-0.363384 0.200368 0.074106 199 209 154 0.000000 0.077610 0.996984
-0.386387 0.307828 0.045521 199 209 154 0.000000 0.230774 -0.973007
-0.395176 0.160831 -0.020509 199 209 154 1.000000 0.000000 0.000000
-0.393823 0.308032 0.045569 199 209 154 0.000000 -0.230774 0.973007
-0.391148 0.237592 0.072195 199 209 154 0.000000 -0.025889 0.999665
-0.346087 0.329322 -0.073567 199 209 154 -1.000000 0.000000 0.000000
-0.371689 0.186962 0.035734 199 209 154 0.000000 0.149377 -0.988780
-0.374868 0.310311 -0.046192 199 209 154 0.000000 0.230774 0.973007
-0.350976 0.170044 0.079150 199 209 154 0.000000 -0.180099 -0.983649
-0.381512 0.328546 0.052198 199 209 154 0.000000 0.330064 -0.943959
-0.364491 0.295050 -0.077554 199 209 154 0.000000 0.230774 0.973007
-0.346087 0.256493 -0.047315 199 209 154 1.000000 0.000000 0.000000
-0.388541 0.331110 -0.086813 199 209 154 0.000000 0.330083 0.943952
-0.376571 0.226869 -0.034489 199 209 154 0.000000 0.025859 0.999666
-0.395176 0.249028 0.070427 199 209 154 1.000000 0.000000 0.000000
-0.375413 0.314431 -0.082151 199 209 154 0.000000 -0.230774 -0.973007
-0.395176 0.264633 0.060938 199 209 154 -1.000000 0.000000 0.000000
-0.364299 0.317964 0.048497 199 209 154 0.000000 -0.330064 0.943959
-0.391361 0.239181 -0.072318 199 209 154 0.000000 0.025858 0.999666
-0.351918 0.266328 -0.073606 199 209 154 0.000000 -0.129018 -0.991642
-0.390785 0.301583 0.079022 199 209 154 0.000000 0.230745 -0.973014
-0.395176 0.198683 -0.046165 199 209 154 -1.000000 0.000000 0.000000
-0.346087 0.308363 0.071839 199 209 154 1.000000 0.000000 0.000000
-0.395176 0.188051 0.058170 199 209 154 1.000000 0.000000 0.000000
-0.348057 0.284256 -0.075939 199 209 154 0.000000 0.129018 0.991642
-0.359408 0.251590 0.035344 199 209 154 0.000000 0.129018 -0.991642
-0.358183 0.239678 0.034739 199 209 154 0.000000 -0.025859 0.999666
-0.395176 0.210366 0.043551 199 209 154 -1.000000 0.000000 0.000000
-0.346087 0.324218 0.057845 199 209 154 -1.000000 0.000000 0.000000
-0.359837 0.248820 0.072486 199 209 154 0.000000 0.025889 -0.999665
-0.372490 0.220455 0.072542 199 209 154 0.000000 0.077610 0.996984
-0.352917 0.174649 0.031629 199 209 154 0.000000 0.492257 -0.870450
-0.346087 0.295551 -0.056590 199 209 154 1.000000 0.000000 0.000000
-0.380611 0.188475 0.075774 199 209 154 0.000000 -0.180099 -0.983649
-0.346087 0.158371 0.055861 199 209 154 -1.000000 0.000000 0.000000
-0.395176 0.221485 -0.056686 199 209 154 1.000000 0.000000 0.000000
-0.388164 0.265363 -0.073480 199 209 154 0.000000 -0.129018 -0.991642
-0.395176 0.280713 -0.048528 199 209 154 1.000000 0.000000 0.000000
-0.359686 0.166261 -0.024827 199 209 154 0.000000 0.769488 0.638661
-0.395176 0.254302 -0.068595 199 209 154 1.000000 0.000000 0.000000
-0.395176 0.195343 0.046337 199 209 154 -1.000000 0.000000 0.000000
-0.346087 0.313065 -0.047341 199 209 154 1.000000 0.000000 0.000000
-0.376238 0.182682 -0.034993 199 209 154 0.000000 -0.238658 -0.971104
-0.360697 0.165247 0.080028 199 209 154 0.000000 -0.180099 -0.983649
-0.392340 0.200396 0.035352 199 209 154 0.000000 -0.077587 -0.996986
-0.346533 0.330141 0.086392 199 209 154 0.000000 0.330110 -0.943942
-0.346087 0.201680 0.059296 199 209 154 1.000000 0.000000 0.000000
-0.374651 0.253153 -0.035629 199 209 154 0.000000 0.129018 0.991642
-0.347748 0.180559 -0.034362 199 209 154 0.000000 0.326001 0.945369
-0.395176 0.255068 -0.066959 199 209 154 1.000000 0.000000 0.000000
-0.346087 0.263670 -0.038065 199 209 154 1.000000 0.000000 0.000000
-0.375721 0.306709 -0.045338 199 209 154 0.000000 -0.230774 -0.973007
-0.355727 0.328892 0.052319 199 209 154 0.000000 0.330064 -0.943959
-0.350766 0.223721 0.034326 199 209 154 0.000000 0.025859 -0.999666
-0.347230 0.300464 0.078757 199 209 154 0.000000 -0.230745 0.973014
-0.378647 0.302442 0.079226 199 209 154 0.000000 0.230745 -0.973014
-0.376317 0.310362 -0.081186 199 209 154 0.000000 0.230774 0.973007
-0.354875 0.184298 -0.076622 199 209 154 0.000000 0.180099 -0.983649
-0.387209 0.173731 0.031109 199 209 154 0.000000 -0.492257 0.870450
-0.383583 0.305622 0.079980 199 209 154 0.000000 -0.230745 0.973014
-0.346087 0.259165 -0.069581 199 209 154 1.000000 0.000000 0.000000
-0.395176 0.302490 0.048968 199 209 154 1.000000 0.000000 0.000000
-0.361982 0.183287 -0.076807 199 209 154 0.000000 -0.180099 0.983649
-0.395176 0.306698 0.058653 199 209 154 1.000000 0.000000 0.000000
-0.384230 0.167469 0.079621 199 209 154 0.000000 0.180099 0.983649
-0.370963 0.174958 0.078250 199 209 154 0.000000 -0.180099 -0.983649
-0.395176 0.214180 0.040190 199 209 154 1.000000 0.000000 0.000000
-0.366618 0.350103 0.093372 199 209 154 0.000000 -0.330110 0.943942
-0.361155 0.330664 -0.053021 199 209 154 0.000000 0.330064 0.943959
-0.395176 0.312172 0.069042 199 209 154 1.000000 0.000000 0.000000
-0.346087 0.167016 -0.056516 199 209 154 -1.000000 0.000000 0.000000
-0.395176 0.180510 0.061346 199 209 154 -1.000000 0.000000 0.000000
-0.346087 0.246391 -0.065146 199 209 154 -1.000000 0.000000 0.000000
-0.369224 0.190104 -0.075558 199 209 154 0.000000 0.180099 -0.983649
-0.395176 0.278731 0.045012 199 209 154 -1.000000 0.000000 0.000000
-0.375034 0.255465 -0.035930 199 209 154 0.000000 0.129018 0.991642
-0.346087 0.257055 0.062951 199 209 154 1.000000 0.000000 0.000000
-0.374238 0.286219 0.076114 199 209 154 0.000000 0.129018 -0.991642
-0.395176 0.310453 -0.069282 199 209 154 1.000000 0.000000 0.000000
-0.393554 0.174795 0.031711 199 209 154 0.000000 -0.492257 0.870450
-0.371955 0.205463 0.034957 199 209 154 0.000000 -0.077587 -0.996986
-0.351223 0.169460 0.079256 199 209 154 0.000000 0.180099 0.983649
-0.395176 0.264409 -0.068981 199 209 154 1.000000 0.000000 0.000000
-0.357548 0.249416 -0.072583 199 209 154 0.000000 0.025858 0.999666
-0.386296 0.270706 0.037831 199 209 154 0.000000 -0.129018 0.991642
-0.385220 0.204705 0.073768 199 209 154 0.000000 -0.077610 -0.996984
-0.359341 0.203505 0.073862 199 209 154 0.000000 0.077610 0.996984
-0.346087 0.242462 -0.058756 199 209 154 -1.000000 0.000000 0.000000
-0.395176 0.149432 -0.012208 199 209 154 -1.000000 0.000000 0.000000
-0.361811 0.200309 -0.074192 199 209 154 0.000000 -0.077610 0.996984
-0.395071 0.211887 0.073209 199 209 154 0.000000 -0.077610 -0.996984
-0.395176 0.153077 0.049046 199 209 154 1.000000 0.000000 0.000000
-0.353299 0.243861 0.072358 199 209 154 0.000000 -0.025889 0.999665
-0.383936 0.171357 -0.078991 199 209 154 0.000000 -0.180099 0.983649
-0.362281 0.200061 0.074130 199 209 154 0.000000 -0.077610 -0.996984
-0.395176 0.274701 0.048132 199 209 154 1.000000 0.000000 0.000000
-0.346087 0.172809 -0.072270 199 209 154 -1.000000 0.000000 0.000000
-0.395176 0.184597 0.049142 199 209 154 -1.000000 0.000000 0.000000
-0.388712 0.324922 -0.084648 199 209 154 0.000000 0.330083 0.943952
-0.395176 0.317522 -0.076312 199 209 154 -1.000000 0.000000 0.000000
-0.346087 0.168580 -0.074772 199 209 154 -1.000000 0.000000 0.000000
-0.346087 0.257562 -0.052354 199 209 154 -1.000000 0.000000 0.000000
-0.387317 0.293183 -0.042130 199 209 154 0.000000 -0.230774 -0.973007
-0.395176 0.291867 0.063836 199 209 154 -1.000000 0.000000 0.000000
-0.365204 0.167831 -0.026495 199 209 154 0.000000 0.708451 0.705760
-0.368383 0.235760 0.034637 199 209 154 0.000000 -0.025859 0.999666
-0.346087 0.342091 -0.086306 199 209 154 1.000000 0.000000 0.000000
-0.391025 0.307481 0.080421 199 209 154 0.000000 -0.230745 0.973014
-0.366095 0.334366 -0.054315 199 209 154 0.000000 0.330064 0.943959
-0.346087 0.295514 -0.045368 199 209 154 1.000000 0.000000 0.000000
-0.348628 0.240098 -0.072342 199 209 154 0.000000 0.025858 0.999666
-0.346087 0.277416 -0.068549 199 209 154 1.000000 0.000000 0.000000
-0.370957 0.265379 0.073401 199 209 154 0.000000 -0.129018 0.991642
-0.346087 0.315631 0.053007 199 209 154 1.000000 0.000000 0.000000
-0.395176 0.314106 0.065558 199 209 154 1.000000 0.000000 0.000000
-0.354029 0.189377 0.035924 199 209 154 0.000000 -0.058840 0.998267
-0.346087 0.309282 0.051924 199 209 154 -1.000000 0.000000 0.000000
-0.395176 0.181964 -0.040580 199 209 154 1.000000 0.000000 0.000000
-0.395176 0.192026 -0.069925 199 209 154 -1.000000 0.000000 0.000000
-0.346087 0.308065 0.080357 199 209 154 -1.000000 0.000000 0.000000
-0.395176 0.252936 -0.071578 199 209 154 1.000000 0.000000 0.000000
-0.346087 0.330989 0.078294 199 209 154 1.000000 0.000000 0.000000
-0.395176 0.310739 0.047615 199 209 154 -1.000000 0.000000 0.000000
-0.395176 0.292259 0.044465 199 209 154 1.000000 0.000000 0.000000
-0.395176 0.205197 -0.068625 199 209 154 -1.000000 0.000000 0.000000
-0.395176 0.276684 0.070048 199 209 154 -1.000000 0.000000 0.000000
-0.346087 0.294553 0.044976 199 209 154 1.000000 0.000000 0.000000
-0.366618 0.312419 -0.046692 199 209 154 0.000000 0.230774 0.973007
-0.379709 0.213589 0.073077 199 209 154 0.000000 -0.077610 -0.996984
-0.346087 0.246240 -0.046997 199 209 154 -1.000000 0.000000 0.000000
-0.346087 0.221399 -0.065343 199 209 154 -1.000000 0.000000 0.000000
-0.383950 0.166808 0.025387 199 209 154 0.000000 0.708451 -0.705760
-0.346087 0.296042 0.055250 199 209 154 -1.000000 0.000000 0.000000
-0.395176 0.232819 0.047738 199 209 154 -1.000000 0.000000 0.000000
-0.347151 0.229415 -0.034555 199 209 154 0.000000 -0.025859 -0.999666
-0.395176 0.150311 0.025936 199 209 154 -1.000000 0.000000 0.000000
-0.369930 0.286400 -0.040521 199 209 154 0.000000 -0.230774 -0.973007
-0.382368 0.223182 -0.034394 199 209 154 0.000000 0.025859 0.999666
-0.395176 0.213483 -0.071759 199 209 154 1.000000 0.000000 0.000000
-0.358892 0.266929 -0.073684 199 209 154 0.000000 0.129018 0.991642
-0.395176 0.156927 0.043324 199 209 154 -1.000000 0.000000 0.000000
-0.358435 0.163813 0.021542 199 209 154 0.000000 -0.824366 0.566058
-0.395176 0.218709 -0.050618 199 209 154 1.000000 0.000000 0.000000
-0.379859 0.250647 -0.072615 199 209 154 0.000000 -0.025858 -0.999666
-0.392038 0.276614 -0.074944 199 209 154 0.000000 -0.129018 -0.991642
-0.366677 0.303813 -0.079633 199 209 154 0.000000 0.230774 0.973007
-0.346417 0.333145 0.053806 199 209 154 0.000000 -0.330064 0.943959
-0.346087 0.231114 -0.066737 199 209 154 1.000000 0.000000 0.000000
-0.395176 0.305132 -0.077495 199 209 154 -1.000000 0.000000 0.000000
-0.346087 0.184009 0.062001 199 209 154 1.000000 0.000000 0.000000
-0.395176 0.210860 -0.061055 199 209 154 -1.000000 0.000000 0.000000
-0.365589 0.306818 0.080264 199 209 154 0.000000 -0.230745 0.973014
-0.389939 0.171483 0.029579 199 209 154 0.000000 0.568440 -0.822725
-0.346087 0.250969 0.066451 199 209 154 -1.000000 0.000000 0.000000
-0.364055 0.264353 0.037004 199 209 154 0.000000 0.129018 -0.991642
-0.395176 0.268138 0.051468 199 209 154 -1.000000 0.000000 0.000000
-0.395176 0.168285 0.055581 199 209 154 -1.000000 0.000000 0.000000
-0.385364 0.191547 0.075212 199 209 154 0.000000 -0.180099 -0.983649
-0.346087 0.235826 0.051802 199 209 154 -1.000000 0.000000 0.000000
-0.370287 0.261111 -0.036664 199 209 154 0.000000 -0.129018 -0.991642
-0.373346 0.331129 -0.053183 199 209 154 0.000000 0.330064 0.943959
-0.377755 0.262214 0.036726 199 209 154 0.000000 0.129018 -0.991642
-0.346087 0.296188 -0.077488 199 209 154 1.000000 0.000000 0.000000
-0.346087 0.172005 0.070103 199 209 154 1.000000 0.000000 0.000000
-0.363106 0.267339 0.073656 199 209 154 0.000000 -0.129018 0.991642
-0.383630 0.305915 -0.045149 199 209 154 0.000000 -0.230774 -0.973007
-0.395176 0.163858 -0.040797 199 209 154 -1.000000 0.000000 0.000000
-0.349474 0.334993 -0.054534 199 209 154 0.000000 -0.330064 -0.943959
-0.377851 0.339015 0.055859 199 209 154 0.000000 -0.330064 0.943959
-0.346866 0.263078 0.073102 199 209 154 0.000000 -0.129018 0.991642
-0.346087 0.301623 -0.054545 199 209 154 1.000000 0.000000 0.000000
-0.395176 0.330643 0.079768 199 209 154 -1.000000 0.000000 0.000000
-0.373431 0.328005 0.052009 199 209 154 0.000000 -0.330064 0.943959
-0.369952 0.248594 0.072480 199 209 154 0.000000 -0.025889 0.999665
-0.376393 0.280717 -0.075478 199 209 154 0.000000 0.129018 0.991642
-0.346087 0.181157 0.057033 199 209 154 1.000000 0.000000 0.000000
-0.381110 0.282338 -0.075689 199 209 154 0.000000 -0.129018 -0.991642
-0.395176 0.286617 -0.055597 199 209 154 1.000000 0.000000 0.000000
-0.390505 0.166051 0.386771 103 18 63 0.000000 0.044206 -0.999022
-0.395176 0.158238 0.421881 103 18 63 -1.000000 0.000000 0.000000
-0.395176 0.228799 0.413572 103 18 63 -1.000000 0.000000 0.000000
-0.346087 0.142599 0.394034 103 18 63 1.000000 0.000000 0.000000
-0.389391 0.198272 0.388197 103 18 63 0.000000 0.044206 -0.999022
-0.361894 0.098888 0.419036 103 18 63 0.000000 -0.049004 0.998799
-0.369525 0.167545 0.386837 103 18 63 0.000000 0.044206 -0.999022
-0.346087 0.134954 0.400447 103 18 63 1.000000 0.000000 0.000000
-0.383519 0.142128 0.421157 103 18 63 0.000000 -0.049004 0.998799
-0.346087 0.143774 0.403581 103 18 63 1.000000 0.000000 0.000000
-0.374123 0.253536 0.390643 103 18 63 0.000000 0.044206 -0.999022
-0.346087 0.111590 0.402147 103 18 63 1.000000 0.000000 0.000000
-0.346087 0.213217 0.396914 103 18 63 1.000000 0.000000 0.000000
-0.352465 0.073428 0.417787 103 18 63 0.000000 -0.049004 0.998799
-0.395176 0.119684 0.385643 103 18 63 -1.000000 0.000000 0.000000
-0.386065 0.057666 0.417014 103 18 63 0.000000 -0.049004 0.998799
-0.369824 0.190623 0.423536 103 18 63 0.000000 -0.049004 0.998799
-0.346087 0.136696 0.410385 103 18 63 1.000000 0.000000 0.000000
-0.393825 0.215967 0.424781 103 18 63 0.000000 -0.049004 0.998799
-0.367518 0.206637 0.424323 103 18 63 0.000000 -0.049004 0.998799
-0.395176 0.230316 0.398614 103 18 63 -1.000000 0.000000 0.000000
-0.346087 0.228273 0.424183 103 18 63 1.000000 0.000000 0.000000
-0.346087 0.227777 0.391652 103 18 63 1.000000 0.000000 0.000000
-0.346515 0.084781 0.383175 103 18 63 0.000000 0.044206 -0.999022
-0.395176 0.126431 0.415949 103 18 63 -1.000000 0.000000 0.000000
-0.390772 0.239826 0.425951 103 18 63 0.000000 -0.049004 0.998799
-0.346087 0.073467 0.408162 103 18 63 1.000000 0.000000 0.000000
-0.363417 0.135773 0.385431 103 18 63 0.000000 0.044206 -0.999022
-0.393526 0.199721 0.388261 103 18 63 0.000000 0.044206 -0.999022
-0.381231 0.160471 0.386524 103 18 63 0.000000 -0.044206 0.999022
-0.395176 0.179460 0.404662 103 18 63 -1.000000 0.000000 0.000000
-0.366363 0.085792 0.418393 103 18 63 0.000000 -0.049004 0.998799
-0.395176 0.259406 0.408624 103 18 63 -1.000000 0.000000 0.000000
-0.395176 0.259454 0.421590 103 18 63 -1.000000 0.000000 0.000000
-0.346087 0.102527 0.390291 103 18 63 1.000000 0.000000 0.000000
-0.346087 0.228471 0.408952 103 18 63 1.000000 0.000000 0.000000
-0.346087 0.266062 0.409101 103 18 63 1.000000 0.000000 0.000000
-0.361677 0.244772 0.426194 103 18 63 0.000000 -0.049004 0.998799
-0.376221 0.134904 0.420803 103 18 63 0.000000 -0.049004 0.998799
-0.355258 0.113702 0.384455 103 18 63 0.000000 0.044206 -0.999022
-0.395176 0.250226 0.404417 103 18 63 -1.000000 0.000000 0.000000
-0.395176 0.264965 0.422688 103 18 63 -1.000000 0.000000 0.000000
-0.353261 0.207477 0.388605 103 18 63 0.000000 0.044206 -0.999022
-0.393717 0.111299 0.419645 103 18 63 0.000000 -0.049004 0.998799
-0.395176 0.211535 0.411829 103 18 63 -1.000000 0.000000 0.000000
-0.379402 0.116510 0.419900 103 18 63 0.000000 -0.049004 0.998799
-0.359669 0.111254 0.419643 103 18 63 0.000000 -0.049004 0.998799
-0.346087 0.249286 0.410591 103 18 63 1.000000 0.000000 0.000000
-0.395176 0.219296 0.406697 103 18 63 -1.000000 0.000000 0.000000
-0.368212 0.122088 0.384826 103 18 63 0.000000 -0.044206 0.999022
-0.391951 0.181727 0.423100 103 18 63 0.000000 -0.049004 0.998799
-0.346087 0.187671 0.389004 103 18 63 -1.000000 0.000000 0.000000
-0.395176 0.118576 0.391471 103 18 63 -1.000000 0.000000 0.000000
-0.395176 0.224445 0.395673 103 18 63 -1.000000 0.000000 0.000000
-0.355318 0.241353 0.390104 103 18 63 0.000000 -0.044206 0.999022
-0.381755 0.123894 0.420263 103 18 63 0.000000 -0.049004 0.998799
-0.389763 0.077775 0.418000 103 18 63 0.000000 -0.049004 0.998799
-0.357473 0.115627 0.384540 103 18 63 0.000000 -0.044206 0.999022
-0.394820 0.125318 0.384969 103 18 63 0.000000 -0.044206 0.999022
-0.362415 0.088704 0.383349 103 18 63 0.000000 -0.044206 0.999022
-0.346087 0.225332 0.392623 103 18 63 -1.000000 0.000000 0.000000
-0.394186 0.127143 0.385050 103 18 63 0.000000 0.044206 -0.999022
-0.382663 0.088353 0.383333 103 18 63 0.000000 -0.044206 0.999022
-0.371811 0.120001 0.384734 103 18 63 0.000000 -0.044206 0.999022
-0.349618 0.243725 0.426142 103 18 63 0.000000 -0.049004 0.998799
-0.382589 0.174093 0.422725 103 18 63 0.000000 -0.049004 0.998799
-0.381258 0.156750 0.421874 103 18 63 0.000000 -0.049004 0.998799
-0.395176 0.228573 0.420380 103 18 63 -1.000000 0.000000 0.000000
-0.395176 0.158419 0.412365 103 18 63 -1.000000 0.000000 0.000000
-0.395176 0.207287 0.397616 103 18 63 -1.000000 0.000000 0.000000
-0.395176 0.167711 0.388938 103 18 63 1.000000 0.000000 0.000000
-0.395176 0.208415 0.405972 103 18 63 -1.000000 0.000000 0.000000
-0.380027 0.222670 0.389277 103 18 63 0.000000 0.044206 -0.999022
-0.395176 0.107205 0.415254 103 18 63 -1.000000 0.000000 0.000000
-0.390375 0.202787 0.388397 103 18 63 0.000000 -0.044206 0.999022
-0.358070 0.176075 0.422823 103 18 63 0.000000 -0.049004 0.998799
-0.347511 0.116311 0.384570 103 18 63 0.000000 -0.044206 0.999022
-0.382923 0.262115 0.427044 103 18 63 0.000000 -0.049004 0.998799
-0.388261 0.104077 0.384029 103 18 63 0.000000 -0.044206 0.999022
-0.353125 0.074983 0.382742 103 18 63 0.000000 -0.044206 0.999022
-0.346087 0.225531 0.413451 103 18 63 1.000000 0.000000 0.000000
-0.363289 0.195238 0.388062 103 18 63 0.000000 -0.044206 0.999022
-0.370984 0.143577 0.385777 103 18 63 0.000000 -0.044206 0.999022
-0.374561 0.253601 0.390646 103 18 63 0.000000 -0.044206 0.999022
-0.395176 0.160907 0.396894 103 18 63 -1.000000 0.000000 0.000000
-0.346087 0.196321 0.402179 103 18 63 1.000000 0.000000 0.000000
-0.372907 0.180265 0.387400 103 18 63 0.000000 -0.044206 0.999022
-0.346087 0.246955 0.395203 103 18 63 -1.000000 0.000000 0.000000
-0.363915 0.132291 0.385277 103 18 63 0.000000 -0.044206 0.999022
-0.346087 0.150535 0.416832 103 18 63 1.000000 0.000000 0.000000
-0.362787 0.075916 0.417909 103 18 63 0.000000 -0.049004 0.998799
-0.357805 0.063746 0.417312 103 18 63 0.000000 -0.049004 0.998799
-0.346087 0.181278 0.416817 103 18 63 1.000000 0.000000 0.000000
-0.381102 0.211776 0.388795 103 18 63 0.000000 0.044206 -0.999022
-0.346087 0.137391 0.394705 103 18 63 1.000000 0.000000 0.000000
-0.349345 0.181247 0.387443 103 18 63 0.000000 0.044206 -0.999022
-0.395176 0.189493 0.392365 103 18 63 -1.000000 0.000000 0.000000
-0.385924 0.265679 0.391180 103 18 63 0.000000 0.044206 -0.999022
-0.346087 0.067994 0.387103 103 18 63 1.000000 0.000000 0.000000
-0.361127 0.159017 0.421986 103 18 63 0.000000 -0.049004 0.998799
-0.348103 0.141125 0.421108 103 18 63 0.000000 -0.049004 0.998799
-0.395176 0.065283 0.399786 103 18 63 -1.000000 0.000000 0.000000
-0.346087 0.218796 0.405660 103 18 63 1.000000 0.000000 0.000000
-0.348842 0.126631 0.420397 103 18 63 0.000000 -0.049004 0.998799
-0.349331 0.089196 0.418560 103 18 63 0.000000 -0.049004 0.998799
-0.346087 0.167698 0.406765 103 18 63 1.000000 0.000000 0.000000
-0.346087 0.235466 0.413234 103 18 63 1.000000 0.000000 0.000000
-0.351917 0.099582 0.419070 103 18 63 0.000000 -0.049004 0.998799
-0.359180 0.145899 0.421342 103 18 63 0.000000 -0.049004 0.998799
-0.382071 0.092424 0.383514 103 18 63 0.000000 -0.044206 0.999022
-0.395176 0.175967 0.397798 103 18 63 -1.000000 0.000000 0.000000
-0.395176 0.161519 0.410370 103 18 63 -1.000000 0.000000 0.000000
-0.395176 0.190138 0.415740 103 18 63 -1.000000 0.000000 0.000000
-0.346087 0.158614 0.394032 103 18 63 1.000000 0.000000 0.000000
-0.347472 0.254626 0.426677 103 18 63 0.000000 -0.049004 0.998799
-0.346087 0.186007 0.396658 103 18 63 1.000000 0.000000 0.000000
-0.371914 0.098284 0.419006 103 18 63 0.000000 -0.049004 0.998799
-0.395176 0.261991 0.393144 103 18 63 1.000000 0.000000 0.000000
-0.346087 0.244081 0.404526 103 18 63 1.000000 0.000000 0.000000
-0.358904 0.261730 0.391005 103 18 63 0.000000 -0.044206 0.999022
-0.346087 0.226845 0.391013 103 18 63 -1.000000 0.000000 0.000000
-0.346087 0.136965 0.406877 103 18 63 1.000000 0.000000 0.000000
-0.384102 0.182205 0.423123 103 18 63 0.000000 -0.049004 0.998799
-0.346087 0.150497 0.421085 103 18 63 1.000000 0.000000 0.000000
-0.351445 0.272060 0.427532 23 176 60 0.000000 -0.049004 0.998799
-0.375670 0.362100 0.431949 23 176 60 0.000000 -0.049004 0.998799
-0.375608 0.308290 0.393065 23 176 60 0.000000 0.044206 -0.999022
-0.395176 0.320326 0.419529 23 176 60 -1.000000 0.000000 0.000000
-0.393252 0.461028 0.436804 23 176 60 0.000000 -0.049004 0.998799
-0.380940 0.460508 0.436778 23 176 60 0.000000 -0.049004 0.998799
-0.393492 0.472416 0.400328 23 176 60 0.000000 0.044206 -0.999022
-0.377615 0.344059 0.394648 23 176 60 0.000000 0.044206 -0.999022
-0.357786 0.368319 0.432255 23 176 60 0.000000 -0.049004 0.998799
-0.366105 0.459743 0.436741 23 176 60 0.000000 -0.049004 0.998799
-0.346087 0.469278 0.418478 23 176 60 1.000000 0.000000 0.000000
-0.356936 0.475598 0.437518 23 176 60 0.000000 -0.049004 0.998799
-0.395017 0.394906 0.433560 23 176 60 0.000000 -0.049004 0.998799
-0.395176 0.312002 0.408364 23 176 60 -1.000000 0.000000 0.000000
-0.394652 0.394313 0.433531 23 176 60 0.000000 -0.049004 0.998799
-0.346087 0.275082 0.413069 23 176 60 1.000000 0.000000 0.000000
-0.380687 0.446933 0.436112 23 176 60 0.000000 -0.049004 0.998799
-0.395176 0.290638 0.425410 23 176 60 -1.000000 0.000000 0.000000
-0.346087 0.422802 0.399239 23 176 60 1.000000 0.000000 0.000000
-0.346087 0.360111 0.400645 23 176 60 1.000000 0.000000 0.000000
-0.395176 0.407487 0.416298 23 176 60 -1.000000 0.000000 0.000000
-0.368973 0.427315 0.435150 23 176 60 0.000000 -0.049004 0.998799
-0.346087 0.432355 0.404986 23 176 60 1.000000 0.000000 0.000000
-0.388853 0.441262 0.398950 23 176 60 0.000000 0.044206 -0.999022
-0.346087 0.353066 0.398507 23 176 60 -1.000000 0.000000 0.000000
-0.359217 0.371027 0.395841 23 176 60 0.000000 0.044206 -0.999022
-0.360172 0.348821 0.394859 23 176 60 0.000000 0.044206 -0.999022
-0.395176 0.386792 0.428971 23 176 60 -1.000000 0.000000 0.000000
-0.346087 0.331421 0.418544 23 176 60 1.000000 0.000000 0.000000
-0.392011 0.384720 0.396447 23 176 60 0.000000 -0.044206 0.999022
-0.346087 0.387658 0.407169 23 176 60 1.000000 0.000000 0.000000
-0.346087 0.306283 0.394022 23 176 60 1.000000 0.000000 0.000000
-0.395176 0.300751 0.415652 23 176 60 -1.000000 0.000000 0.000000
-0.395176 0.293459 0.398955 23 176 60 -1.000000 0.000000 0.000000
-0.367499 0.419520 0.434767 23 176 60 0.000000 -0.049004 0.998799
-0.395176 0.468938 0.402382 23 176 60 1.000000 0.000000 0.000000
-0.374309 0.299916 0.392695 23 176 60 0.000000 0.044206 -0.999022
-0.395176 0.389590 0.398688 23 176 60 -1.000000 0.000000 0.000000
-0.346087 0.415945 0.402505 23 176 60 1.000000 0.000000 0.000000
-0.395176 0.277524 0.413842 23 176 60 -1.000000 0.000000 0.000000
-0.395176 0.381003 0.425981 23 176 60 -1.000000 0.000000 0.000000
-0.346087 0.463119 0.411094 23 176 60 1.000000 0.000000 0.000000
-0.355703 0.364890 0.395570 23 176 60 0.000000 -0.044206 0.999022
-0.395176 0.480805 0.425907 23 176 60 -1.000000 0.000000 0.000000
-0.346087 0.361192 0.403569 23 176 60 1.000000 0.000000 0.000000
-0.395176 0.457279 0.435765 23 176 60 -1.000000 0.000000 0.000000
-0.369492 0.386625 0.433154 23 176 60 0.000000 -0.049004 0.998799
-0.346087 0.442126 0.432631 23 176 60 1.000000 0.000000 0.000000
-0.346087 0.290402 0.410694 23 176 60 1.000000 0.000000 0.000000
-0.350262 0.460391 0.399796 23 176 60 0.000000 0.044206 -0.999022
-0.372999 0.307266 0.393020 23 176 60 0.000000 0.044206 -0.999022
-0.395176 0.280157 0.416018 23 176 60 -1.000000 0.000000 0.000000
-0.346087 0.432143 0.427753 23 176 60 1.000000 0.000000 0.000000
-0.387106 0.430095 0.435286 23 176 60 0.000000 -0.049004 0.998799
-0.392884 0.316283 0.393419 23 176 60 0.000000 0.044206 -0.999022
-0.373288 0.396153 0.396953 23 176 60 0.000000 0.044206 -0.999022
-0.346087 0.295297 0.393650 23 176 60 1.000000 0.000000 0.000000
-0.346087 0.275340 0.413539 23 176 60 1.000000 0.000000 0.000000
-0.375641 0.460824 0.399815 23 176 60 0.000000 -0.044206 0.999022
-0.393001 0.312439 0.429513 23 176 60 0.000000 -0.049004 0.998799
-0.385018 0.393954 0.396856 23 176 60 0.000000 -0.044206 0.999022
-0.387839 0.429425 0.435253 23 176 60 0.000000 -0.049004 0.998799
-0.356804 0.448279 0.399260 23 176 60 0.000000 -0.044206 0.999022
-0.353301 0.441033 0.435823 23 176 60 0.000000 -0.049004 0.998799
-0.346087 0.394063 0.428017 23 176 60 1.000000 0.000000 0.000000
-0.395176 0.468005 0.430025 23 176 60 -1.000000 0.000000 0.000000
-0.346087 0.423269 0.408844 23 176 60 1.000000 0.000000 0.000000
-0.395176 0.359733 0.405158 23 176 60 1.000000 0.000000 0.000000
-0.346087 0.418195 0.414155 23 176 60 -1.000000 0.000000 0.000000
-0.395176 0.287302 0.420245 23 176 60 -1.000000 0.000000 0.000000
-0.363258 0.471554 0.437320 23 176 60 0.000000 -0.049004 0.998799
-0.395176 0.413224 0.430180 23 176 60 -1.000000 0.000000 0.000000
-0.350413 0.299430 0.392673 23 176 60 0.000000 0.044206 -0.999022
-0.380799 0.272114 0.427535 23 176 60 0.000000 -0.049004 0.998799
-0.378707 0.347821 0.431249 23 176 60 0.000000 -0.049004 0.998799
-0.395176 0.454235 0.411242 23 176 60 -1.000000 0.000000 0.000000
-0.363402 0.318918 0.429831 23 176 60 0.000000 -0.049004 0.998799
-0.365827 0.358212 0.395274 23 176 60 0.000000 -0.044206 0.999022
-0.387152 0.323957 0.430078 23 176 60 0.000000 -0.049004 0.998799
-0.378362 0.409020 0.434252 23 176 60 0.000000 -0.049004 0.998799
-0.395176 0.312208 0.395102 23 176 60 1.000000 0.000000 0.000000
-0.377860 0.376393 0.396079 23 176 60 0.000000 0.044206 -0.999022
-0.393761 0.479141 0.400626 23 176 60 0.000000 -0.044206 0.999022
-0.395176 0.432511 0.410073 23 176 60 -1.000000 0.000000 0.000000
-0.354742 0.344766 0.431099 23 176 60 0.000000 -0.049004 0.998799
-0.359574 0.340241 0.430877 23 176 60 0.000000 -0.049004 0.998799
-0.395176 0.329859 0.395913 23 176 60 1.000000 0.000000 0.000000
-0.349359 0.413220 0.397709 23 176 60 0.000000 0.044206 -0.999022
-0.395176 0.369234 0.398632 23 176 60 -1.000000 0.000000 0.000000
-0.395176 0.293339 0.416893 23 176 60 -1.000000 0.000000 0.000000
-0.384302 0.307126 0.429253 23 176 60 0.000000 -0.049004 0.998799
-0.370380 0.281966 0.391901 23 176 60 0.000000 -0.044206 0.999022
-0.346087 0.273603 0.418892 23 176 60 1.000000 0.000000 0.000000
-0.376461 0.425282 0.398243 23 176 60 0.000000 -0.044206 0.999022
-0.394423 0.453998 0.436459 23 176 60 0.000000 -0.049004 0.998799
-0.386825 0.413811 0.397735 23 176 60 0.000000 0.044206 -0.999022
-0.365289 0.433217 0.435439 23 176 60 0.000000 -0.049004 0.998799
-0.356862 0.290589 0.392282 23 176 60 0.000000 -0.044206 0.999022
-0.395176 0.334093 0.398213 23 176 60 -1.000000 0.000000 0.000000
-0.365775 0.315129 0.393368 23 176 60 0.000000 -0.044206 0.999022
-0.395176 0.313119 0.419385 23 176 60 -1.000000 0.000000 0.000000
-0.395176 0.325605 0.421425 23 176 60 -1.000000 0.000000 0.000000
-0.393363 0.275414 0.427697 23 176 60 0.000000 -0.049004 0.998799
-0.381800 0.398847 0.433753 23 176 60 0.000000 -0.049004 0.998799
-0.349728 0.390650 0.396709 23 176 60 0.000000 -0.044206 0.999022
-0.348705 0.445894 0.436061 23 176 60 0.000000 -0.049004 0.998799
-0.346087 0.362690 0.428707 23 176 60 1.000000 0.000000 0.000000
-0.376103 0.386196 0.396512 23 176 60 0.000000 0.044206 -0.999022
-0.395176 0.423666 0.407081 23 176 60 -1.000000 0.000000 0.000000
-0.365531 0.323857 0.393754 23 176 60 0.000000 -0.044206 0.999022
-0.367399 0.333774 0.394193 23 176 60 0.000000 0.044206 -0.999022
-0.346087 0.458714 0.409551 23 176 60 -1.000000 0.000000 0.000000
-0.370835 0.465811 0.437038 23 176 60 0.000000 -0.049004 0.998799
-0.352394 0.430868 0.435324 23 176 60 0.000000 -0.049004 0.998799
-0.366907 0.341941 0.394554 23 176 60 0.000000 0.044206 -0.999022
-0.352479 0.362193 0.431954 23 176 60 0.000000 -0.049004 0.998799
-0.395176 0.288105 0.399371 23 176 60 1.000000 0.000000 0.000000
-0.358312 0.406140 0.397396 23 176 60 0.000000 -0.044206 0.999022
-0.350250 0.471396 0.437312 23 176 60 0.000000 -0.049004 0.998799
-0.346087 0.371084 0.414364 23 176 60 1.000000 0.000000 0.000000
-0.395176 0.470730 0.415268 23 176 60 -1.000000 0.000000 0.000000
-0.346087 0.324389 0.420779 23 176 60 1.000000 0.000000 0.000000
-0.362477 0.283680 0.391976 23 176 60 0.000000 -0.044206 0.999022
-0.351711 0.468852 0.400170 23 176 60 0.000000 0.044206 -0.999022
-0.365257 0.309155 0.429352 23 176 60 0.000000 -0.049004 0.998799
-0.346087 0.277798 0.421699 23 176 60 1.000000 0.000000 0.000000
-0.395176 0.304865 0.399653 23 176 60 1.000000 0.000000 0.000000
-0.395176 0.478007 0.408815 23 176 60 -1.000000 0.000000 0.000000
-0.395176 0.273628 0.422020 23 176 60 -1.000000 0.000000 0.000000
-0.357162 0.356037 0.395178 23 176 60 0.000000 -0.044206 0.999022
-0.395176 0.323739 0.428636 23 176 60 -1.000000 0.000000 0.000000
-0.373106 0.451245 0.436324 23 176 60 0.000000 -0.049004 0.998799
-0.364501 0.307659 0.393037 23 176 60 0.000000 -0.044206 0.999022
-0.393738 0.392169 0.433426 23 176 60 0.000000 -0.049004 0.998799
-0.346087 0.608465 0.409996 165 224 42 1.000000 0.000000 0.000000
-0.346087 0.536260 0.428321 165 224 42 1.000000 0.000000 0.000000
-0.390563 0.580150 0.442648 165 224 42 0.000000 -0.049004 0.998799
-0.346087 0.527743 0.432179 165 224 42 1.000000 0.000000 0.000000
-0.390669 0.619587 0.444583 165 224 42 0.000000 -0.049004 0.998799
-0.346087 0.627489 0.431508 165 224 42 -1.000000 0.000000 0.000000
-0.357051 0.569086 0.442106 165 224 42 0.000000 -0.049004 0.998799
-0.346087 0.687091 0.438222 165 224 42 1.000000 0.000000 0.000000
-0.366895 0.539691 0.403305 165 224 42 0.000000 -0.044206 0.999022
-0.392613 0.640125 0.407749 165 224 42 0.000000 0.044206 -0.999022
-0.346087 0.547999 0.429358 165 224 42 1.000000 0.000000 0.000000
-0.354102 0.525111 0.439947 165 224 42 0.000000 -0.049004 0.998799
-0.395176 0.676268 0.414234 165 224 42 1.000000 0.000000 0.000000
-0.346087 0.608743 0.420796 165 224 42 -1.000000 0.000000 0.000000
-0.346087 0.676486 0.421012 165 224 42 -1.000000 0.000000 0.000000
-0.393165 0.592718 0.443265 165 224 42 0.000000 -0.049004 0.998799
-0.395176 0.595836 0.437517 165 224 42 -1.000000 0.000000 0.000000
-0.372145 0.504214 0.438922 165 224 42 0.000000 -0.049004 0.998799
-0.356950 0.674256 0.409259 165 224 42 0.000000 -0.044206 0.999022
-0.395176 0.509485 0.410452 165 224 42 1.000000 0.000000 0.000000
-0.346087 0.670869 0.433338 165 224 42 -1.000000 0.000000 0.000000
-0.375651 0.536455 0.403161 165 224 42 0.000000 0.044206 -0.999022
-0.346087 0.631586 0.412924 165 224 42 1.000000 0.000000 0.000000
-0.350437 0.503882 0.438906 165 224 42 0.000000 -0.049004 0.998799
-0.364186 0.616045 0.444409 165 224 42 0.000000 -0.049004 0.998799
-0.392402 0.615825 0.444398 165 224 42 0.000000 -0.049004 0.998799
-0.346087 0.540305 0.406950 165 224 42 1.000000 0.000000 0.000000
-0.356367 0.644967 0.407963 165 224 42 0.000000 -0.044206 0.999022
-0.369857 0.510455 0.439228 165 224 42 0.000000 -0.049004 0.998799
-0.373016 0.668904 0.409023 165 224 42 0.000000 -0.044206 0.999022
-0.391776 0.615603 0.444388 165 224 42 0.000000 -0.049004 0.998799
-0.349603 0.577240 0.442506 165 224 42 0.000000 -0.049004 0.998799
-0.346087 0.527904 0.416820 165 224 42 1.000000 0.000000 0.000000
-0.393870 0.617338 0.444473 165 224 42 0.000000 -0.049004 0.998799
-0.360709 0.626031 0.407126 165 224 42 0.000000 -0.044206 0.999022
-0.395176 0.667576 0.432334 165 224 42 1.000000 0.000000 0.000000
-0.346087 0.612472 0.442139 165 224 42 1.000000 0.000000 0.000000
-0.360575 0.610460 0.444135 165 224 42 0.000000 -0.049004 0.998799
-0.395176 0.567254 0.415429 165 224 42 -1.000000 0.000000 0.000000
-0.367872 0.494372 0.401299 165 224 42 0.000000 -0.044206 0.999022
-0.395176 0.633956 0.431678 165 224 42 -1.000000 0.000000 0.000000
-0.364392 0.630783 0.407336 165 224 42 0.000000 0.044206 -0.999022
-0.395176 0.619033 0.424070 165 224 42 1.000000 0.000000 0.000000
-0.388621 0.618977 0.444553 165 224 42 0.000000 -0.049004 0.998799
-0.346087 0.680933 0.422595 165 224 42 1.000000 0.000000 0.000000
-0.377538 0.648744 0.408131 165 224 42 0.000000 0.044206 -0.999022
-0.346087 0.499687 0.431550 165 224 42 1.000000 0.000000 0.000000
-0.382664 0.686739 0.447877 165 224 42 0.000000 -0.049004 0.998799
-0.367445 0.541738 0.403395 165 224 42 0.000000 -0.044206 0.999022
-0.395176 0.581041 0.423503 165 224 42 1.000000 0.000000 0.000000
-0.370960 0.507436 0.401877 165 224 42 0.000000 -0.044206 0.999022
-0.374152 0.513172 0.439362 165 224 42 0.000000 -0.049004 0.998799
-0.346087 0.609247 0.421119 165 224 42 -1.000000 0.000000 0.000000
-0.395176 0.683541 0.434251 165 224 42 -1.000000 0.000000 0.000000
-0.357965 0.626693 0.444932 165 224 42 0.000000 -0.049004 0.998799
-0.391413 0.514129 0.439409 165 224 42 0.000000 -0.049004 0.998799
-0.346087 0.599575 0.426440 165 224 42 -1.000000 0.000000 0.000000
-0.384259 0.686646 0.409807 165 224 42 0.000000 0.044206 -0.999022
