ply
format ascii 1.0
element vertex 714
property float x
property float y
property float z
property uchar red
property uchar green
property uchar blue
property float nx
property float ny
property float nz
end_header
0.072280 -0.107032 -0.043714 166 160 6 0.000000 1.000000 0.000000
0.332734 -0.234600 -0.208104 166 160 6 0.000000 -1.000000 0.000000
0.103566 -0.234600 -0.288915 166 160 6 0.000000 -1.000000 0.000000
0.262235 -0.234600 -0.245770 166 160 6 0.000000 -1.000000 0.000000
0.363880 -0.107032 -0.269229 166 160 6 0.000000 1.000000 0.000000
0.450173 -0.234600 -0.425710 166 160 6 0.000000 1.000000 0.000000
0.243695 -0.234600 -0.258120 166 160 6 0.000000 -1.000000 0.000000
0.564952 -0.107032 -0.080127 166 160 6 0.000000 1.000000 0.000000
0.453003 -0.234600 -0.485841 166 160 6 0.000000 -1.000000 0.000000
0.133428 -0.234600 -0.461413 166 160 6 0.000000 -1.000000 0.000000
0.574049 -0.240857 -0.432699 166 160 6 1.000000 0.000000 0.000000
0.585039 -0.234600 -0.499347 166 160 6 0.000000 -1.000000 0.000000
0.348153 -0.107032 -0.440270 166 160 6 0.000000 1.000000 0.000000
0.587309 -0.123423 -0.460118 166 160 6 0.707115 0.707098 0.000000
0.565097 -0.107032 -0.115810 166 160 6 0.000000 1.000000 0.000000
0.387185 -0.107032 -0.471805 166 160 6 0.000000 1.000000 0.000000
0.300047 -0.107032 -0.072681 166 160 6 0.000000 1.000000 0.000000
0.139453 -0.107032 -0.330412 166 160 6 0.000000 1.000000 0.000000
0.181416 -0.234600 -0.206251 166 160 6 0.000000 -1.000000 0.000000
0.206894 -0.107032 -0.097916 166 160 6 0.000000 1.000000 0.000000
0.016951 -0.168086 -0.523671 166 160 6 0.000000 0.000000 -1.000000
0.376868 -0.107032 -0.188748 166 160 6 0.000000 1.000000 0.000000
0.058553 -0.107032 -0.150196 166 160 6 0.000000 1.000000 0.000000
0.082183 -0.107032 -0.368182 166 160 6 0.000000 1.000000 0.000000
0.481505 -0.234600 -0.384472 166 160 6 0.000000 -1.000000 0.000000
0.162959 -0.137844 -0.513081 166 160 6 0.000000 0.707073 -0.707141
0.132818 -0.156675 -0.523671 166 160 6 0.000000 0.000000 -1.000000
0.516501 -0.107032 -0.328167 166 160 6 0.000000 1.000000 0.000000
0.214624 -0.234600 -0.288555 166 160 6 0.000000 -1.000000 0.000000
0.148766 -0.234600 -0.385337 166 160 6 0.000000 -1.000000 0.000000
0.134606 -0.234600 -0.145096 166 160 6 0.000000 -1.000000 0.000000
0.534541 -0.107032 -0.070680 166 160 6 0.000000 1.000000 0.000000
0.138148 -0.234600 -0.513737 166 160 6 0.000000 -1.000000 0.000000
0.506525 -0.141939 -0.517175 166 160 6 0.000000 0.707073 -0.707141
0.563551 -0.234600 -0.149892 166 160 6 0.000000 -1.000000 0.000000
0.034677 -0.107032 -0.255936 166 160 6 0.000000 1.000000 0.000000
0.229608 -0.234600 -0.482078 166 160 6 0.000000 -1.000000 0.000000
0.429034 -0.234600 -0.429098 166 160 6 0.000000 -1.000000 0.000000
0.219038 -0.107032 -0.095135 166 160 6 0.000000 1.000000 0.000000
0.612320 -0.187914 -0.117983 166 160 6 1.000000 0.000000 0.000000
0.376784 -0.234600 -0.435603 166 160 6 0.000000 -1.000000 0.000000
0.152766 -0.107032 -0.481954 166 160 6 0.000000 1.000000 0.000000
0.229756 -0.234600 -0.356484 166 160 6 0.000000 -1.000000 0.000000
0.099818 -0.234600 -0.092781 166 160 6 0.000000 -1.000000 0.000000
0.336568 -0.234600 -0.086440 166 160 6 0.000000 -1.000000 0.000000
0.370625 -0.234600 -0.259105 166 160 6 0.000000 -1.000000 0.000000
0.604946 -0.234600 -0.424101 166 160 6 0.000000 -1.000000 0.000000
0.296004 -0.234600 -0.404965 166 160 6 0.000000 -1.000000 0.000000
0.128054 -0.234600 -0.225160 166 160 6 0.000000 -1.000000 0.000000
0.260491 -0.234600 -0.075284 166 160 6 0.000000 -1.000000 0.000000
0.015153 -0.107032 -0.131645 166 160 6 0.000000 1.000000 0.000000
0.109125 -0.234600 -0.113997 166 160 6 0.000000 -1.000000 0.000000
0.511134 -0.168881 -0.523671 166 160 6 0.000000 0.000000 -1.000000
0.487553 -0.107032 -0.264422 166 160 6 0.000000 1.000000 0.000000
0.541118 -0.234600 -0.450413 166 160 6 0.000000 1.000000 0.000000
0.149964 -0.234600 -0.386534 166 160 6 0.000000 -1.000000 0.000000
0.110560 -0.234600 -0.186211 166 160 6 0.000000 -1.000000 0.000000
0.612320 -0.176282 -0.173229 166 160 6 1.000000 0.000000 0.000000
0.212630 -0.107032 -0.441390 166 160 6 0.000000 1.000000 0.000000
0.190619 -0.107032 -0.409134 166 160 6 0.000000 1.000000 0.000000
0.241963 -0.234600 -0.217898 166 160 6 0.000000 -1.000000 0.000000
0.442050 -0.234600 -0.386034 166 160 6 0.000000 -1.000000 0.000000
0.612278 -0.234600 -0.311030 166 160 6 0.000000 -1.000000 0.000000
0.020496 -0.234600 -0.084105 166 160 6 0.000000 -1.000000 0.000000
0.612320 -0.219252 -0.199460 166 160 6 1.000000 0.000000 0.000000
0.612320 -0.224612 -0.249398 166 160 6 1.000000 0.000000 0.000000
0.006795 -0.234600 -0.278481 166 160 6 0.000000 -1.000000 0.000000
0.069789 -0.234600 -0.435385 166 160 6 0.000000 -1.000000 0.000000
0.337906 -0.113527 -0.488766 166 160 6 0.000000 0.707073 -0.707141
0.440529 -0.107032 -0.466035 166 160 6 0.000000 1.000000 0.000000
0.403260 -0.107032 -0.451685 166 160 6 0.000000 1.000000 0.000000
0.181907 -0.234600 -0.390098 166 160 6 0.000000 -1.000000 0.000000
0.522391 -0.234600 -0.475264 166 160 6 0.000000 1.000000 0.000000
0.477610 -0.173506 -0.523671 166 160 6 0.000000 0.000000 -1.000000
0.414862 -0.234600 -0.492589 166 160 6 0.000000 -1.000000 0.000000
0.304450 -0.234600 -0.125795 166 160 6 0.000000 -1.000000 0.000000
0.612320 -0.171284 -0.114429 166 160 6 1.000000 0.000000 0.000000
0.566130 -0.234600 -0.242954 166 160 6 0.000000 -1.000000 0.000000
0.167274 -0.234600 -0.336679 166 160 6 0.000000 -1.000000 0.000000
0.218392 -0.234600 -0.479986 166 160 6 0.000000 -1.000000 0.000000
0.612320 -0.183810 -0.444155 166 160 6 1.000000 0.000000 0.000000
0.334539 -0.107032 -0.217539 166 160 6 0.000000 1.000000 0.000000
0.597175 -0.234600 -0.360840 166 160 6 0.000000 -1.000000 0.000000
0.486036 -0.107032 -0.134885 166 160 6 0.000000 1.000000 0.000000
0.612320 -0.212396 -0.135264 166 160 6 1.000000 0.000000 0.000000
0.270238 -0.234600 -0.213966 166 160 6 0.000000 -1.000000 0.000000
0.483112 -0.234600 -0.438422 166 160 6 0.000000 -1.000000 0.000000
0.255009 -0.107032 -0.362676 166 160 6 0.000000 1.000000 0.000000
0.540037 -0.234600 -0.216493 166 160 6 0.000000 -1.000000 0.000000
0.582556 -0.234600 -0.062275 166 160 6 0.000000 -1.000000 0.000000
0.524854 -0.137867 -0.513104 166 160 6 0.000000 0.707073 -0.707141
0.259799 -0.234600 -0.479415 166 160 6 0.000000 -1.000000 0.000000
0.612320 -0.224206 -0.518858 166 160 6 1.000000 0.000000 0.000000
0.368766 -0.107032 -0.060984 166 160 6 0.000000 1.000000 0.000000
0.327358 -0.107032 -0.231571 166 160 6 0.000000 1.000000 0.000000
0.065828 -0.234600 -0.357010 166 160 6 0.000000 -1.000000 0.000000
0.100610 -0.107032 -0.046073 166 160 6 0.000000 1.000000 0.000000
0.468141 -0.234600 -0.192054 166 160 6 0.000000 -1.000000 0.000000
0.033499 -0.107032 -0.293752 166 160 6 0.000000 1.000000 0.000000
0.226074 -0.234600 -0.315572 166 160 6 0.000000 -1.000000 0.000000
0.612320 -0.223172 -0.140320 166 160 6 1.000000 0.000000 0.000000
0.436533 -0.107032 -0.099898 166 160 6 0.000000 1.000000 0.000000
0.413851 -0.107032 -0.160508 166 160 6 0.000000 1.000000 0.000000
0.370361 -0.234600 -0.410129 166 160 6 0.000000 -1.000000 0.000000
0.317007 -0.107032 -0.448557 166 160 6 0.000000 1.000000 0.000000
0.007358 -0.107032 -0.207428 166 160 6 0.000000 1.000000 0.000000
0.589366 -0.125481 -0.404477 166 160 6 0.707115 0.707098 0.000000
0.232008 -0.234600 -0.202483 166 160 6 0.000000 -1.000000 0.000000
0.049867 -0.234600 -0.023566 166 160 6 0.000000 -1.000000 0.000000
0.042034 -0.107032 -0.435409 166 160 6 0.000000 1.000000 0.000000
0.223545 -0.107032 -0.450511 166 160 6 0.000000 1.000000 0.000000
0.381323 -0.111685 -0.486925 166 160 6 0.000000 0.707073 -0.707141
0.103263 -0.107032 -0.266374 166 160 6 0.000000 1.000000 0.000000
0.094621 -0.234600 -0.277736 166 160 6 0.000000 -1.000000 0.000000
0.122919 -0.107032 -0.231265 166 160 6 0.000000 1.000000 0.000000
0.394186 -0.107032 -0.092342 166 160 6 0.000000 1.000000 0.000000
0.399827 -0.234600 -0.016464 166 160 6 0.000000 -1.000000 0.000000
0.513949 -0.234600 -0.294253 166 160 6 0.000000 -1.000000 0.000000
0.008683 -0.107032 -0.406024 166 160 6 0.000000 1.000000 0.000000
0.145154 -0.107032 -0.084924 166 160 6 0.000000 1.000000 0.000000
0.404562 -0.234052 -0.523671 166 160 6 0.000000 0.000000 -1.000000
0.125282 -0.234600 -0.459673 166 160 6 0.000000 -1.000000 0.000000
0.488336 -0.107032 -0.323843 166 160 6 0.000000 1.000000 0.000000
0.557125 -0.107032 -0.064643 166 160 6 0.000000 1.000000 0.000000
0.461238 -0.107032 -0.148729 166 160 6 0.000000 1.000000 0.000000
0.183411 -0.234600 -0.183327 166 160 6 0.000000 -1.000000 0.000000
0.571763 -0.107877 -0.257096 166 160 6 0.707115 0.707098 0.000000
0.168369 -0.234600 -0.134190 166 160 6 0.000000 -1.000000 0.000000
0.612320 -0.222049 -0.109808 166 160 6 1.000000 0.000000 0.000000
0.077292 -0.234600 -0.501700 166 160 6 0.000000 -1.000000 0.000000
0.177323 -0.234600 -0.083933 166 160 6 0.000000 -1.000000 0.000000
0.146019 -0.234600 -0.222102 166 160 6 0.000000 -1.000000 0.000000
0.523090 -0.146217 -0.521454 166 160 6 0.000000 0.707073 -0.707141
0.078065 -0.234600 -0.444130 166 160 6 0.000000 -1.000000 0.000000
0.304766 -0.136510 -0.511747 166 160 6 0.000000 0.707073 -0.707141
0.585181 -0.121295 -0.372309 166 160 6 0.707115 0.707098 0.000000
0.281099 -0.137667 -0.512904 166 160 6 0.000000 0.707073 -0.707141
0.554177 -0.234600 -0.100551 166 160 6 0.000000 -1.000000 0.000000
0.013944 -0.152939 -0.523671 166 160 6 0.000000 0.000000 -1.000000
0.236509 -0.107032 -0.276728 166 160 6 0.000000 1.000000 0.000000
0.483033 -0.234600 -0.318441 166 160 6 0.000000 -1.000000 0.000000
0.094214 -0.107032 -0.094366 166 160 6 0.000000 1.000000 0.000000
0.408788 -0.234600 -0.338953 166 160 6 0.000000 -1.000000 0.000000
0.522889 -0.234600 -0.384549 166 160 6 0.000000 -1.000000 0.000000
0.350034 -0.234600 -0.061711 166 160 6 0.000000 -1.000000 0.000000
0.582343 -0.118457 -0.317303 166 160 6 0.707115 0.707098 0.000000
0.612320 -0.178783 -0.335285 166 160 6 1.000000 0.000000 0.000000
0.487516 -0.234600 -0.268684 166 160 6 0.000000 -1.000000 0.000000
0.612320 -0.151841 -0.345937 166 160 6 1.000000 0.000000 0.000000
0.503384 -0.107032 -0.196332 166 160 6 0.000000 1.000000 0.000000
0.539055 -0.107032 -0.281873 166 160 6 0.000000 1.000000 0.000000
0.128706 -0.234600 -0.489925 166 160 6 0.000000 -1.000000 0.000000
0.465181 -0.234600 -0.077745 166 160 6 0.000000 -1.000000 0.000000
0.324240 -0.234600 -0.076753 166 160 6 0.000000 -1.000000 0.000000
0.281207 -0.107032 -0.216140 166 160 6 0.000000 1.000000 0.000000
0.405904 -0.234600 -0.037592 166 160 6 0.000000 -1.000000 0.000000
0.586291 -0.234600 -0.219455 166 160 6 0.000000 -1.000000 0.000000
0.306504 -0.234600 -0.310250 166 160 6 0.000000 -1.000000 0.000000
0.473745 -0.234600 -0.149076 166 160 6 0.000000 -1.000000 0.000000
0.610895 -0.234600 -0.091843 166 160 6 0.000000 -1.000000 0.000000
0.164364 -0.107032 -0.074948 166 160 6 0.000000 1.000000 0.000000
0.362711 -0.234600 -0.332148 166 160 6 0.000000 -1.000000 0.000000
0.056583 -0.234600 -0.053105 166 160 6 0.000000 -1.000000 0.000000
0.088361 -0.107032 -0.339417 166 160 6 0.000000 1.000000 0.000000
0.163373 -0.107032 -0.094332 166 160 6 0.000000 1.000000 0.000000
0.029632 -0.205909 -0.523671 166 160 6 0.000000 0.000000 -1.000000
0.347256 -0.234600 -0.232056 166 160 6 0.000000 -1.000000 0.000000
0.382845 -0.234600 -0.327088 166 160 6 0.000000 -1.000000 0.000000
0.612320 -0.187951 -0.063358 166 160 6 1.000000 0.000000 0.000000
0.037735 -0.234600 -0.225919 166 160 6 0.000000 -1.000000 0.000000
0.554562 -0.107032 -0.251737 166 160 6 0.000000 1.000000 0.000000
0.364219 -0.234600 -0.441810 166 160 6 0.000000 -1.000000 0.000000
0.461585 -0.107032 -0.289314 166 160 6 0.000000 1.000000 0.000000
0.480183 -0.107032 -0.334560 166 160 6 0.000000 1.000000 0.000000
0.501351 -0.234600 -0.440366 166 160 6 0.000000 -1.000000 0.000000
0.130710 -0.107032 -0.472723 166 160 6 0.000000 1.000000 0.000000
0.384308 -0.234600 -0.472143 166 160 6 0.000000 -1.000000 0.000000
0.206684 -0.107032 -0.312360 166 160 6 0.000000 1.000000 0.000000
0.597748 -0.133863 -0.088034 166 160 6 0.707115 0.707098 0.000000
0.526259 -0.107032 -0.110612 166 160 6 0.000000 1.000000 0.000000
0.009065 -0.107032 -0.288987 166 160 6 0.000000 1.000000 0.000000
0.395184 -0.234600 -0.311712 166 160 6 0.000000 -1.000000 0.000000
0.465941 -0.107032 -0.206699 166 160 6 0.000000 1.000000 0.000000
0.407863 -0.107032 -0.140187 166 160 6 0.000000 1.000000 0.000000
0.420108 -0.117408 -0.492647 166 160 6 0.000000 0.707073 -0.707141
0.337293 -0.234600 -0.325547 166 160 6 0.000000 -1.000000 0.000000
0.612320 -0.222564 -0.147689 166 160 6 1.000000 0.000000 0.000000
0.504429 -0.107032 -0.141438 166 160 6 0.000000 1.000000 0.000000
0.446482 -0.107032 -0.277084 166 160 6 0.000000 1.000000 0.000000
0.478557 -0.234600 -0.384423 166 160 6 0.000000 -1.000000 0.000000
0.388852 -0.107032 -0.480741 166 160 6 0.000000 1.000000 0.000000
0.315858 -0.107032 -0.334790 166 160 6 0.000000 1.000000 0.000000
0.605037 -0.141152 -0.504694 166 160 6 0.707115 0.707098 0.000000
0.560339 -0.107032 -0.270095 166 160 6 0.000000 1.000000 0.000000
0.203713 -0.107032 -0.269352 166 160 6 0.000000 1.000000 0.000000
0.592969 -0.129084 -0.182195 166 160 6 0.707115 0.707098 0.000000
0.287758 -0.234600 -0.307842 166 160 6 0.000000 -1.000000 0.000000
0.016229 -0.113923 -0.489163 166 160 6 0.000000 0.707073 -0.707141
0.323162 -0.234600 -0.413908 166 160 6 0.000000 -1.000000 0.000000
0.235676 -0.234600 -0.014364 166 160 6 0.000000 -1.000000 0.000000
0.429541 -0.107032 -0.042978 166 160 6 0.000000 1.000000 0.000000
0.164162 -0.107032 -0.311657 166 160 6 0.000000 1.000000 0.000000
0.016484 -0.107032 -0.104313 166 160 6 0.000000 1.000000 0.000000
0.168419 -0.234600 -0.103722 166 160 6 0.000000 -1.000000 0.000000
0.350749 -0.117366 -0.492605 166 160 6 0.000000 0.707073 -0.707141
0.535370 -0.107032 -0.142835 166 160 6 0.000000 1.000000 0.000000
0.411758 -0.234600 -0.065418 166 160 6 0.000000 -1.000000 0.000000
0.369519 -0.107032 -0.273730 166 160 6 0.000000 1.000000 0.000000
0.542197 -0.107032 -0.174233 166 160 6 0.000000 1.000000 0.000000
0.303577 -0.107032 -0.218157 166 160 6 0.000000 1.000000 0.000000
0.477111 -0.234600 -0.241099 166 160 6 0.000000 -1.000000 0.000000
0.352081 -0.234600 -0.267444 166 160 6 0.000000 -1.000000 0.000000
0.041819 -0.107032 -0.193710 166 160 6 0.000000 1.000000 0.000000
0.227040 -0.107032 -0.154897 166 160 6 0.000000 1.000000 0.000000
0.345449 -0.107032 -0.421360 166 160 6 0.000000 1.000000 0.000000
0.153849 -0.165699 -0.523671 166 160 6 0.000000 0.000000 -1.000000
0.448519 -0.234600 -0.497046 166 160 6 0.000000 -1.000000 0.000000
0.488720 -0.234600 -0.205736 166 160 6 0.000000 -1.000000 0.000000
0.142939 -0.234600 -0.377209 166 160 6 0.000000 -1.000000 0.000000
0.248267 -0.107032 -0.136284 166 160 6 0.000000 1.000000 0.000000
0.026196 -0.107032 -0.442492 166 160 6 0.000000 1.000000 0.000000
0.388558 -0.234600 -0.069311 166 160 6 0.000000 -1.000000 0.000000
0.612320 -0.152685 -0.498316 166 160 6 1.000000 0.000000 0.000000
0.370531 -0.234600 -0.409104 166 160 6 0.000000 -1.000000 0.000000
0.612320 -0.170312 -0.411675 166 160 6 1.000000 0.000000 0.000000
0.344615 -0.234600 -0.082277 166 160 6 0.000000 -1.000000 0.000000
0.336460 -0.234600 -0.210105 166 160 6 0.000000 -1.000000 0.000000
0.115603 -0.107032 -0.479925 166 160 6 0.000000 1.000000 0.000000
0.081153 -0.234600 -0.435808 166 160 6 0.000000 -1.000000 0.000000
0.070618 -0.107032 -0.029254 166 160 6 0.000000 1.000000 0.000000
0.077905 -0.234600 -0.486834 166 160 6 0.000000 -1.000000 0.000000
0.165115 -0.107032 -0.327543 166 160 6 0.000000 1.000000 0.000000
0.486328 -0.234600 -0.455942 166 160 6 0.000000 -1.000000 0.000000
0.050185 -0.234600 -0.326361 166 160 6 0.000000 -1.000000 0.000000
0.612320 -0.217674 -0.447841 166 160 6 1.000000 0.000000 0.000000
0.231416 -0.107032 -0.180980 166 160 6 0.000000 1.000000 0.000000
0.265362 -0.234600 -0.215863 166 160 6 0.000000 -1.000000 0.000000
0.442678 -0.234600 -0.413721 166 160 6 0.000000 -1.000000 0.000000
0.075274 -0.234600 -0.200620 166 160 6 0.000000 -1.000000 0.000000
0.372731 -0.107032 -0.209170 166 160 6 0.000000 1.000000 0.000000
0.239083 -0.107032 -0.106433 166 160 6 0.000000 1.000000 0.000000
0.612320 -0.162611 -0.408222 166 160 6 1.000000 0.000000 0.000000
0.200627 -0.234600 -0.305362 166 160 6 0.000000 -1.000000 0.000000
0.105754 -0.107032 -0.383196 166 160 6 0.000000 1.000000 0.000000
0.245439 -0.107032 -0.398827 166 160 6 0.000000 1.000000 0.000000
0.441860 -0.234600 -0.437140 166 160 6 0.000000 1.000000 0.000000
0.539822 -0.234600 -0.501863 166 160 6 0.000000 -1.000000 0.000000
0.577386 -0.234600 -0.482361 166 160 6 0.000000 -1.000000 0.000000
0.508241 -0.107032 -0.441824 166 160 6 0.000000 1.000000 0.000000
0.010251 -0.234600 -0.337027 166 160 6 0.000000 -1.000000 0.000000
0.059591 -0.234600 -0.232905 166 160 6 0.000000 -1.000000 0.000000
0.345365 -0.107032 -0.029080 166 160 6 0.000000 1.000000 0.000000
0.378356 -0.107032 -0.448737 166 160 6 0.000000 1.000000 0.000000
0.222004 -0.234600 -0.378876 166 160 6 0.000000 -1.000000 0.000000
0.280260 -0.234600 -0.040312 166 160 6 0.000000 -1.000000 0.000000
0.054778 -0.107032 -0.313784 166 160 6 0.000000 1.000000 0.000000
0.513610 -0.107032 -0.308767 166 160 6 0.000000 1.000000 0.000000
0.029619 -0.234600 -0.424485 166 160 6 0.000000 -1.000000 0.000000
0.575072 -0.111186 -0.143419 166 160 6 0.707115 0.707098 0.000000
0.401715 -0.107032 -0.048163 166 160 6 0.000000 1.000000 0.000000
0.513128 -0.107032 -0.325252 166 160 6 0.000000 1.000000 0.000000
0.025380 -0.107032 -0.312357 166 160 6 0.000000 1.000000 0.000000
0.151377 -0.234600 -0.067891 166 160 6 0.000000 -1.000000 0.000000
0.077873 -0.107032 -0.395930 166 160 6 0.000000 1.000000 0.000000
0.513411 -0.107032 -0.358107 166 160 6 0.000000 1.000000 0.000000
0.473709 -0.234600 -0.388978 166 160 6 0.000000 -1.000000 0.000000
0.262716 -0.234600 -0.463737 166 160 6 0.000000 -1.000000 0.000000
0.399319 -0.234600 -0.453959 166 160 6 0.000000 -1.000000 0.000000
0.061327 -0.234600 -0.175230 166 160 6 0.000000 -1.000000 0.000000
0.303023 -0.175289 -0.523671 166 160 6 0.000000 0.000000 -1.000000
0.302127 -0.234600 -0.034213 166 160 6 0.000000 -1.000000 0.000000
0.317669 -0.234600 -0.028567 166 160 6 0.000000 -1.000000 0.000000
0.123030 -0.234600 -0.520731 166 160 6 0.000000 -1.000000 0.000000
0.549547 -0.234600 -0.378491 166 160 6 0.000000 1.000000 0.000000
0.321823 -0.119336 -0.494575 166 160 6 0.000000 0.707073 -0.707141
0.360717 -0.234600 -0.513405 166 160 6 0.000000 -1.000000 0.000000
0.449850 -0.107032 -0.370045 166 160 6 0.000000 1.000000 0.000000
0.435697 -0.202521 -0.523671 166 160 6 0.000000 0.000000 -1.000000
0.586567 -0.225052 -0.523671 166 160 6 0.000000 0.000000 -1.000000
0.492722 -0.115989 -0.491228 166 160 6 0.000000 0.707073 -0.707141
0.208597 -0.234600 -0.290979 166 160 6 0.000000 -1.000000 0.000000
0.362262 -0.234600 -0.407739 166 160 6 0.000000 -1.000000 0.000000
0.612320 -0.173114 -0.261080 166 160 6 1.000000 0.000000 0.000000
0.205969 -0.107032 -0.080998 166 160 6 0.000000 1.000000 0.000000
0.248834 -0.234600 -0.249024 166 160 6 0.000000 -1.000000 0.000000
0.181883 -0.199924 -0.523671 166 160 6 0.000000 0.000000 -1.000000
0.345034 -0.107032 -0.263953 166 160 6 0.000000 1.000000 0.000000
0.084275 -0.234600 -0.447545 166 160 6 0.000000 -1.000000 0.000000
0.307413 -0.210474 -0.523671 166 160 6 0.000000 0.000000 -1.000000
0.551654 -0.234600 -0.168258 166 160 6 0.000000 -1.000000 0.000000
0.500409 -0.234600 -0.173898 166 160 6 0.000000 -1.000000 0.000000
0.196602 -0.234600 -0.280833 166 160 6 0.000000 -1.000000 0.000000
0.469481 -0.234600 -0.299553 166 160 6 0.000000 -1.000000 0.000000
0.249296 -0.234600 -0.522525 166 160 6 0.000000 -1.000000 0.000000
0.229567 -0.234600 -0.227520 166 160 6 0.000000 -1.000000 0.000000
0.042350 -0.107032 -0.099815 166 160 6 0.000000 1.000000 0.000000
0.395520 -0.234600 -0.175206 166 160 6 0.000000 -1.000000 0.000000
0.408348 -0.234600 -0.457556 166 160 6 0.000000 -1.000000 0.000000
0.033823 -0.107032 -0.237211 166 160 6 0.000000 1.000000 0.000000
0.510657 -0.107032 -0.257589 166 160 6 0.000000 1.000000 0.000000
0.597932 -0.134047 -0.192606 166 160 6 0.707115 0.707098 0.000000
0.226705 -0.107032 -0.084705 166 160 6 0.000000 1.000000 0.000000
0.468848 -0.234600 -0.094710 166 160 6 0.000000 -1.000000 0.000000
0.003693 -0.234600 -0.163184 166 160 6 0.000000 -1.000000 0.000000
0.087950 -0.107032 -0.167109 166 160 6 0.000000 1.000000 0.000000
0.428299 -0.107032 -0.056817 166 160 6 0.000000 1.000000 0.000000
0.240894 -0.207953 -0.523671 166 160 6 0.000000 0.000000 -1.000000
0.014025 -0.234600 -0.198003 166 160 6 0.000000 -1.000000 0.000000
0.509989 -0.234600 -0.419379 166 160 6 0.000000 -1.000000 0.000000
0.132552 -0.107032 -0.321079 166 160 6 0.000000 1.000000 0.000000
0.465655 -0.107032 -0.044326 166 160 6 0.000000 1.000000 0.000000
0.178074 -0.234600 -0.395819 166 160 6 0.000000 -1.000000 0.000000
0.160900 -0.107032 -0.328882 166 160 6 0.000000 1.000000 0.000000
0.043561 -0.149560 -0.523671 166 160 6 0.000000 0.000000 -1.000000
0.390813 -0.234600 -0.114607 166 160 6 0.000000 -1.000000 0.000000
0.316335 -0.234600 -0.368284 166 160 6 0.000000 -1.000000 0.000000
0.319154 -0.234600 -0.272587 166 160 6 0.000000 -1.000000 0.000000
0.038671 -0.107032 -0.364826 166 160 6 0.000000 1.000000 0.000000
0.427067 -0.107032 -0.391393 166 160 6 0.000000 1.000000 0.000000
0.239741 -0.134811 -0.510048 166 160 6 0.000000 0.707073 -0.707141
0.115246 -0.107032 -0.414466 166 160 6 0.000000 1.000000 0.000000
0.612320 -0.199454 -0.381348 166 160 6 1.000000 0.000000 0.000000
0.539589 -0.234600 -0.500795 166 160 6 0.000000 -1.000000 0.000000
0.319897 -0.107032 -0.268822 166 160 6 0.000000 1.000000 0.000000
0.389886 -0.234600 -0.488051 166 160 6 0.000000 -1.000000 0.000000
0.584855 -0.234600 -0.243533 166 160 6 0.000000 -1.000000 0.000000
0.587493 -0.123607 -0.064210 166 160 6 0.707115 0.707098 0.000000
0.042063 -0.175212 -0.523671 166 160 6 0.000000 0.000000 -1.000000
0.500192 -0.234600 -0.381183 166 160 6 0.000000 -1.000000 0.000000
0.122514 -0.107032 -0.372108 166 160 6 0.000000 1.000000 0.000000
0.414090 -0.234600 -0.373434 166 160 6 0.000000 -1.000000 0.000000
0.581890 -0.127102 -0.502341 166 160 6 0.000000 0.707073 -0.707141
0.109789 -0.107032 -0.301909 166 160 6 0.000000 1.000000 0.000000
0.375690 -0.107032 -0.192817 166 160 6 0.000000 1.000000 0.000000
0.108951 -0.107032 -0.273603 166 160 6 0.000000 1.000000 0.000000
0.033378 -0.107032 -0.230754 166 160 6 0.000000 1.000000 0.000000
0.152329 -0.234600 -0.362630 166 160 6 0.000000 -1.000000 0.000000
0.402575 -0.107032 -0.202447 166 160 6 0.000000 1.000000 0.000000
0.093486 -0.179033 -0.523671 166 160 6 0.000000 0.000000 -1.000000
0.068877 -0.234600 -0.162798 166 160 6 0.000000 -1.000000 0.000000
0.520788 -0.110642 -0.485881 166 160 6 0.000000 0.707073 -0.707141
0.460963 -0.234600 -0.192225 166 160 6 0.000000 -1.000000 0.000000
0.539076 -0.234600 -0.446755 166 160 6 0.000000 1.000000 0.000000
0.459451 -0.107032 -0.086668 166 160 6 0.000000 1.000000 0.000000
0.597721 -0.133836 -0.111738 166 160 6 0.707115 0.707098 0.000000
0.396369 -0.107032 -0.084040 166 160 6 0.000000 1.000000 0.000000
0.446769 -0.234600 -0.178068 166 160 6 0.000000 -1.000000 0.000000
0.612320 -0.227879 -0.287854 166 160 6 1.000000 0.000000 0.000000
0.320307 -0.234600 -0.037333 166 160 6 0.000000 -1.000000 0.000000
0.464068 -0.244035 -0.370592 166 160 6 0.000000 0.000000 1.000000
0.186470 -0.234600 -0.025773 166 160 6 0.000000 -1.000000 0.000000
0.476426 -0.107032 -0.434175 166 160 6 0.000000 1.000000 0.000000
0.438709 -0.234600 -0.215276 166 160 6 0.000000 -1.000000 0.000000
0.509210 -0.234600 -0.427747 166 160 6 0.000000 1.000000 0.000000
0.554541 -0.234600 -0.495994 166 160 6 0.000000 1.000000 0.000000
0.315243 -0.217674 -0.523671 166 160 6 0.000000 0.000000 -1.000000
0.033736 -0.107032 -0.460686 166 160 6 0.000000 1.000000 0.000000
0.612320 -0.216013 -0.133208 166 160 6 1.000000 0.000000 0.000000
0.261615 -0.107032 -0.024431 166 160 6 0.000000 1.000000 0.000000
0.159999 -0.234600 -0.148813 166 160 6 0.000000 -1.000000 0.000000
0.431730 -0.234600 -0.521249 166 160 6 0.000000 -1.000000 0.000000
0.298732 -0.129935 -0.505172 166 160 6 0.000000 0.707073 -0.707141
0.141644 -0.107032 -0.339339 166 160 6 0.000000 1.000000 0.000000
0.043703 -0.234600 -0.290199 166 160 6 0.000000 -1.000000 0.000000
0.574049 -0.238066 -0.442424 166 160 6 1.000000 0.000000 0.000000
0.190328 -0.234600 -0.424801 166 160 6 0.000000 -1.000000 0.000000
0.359561 -0.234600 -0.320136 166 160 6 0.000000 -1.000000 0.000000
0.450639 -0.107032 -0.324865 166 160 6 0.000000 1.000000 0.000000
0.109698 -0.107032 -0.248557 166 160 6 0.000000 1.000000 0.000000
0.388992 -0.107032 -0.440407 166 160 6 0.000000 1.000000 0.000000
0.200367 -0.234600 -0.247214 166 160 6 0.000000 -1.000000 0.000000
0.548791 -0.234600 -0.476537 166 160 6 0.000000 -1.000000 0.000000
0.444036 -0.234600 -0.022710 166 160 6 0.000000 -1.000000 0.000000
0.422938 -0.234600 -0.114609 166 160 6 0.000000 -1.000000 0.000000
0.496337 -0.107032 -0.261132 166 160 6 0.000000 1.000000 0.000000
0.552032 -0.107032 -0.135674 166 160 6 0.000000 1.000000 0.000000
0.564350 -0.234600 -0.394358 166 160 6 0.000000 -1.000000 0.000000
0.205608 -0.190622 -0.523671 166 160 6 0.000000 0.000000 -1.000000
0.272857 -0.107032 -0.096186 166 160 6 0.000000 1.000000 0.000000
0.185586 -0.234600 -0.212825 166 160 6 0.000000 -1.000000 0.000000
0.451631 -0.234600 -0.430935 166 160 6 0.000000 1.000000 0.000000
0.391645 -0.107032 -0.147548 166 160 6 0.000000 1.000000 0.000000
0.020566 -0.107032 -0.073028 166 160 6 0.000000 1.000000 0.000000
0.612320 -0.155548 -0.047515 166 160 6 1.000000 0.000000 0.000000
0.108989 -0.234600 -0.128139 166 160 6 0.000000 -1.000000 0.000000
0.453940 -0.234600 -0.283608 166 160 6 0.000000 -1.000000 0.000000
0.349155 -0.107032 -0.167014 166 160 6 0.000000 1.000000 0.000000
0.239786 -0.107032 -0.023538 166 160 6 0.000000 1.000000 0.000000
0.103824 -0.234600 -0.335182 166 160 6 0.000000 -1.000000 0.000000
0.538678 -0.107032 -0.206127 166 160 6 0.000000 1.000000 0.000000
0.167289 -0.234600 -0.190800 166 160 6 0.000000 -1.000000 0.000000
0.370058 -0.107032 -0.075461 166 160 6 0.000000 1.000000 0.000000
0.117751 -0.234600 -0.078656 166 160 6 0.000000 -1.000000 0.000000
0.612320 -0.216368 -0.389233 166 160 6 1.000000 0.000000 0.000000
0.188733 -0.234600 -0.452828 166 160 6 0.000000 -1.000000 0.000000
0.367818 -0.107032 -0.421350 166 160 6 0.000000 1.000000 0.000000
0.487183 -0.107032 -0.162251 166 160 6 0.000000 1.000000 0.000000
0.252905 -0.234600 -0.049537 166 160 6 0.000000 -1.000000 0.000000
0.280564 -0.234600 -0.374754 166 160 6 0.000000 -1.000000 0.000000
0.198641 -0.161038 -0.523671 166 160 6 0.000000 0.000000 -1.000000
0.202796 -0.107032 -0.415246 166 160 6 0.000000 1.000000 0.000000
0.492716 -0.234600 -0.379090 166 160 6 0.000000 1.000000 0.000000
0.414705 -0.107032 -0.468065 166 160 6 0.000000 1.000000 0.000000
0.353278 -0.202568 -0.523671 166 160 6 0.000000 0.000000 -1.000000
0.574049 -0.247307 -0.394960 166 160 6 1.000000 0.000000 0.000000
0.567189 -0.234600 -0.355753 166 160 6 0.000000 -1.000000 0.000000
0.004516 -0.107032 -0.274755 166 160 6 0.000000 1.000000 0.000000
0.032637 -0.107032 -0.380555 166 160 6 0.000000 1.000000 0.000000
0.063946 -0.107032 -0.420149 166 160 6 0.000000 1.000000 0.000000
0.473932 -0.234600 -0.491459 166 160 6 0.000000 1.000000 0.000000
0.162400 -0.178962 -0.523671 166 160 6 0.000000 0.000000 -1.000000
0.355106 -0.234600 -0.099943 166 160 6 0.000000 -1.000000 0.000000
0.335446 -0.107032 -0.153489 166 160 6 0.000000 1.000000 0.000000
0.313496 -0.234600 -0.109207 166 160 6 0.000000 -1.000000 0.000000
0.142263 -0.234600 -0.160599 166 160 6 0.000000 -1.000000 0.000000
0.005960 -0.157742 -0.523671 166 160 6 0.000000 0.000000 -1.000000
0.612320 -0.177358 -0.482277 166 160 6 1.000000 0.000000 0.000000
0.005681 -0.234600 -0.292185 166 160 6 0.000000 -1.000000 0.000000
0.283177 -0.107032 -0.316691 166 160 6 0.000000 1.000000 0.000000
0.338729 -0.234600 -0.295453 166 160 6 0.000000 -1.000000 0.000000
0.612320 -0.184840 -0.378855 166 160 6 1.000000 0.000000 0.000000
0.612320 -0.155964 -0.380815 166 160 6 1.000000 0.000000 0.000000
0.376531 -0.107032 -0.323131 166 160 6 0.000000 1.000000 0.000000
0.430745 -0.234600 -0.351937 166 160 6 0.000000 -1.000000 0.000000
0.575882 -0.234600 -0.155951 166 160 6 0.000000 -1.000000 0.000000
0.004957 -0.107032 -0.425712 166 160 6 0.000000 1.000000 0.000000
0.573019 -0.234600 -0.106362 166 160 6 0.000000 -1.000000 0.000000
0.174089 -0.234600 -0.412601 166 160 6 0.000000 -1.000000 0.000000
0.021321 -0.107032 -0.412787 166 160 6 0.000000 1.000000 0.000000
0.272551 -0.107032 -0.063237 166 160 6 0.000000 1.000000 0.000000
0.517412 -0.107032 -0.256640 166 160 6 0.000000 1.000000 0.000000
0.197556 -0.234600 -0.468253 166 160 6 0.000000 -1.000000 0.000000
0.540862 -0.107032 -0.390590 166 160 6 0.000000 1.000000 0.000000
0.612320 -0.212647 -0.375600 166 160 6 1.000000 0.000000 0.000000
0.305941 -0.107032 -0.031137 166 160 6 0.000000 1.000000 0.000000
0.217918 -0.107032 -0.293183 166 160 6 0.000000 1.000000 0.000000
0.183173 -0.122291 -0.497530 166 160 6 0.000000 0.707073 -0.707141
0.548170 -0.107032 -0.463906 166 160 6 0.000000 1.000000 0.000000
0.232084 -0.234600 -0.250595 166 160 6 0.000000 -1.000000 0.000000
0.452621 -0.107032 -0.388908 166 160 6 0.000000 1.000000 0.000000
0.471357 -0.107032 -0.427389 166 160 6 0.000000 1.000000 0.000000
0.249521 -0.234600 -0.281378 166 160 6 0.000000 -1.000000 0.000000
0.224169 -0.107032 -0.354280 166 160 6 0.000000 1.000000 0.000000
0.341322 -0.107032 -0.414829 166 160 6 0.000000 1.000000 0.000000
0.333211 -0.234600 -0.013726 166 160 6 0.000000 -1.000000 0.000000
0.070353 -0.234600 -0.135196 166 160 6 0.000000 -1.000000 0.000000
0.559224 -0.234600 -0.519861 166 160 6 0.000000 -1.000000 0.000000
0.252561 -0.234600 -0.488633 166 160 6 0.000000 -1.000000 0.000000
0.058831 -0.234600 -0.232463 166 160 6 0.000000 -1.000000 0.000000
0.035757 -0.234600 -0.054416 166 160 6 0.000000 -1.000000 0.000000
0.431666 -0.107032 -0.456028 166 160 6 0.000000 1.000000 0.000000
0.031548 -0.107032 -0.048255 166 160 6 0.000000 1.000000 0.000000
0.467890 -0.107032 -0.363659 166 160 6 0.000000 1.000000 0.000000
0.477559 -0.234600 -0.446426 166 160 6 0.000000 1.000000 0.000000
0.493131 -0.107032 -0.421281 166 160 6 0.000000 1.000000 0.000000
0.221940 -0.234600 -0.047717 166 160 6 0.000000 -1.000000 0.000000
0.523901 -0.198458 -0.523671 166 160 6 0.000000 0.000000 -1.000000
0.017429 -0.107032 -0.329051 166 160 6 0.000000 1.000000 0.000000
0.463630 -0.107032 -0.063074 166 160 6 0.000000 1.000000 0.000000
0.612320 -0.191808 -0.431214 166 160 6 1.000000 0.000000 0.000000
0.612320 -0.221892 -0.362194 166 160 6 1.000000 0.000000 0.000000
0.433727 -0.235860 -0.478224 166 160 6 -1.000000 0.000000 0.000000
0.536876 -0.107032 -0.177444 166 160 6 0.000000 1.000000 0.000000
0.433644 -0.234600 -0.321382 166 160 6 0.000000 -1.000000 0.000000
0.513001 -0.234600 -0.481121 166 160 6 0.000000 -1.000000 0.000000
0.280119 -0.234600 -0.065431 166 160 6 0.000000 -1.000000 0.000000
0.474172 -0.234600 -0.394274 166 160 6 0.000000 1.000000 0.000000
0.000254 -0.107032 -0.451788 166 160 6 0.000000 1.000000 0.000000
0.137282 -0.234600 -0.038498 166 160 6 0.000000 -1.000000 0.000000
0.065346 -0.107032 -0.115476 166 160 6 0.000000 1.000000 0.000000
0.007714 -0.107032 -0.167841 166 160 6 0.000000 1.000000 0.000000
0.203092 -0.107032 -0.266392 166 160 6 0.000000 1.000000 0.000000
0.011796 -0.234600 -0.099722 166 160 6 0.000000 -1.000000 0.000000
0.413993 -0.234600 -0.491873 166 160 6 0.000000 -1.000000 0.000000
0.349648 -0.107032 -0.480064 166 160 6 0.000000 1.000000 0.000000
0.488658 -0.122123 -0.497362 166 160 6 0.000000 0.707073 -0.707141
0.307386 -0.234600 0.296529 169 235 234 0.000000 -1.000000 0.000000
0.121338 -0.213467 0.496863 169 235 234 0.000000 0.000000 1.000000
0.369256 -0.107032 0.139466 169 235 234 0.000000 1.000000 0.000000
0.535776 -0.107032 0.248438 169 235 234 0.000000 1.000000 0.000000
0.219418 -0.107032 0.258218 169 235 234 0.000000 1.000000 0.000000
0.311450 -0.234600 0.062419 169 235 234 0.000000 -1.000000 0.000000
0.494072 -0.234600 0.391889 169 235 234 0.000000 -1.000000 0.000000
0.463276 -0.234600 0.373710 169 235 234 0.000000 -1.000000 0.000000
0.318324 -0.107032 0.396408 169 235 234 0.000000 1.000000 0.000000
0.578944 -0.234600 0.080856 169 235 234 0.000000 -1.000000 0.000000
0.055742 -0.107032 -0.006270 169 235 234 0.000000 1.000000 0.000000
0.574118 -0.234600 0.254869 169 235 234 0.000000 -1.000000 0.000000
0.430271 -0.107032 0.277520 169 235 234 0.000000 1.000000 0.000000
0.343267 -0.234600 0.354320 169 235 234 0.000000 -1.000000 0.000000
0.505120 -0.234600 0.286485 169 235 234 0.000000 -1.000000 0.000000
0.044729 -0.234600 0.310761 169 235 234 0.000000 -1.000000 0.000000
0.409948 -0.234600 0.131446 169 235 234 0.000000 -1.000000 0.000000
0.590919 -0.127034 0.325545 169 235 234 0.707115 0.707098 0.000000
0.433727 -0.238027 0.372427 169 235 234 -1.000000 0.000000 0.000000
0.171874 -0.234600 0.481066 169 235 234 0.000000 -1.000000 0.000000
0.328040 -0.234600 0.392527 169 235 234 0.000000 -1.000000 0.000000
0.288354 -0.234600 0.455564 169 235 234 0.000000 -1.000000 0.000000
0.599949 -0.136063 0.392229 169 235 234 0.707115 0.707098 0.000000
0.582564 -0.118679 0.395341 169 235 234 0.707115 0.707098 0.000000
0.332700 -0.234600 0.326798 169 235 234 0.000000 -1.000000 0.000000
0.576874 -0.112989 0.025659 169 235 234 0.707115 0.707098 0.000000
0.312421 -0.234600 0.398620 169 235 234 0.000000 -1.000000 0.000000
0.016474 -0.107032 0.277429 169 235 234 0.000000 1.000000 0.000000
0.460332 -0.107032 0.417806 169 235 234 0.000000 1.000000 0.000000
0.245531 -0.107032 0.364287 169 235 234 0.000000 1.000000 0.000000
0.590508 -0.126622 0.333152 169 235 234 0.707115 0.707098 0.000000
0.461261 -0.107032 0.033766 169 235 234 0.000000 1.000000 0.000000
0.453475 -0.234600 0.377280 169 235 234 0.000000 1.000000 0.000000
0.172159 -0.234600 0.217768 169 235 234 0.000000 -1.000000 0.000000
0.291085 -0.234600 0.231367 169 235 234 0.000000 -1.000000 0.000000
0.464701 -0.234600 0.444427 169 235 234 0.000000 -1.000000 0.000000
0.007855 -0.234600 0.296552 169 235 234 0.000000 -1.000000 0.000000
0.469293 -0.234600 0.132432 169 235 234 0.000000 -1.000000 0.000000
0.050819 -0.234600 0.070527 169 235 234 0.000000 -1.000000 0.000000
0.573583 -0.234600 0.409782 169 235 234 0.000000 1.000000 0.000000
0.317947 -0.107032 0.357978 169 235 234 0.000000 1.000000 0.000000
0.089691 -0.107032 0.395063 169 235 234 0.000000 1.000000 0.000000
0.118177 -0.234600 0.171203 169 235 234 0.000000 -1.000000 0.000000
0.336107 -0.107032 0.012025 169 235 234 0.000000 1.000000 0.000000
0.289238 -0.234600 0.329571 169 235 234 0.000000 -1.000000 0.000000
0.429928 -0.234600 0.309694 169 235 234 0.000000 -1.000000 0.000000
0.469373 -0.107032 0.069753 169 235 234 0.000000 1.000000 0.000000
0.500695 -0.107032 0.423620 169 235 234 0.000000 1.000000 0.000000
0.395639 -0.234600 0.026516 169 235 234 0.000000 -1.000000 0.000000
0.058149 -0.107032 0.122942 169 235 234 0.000000 1.000000 0.000000
0.270259 -0.107032 0.411592 169 235 234 0.000000 1.000000 0.000000
0.435345 -0.234600 0.379535 169 235 234 0.000000 -1.000000 0.000000
0.169101 -0.107032 0.411661 169 235 234 0.000000 1.000000 0.000000
0.406559 -0.107032 0.417970 169 235 234 0.000000 1.000000 0.000000
0.612320 -0.193664 0.164952 169 235 234 1.000000 0.000000 0.000000
0.321782 -0.234600 0.422457 169 235 234 0.000000 -1.000000 0.000000
0.612320 -0.158913 0.335655 169 235 234 1.000000 0.000000 0.000000
0.587599 -0.234600 0.096813 169 235 234 0.000000 -1.000000 0.000000
0.153538 -0.107032 0.326109 169 235 234 0.000000 1.000000 0.000000
0.066334 -0.234600 0.358996 169 235 234 0.000000 -1.000000 0.000000
0.321808 -0.234600 0.122972 169 235 234 0.000000 -1.000000 0.000000
0.064978 -0.234600 0.005517 169 235 234 0.000000 -1.000000 0.000000
0.570939 -0.107053 0.072554 169 235 234 0.707115 0.707098 0.000000
0.397587 -0.234600 0.274690 169 235 234 0.000000 -1.000000 0.000000
0.025587 -0.173989 0.496863 169 235 234 0.000000 0.000000 1.000000
0.283172 -0.107032 0.175135 169 235 234 0.000000 1.000000 0.000000
0.238213 -0.107032 0.324196 169 235 234 0.000000 1.000000 0.000000
0.380631 -0.234600 0.243850 169 235 234 0.000000 -1.000000 0.000000
0.136861 -0.234600 0.137760 169 235 234 0.000000 -1.000000 0.000000
0.444747 -0.166935 0.496863 169 235 234 0.000000 0.000000 1.000000
0.172821 -0.234600 0.086995 169 235 234 0.000000 -1.000000 0.000000
0.097723 -0.107032 0.160476 169 235 234 0.000000 1.000000 0.000000
0.297998 -0.234600 0.183870 169 235 234 0.000000 -1.000000 0.000000
0.477641 -0.234600 0.457188 169 235 234 0.000000 1.000000 0.000000
0.118289 -0.107032 0.134644 169 235 234 0.000000 1.000000 0.000000
0.067447 -0.234600 0.489027 169 235 234 0.000000 -1.000000 0.000000
0.211525 -0.107032 0.225803 169 235 234 0.000000 1.000000 0.000000
0.460183 -0.234600 0.329788 169 235 234 0.000000 -1.000000 0.000000
0.277602 -0.234600 0.370313 169 235 234 0.000000 -1.000000 0.000000
0.143025 -0.234600 0.427506 169 235 234 0.000000 -1.000000 0.000000
0.145666 -0.107032 0.414618 169 235 234 0.000000 1.000000 0.000000
0.128535 -0.234600 0.142710 169 235 234 0.000000 -1.000000 0.000000
0.206254 -0.107032 0.287795 169 235 234 0.000000 1.000000 0.000000
0.570914 -0.107032 0.054089 169 235 234 0.000000 1.000000 0.000000
0.114855 -0.234600 0.322257 169 235 234 0.000000 -1.000000 0.000000
0.534567 -0.107032 -0.007261 169 235 234 0.000000 1.000000 0.000000
0.125171 -0.107032 0.294148 169 235 234 0.000000 1.000000 0.000000
0.476756 -0.107032 0.359785 169 235 234 0.000000 1.000000 0.000000
0.429124 -0.107032 -0.004538 169 235 234 0.000000 1.000000 0.000000
0.014165 -0.234600 0.381880 169 235 234 0.000000 -1.000000 0.000000
0.119572 -0.107032 0.377442 169 235 234 0.000000 1.000000 0.000000
0.534499 -0.234600 0.119948 169 235 234 0.000000 -1.000000 0.000000
0.588996 -0.234600 0.006609 169 235 234 0.000000 -1.000000 0.000000
0.293715 -0.107032 0.335268 169 235 234 0.000000 1.000000 0.000000
0.280212 -0.203548 0.496863 169 235 234 0.000000 0.000000 1.000000
0.467676 -0.234600 0.460136 169 235 234 0.000000 1.000000 0.000000
0.335990 -0.234600 0.242518 169 235 234 0.000000 -1.000000 0.000000
0.475759 -0.107032 0.223745 169 235 234 0.000000 1.000000 0.000000
0.415619 -0.234600 0.193153 169 235 234 0.000000 -1.000000 0.000000
0.078398 -0.234600 0.177611 169 235 234 0.000000 -1.000000 0.000000
0.587393 -0.123508 0.169134 169 235 234 0.707115 0.707098 0.000000
0.328230 -0.107032 0.255767 169 235 234 0.000000 1.000000 0.000000
0.412839 -0.234600 0.178741 169 235 234 0.000000 -1.000000 0.000000
0.536576 -0.226708 0.496863 169 235 234 0.000000 0.000000 1.000000
0.560851 -0.234600 0.370916 169 235 234 0.000000 -1.000000 0.000000
0.100382 -0.234600 0.182043 169 235 234 0.000000 -1.000000 0.000000
0.550021 -0.234600 0.433353 169 235 234 0.000000 -1.000000 0.000000
0.075874 -0.107032 0.219711 169 235 234 0.000000 1.000000 0.000000
0.292510 -0.107032 0.366334 169 235 234 0.000000 1.000000 0.000000
0.040447 -0.234600 0.363040 169 235 234 0.000000 -1.000000 0.000000
0.612320 -0.228377 0.389311 169 235 234 1.000000 0.000000 0.000000
0.137762 -0.234600 0.396529 169 235 234 0.000000 -1.000000 0.000000
0.542416 -0.234600 0.396383 169 235 234 0.000000 1.000000 0.000000
0.359484 -0.107032 0.381385 169 235 234 0.000000 1.000000 0.000000
0.206913 -0.202753 0.496863 169 235 234 0.000000 0.000000 1.000000
0.424034 -0.234600 0.331592 169 235 234 0.000000 -1.000000 0.000000
0.594710 -0.130825 0.238391 169 235 234 0.707115 0.707098 0.000000
0.111750 -0.107032 0.119528 169 235 234 0.000000 1.000000 0.000000
0.128219 -0.107032 0.278078 169 235 234 0.000000 1.000000 0.000000
0.184590 -0.234600 0.142548 169 235 234 0.000000 -1.000000 0.000000
0.338454 -0.234600 0.378078 169 235 234 0.000000 -1.000000 0.000000
0.471319 -0.234600 0.434619 169 235 234 0.000000 1.000000 0.000000
0.047725 -0.107032 0.039647 169 235 234 0.000000 1.000000 0.000000
0.341389 -0.234600 0.460621 169 235 234 0.000000 -1.000000 0.000000
0.491925 -0.107032 0.092199 169 235 234 0.000000 1.000000 0.000000
0.157179 -0.107032 0.406043 169 235 234 0.000000 1.000000 0.000000
0.168505 -0.234600 0.062537 169 235 234 0.000000 -1.000000 0.000000
0.534942 -0.234600 0.010063 169 235 234 0.000000 -1.000000 0.000000
0.347219 -0.107032 0.067075 169 235 234 0.000000 1.000000 0.000000
0.566972 -0.182843 0.496863 169 235 234 0.000000 0.000000 1.000000
0.021877 -0.107032 0.014397 169 235 234 0.000000 1.000000 0.000000
0.444293 -0.234600 0.402741 169 235 234 0.000000 -1.000000 0.000000
0.292371 -0.118293 0.466722 169 235 234 0.000000 0.707098 0.707115
0.298648 -0.234600 0.265164 169 235 234 0.000000 -1.000000 0.000000
0.356725 -0.234600 0.208693 169 235 234 0.000000 -1.000000 0.000000
0.119735 -0.107032 0.153317 169 235 234 0.000000 1.000000 0.000000
0.232389 -0.107032 0.139528 169 235 234 0.000000 1.000000 0.000000
0.314712 -0.234600 0.195764 169 235 234 0.000000 -1.000000 0.000000
0.113861 -0.234600 0.087897 169 235 234 0.000000 -1.000000 0.000000
0.457741 -0.234600 0.337253 169 235 234 0.000000 -1.000000 0.000000
0.199218 -0.234600 0.064996 169 235 234 0.000000 -1.000000 0.000000
0.438646 -0.107032 0.124804 169 235 234 0.000000 1.000000 0.000000
0.601890 -0.234600 0.494997 169 235 234 0.000000 -1.000000 0.000000
0.593565 -0.234600 0.054141 169 235 234 0.000000 -1.000000 0.000000
0.427577 -0.107032 0.057605 169 235 234 0.000000 1.000000 0.000000
0.095304 -0.107032 0.127475 169 235 234 0.000000 1.000000 0.000000
0.080178 -0.234600 0.195934 169 235 234 0.000000 -1.000000 0.000000
0.492948 -0.158833 0.496863 169 235 234 0.000000 0.000000 1.000000
0.092356 -0.144874 0.493302 169 235 234 0.000000 0.707098 0.707115
0.612320 -0.192271 0.063647 169 235 234 1.000000 0.000000 0.000000
0.492473 -0.107032 0.347671 169 235 234 0.000000 1.000000 0.000000
0.496611 -0.234600 0.056966 169 235 234 0.000000 -1.000000 0.000000
0.371948 -0.234600 0.416697 169 235 234 0.000000 -1.000000 0.000000
0.071460 -0.234600 0.162594 169 235 234 0.000000 -1.000000 0.000000
0.544879 -0.234600 0.183928 169 235 234 0.000000 -1.000000 0.000000
0.058011 -0.234600 0.351362 169 235 234 0.000000 -1.000000 0.000000
0.222185 -0.234600 0.292205 169 235 234 0.000000 -1.000000 0.000000
0.124119 -0.234600 0.016593 169 235 234 0.000000 -1.000000 0.000000
0.110196 -0.141212 0.489640 169 235 234 0.000000 0.707098 0.707115
0.585485 -0.234600 0.066629 169 235 234 0.000000 -1.000000 0.000000
0.287210 -0.234600 0.066701 169 235 234 0.000000 -1.000000 0.000000
0.010121 -0.107032 0.180446 169 235 234 0.000000 1.000000 0.000000
0.592428 -0.128542 0.437538 169 235 234 0.707115 0.707098 0.000000
0.559214 -0.234600 0.387848 169 235 234 0.000000 -1.000000 0.000000
0.255740 -0.107737 0.456166 169 235 234 0.000000 0.707098 0.707115
0.276660 -0.120685 0.469114 169 235 234 0.000000 0.707098 0.707115
0.054679 -0.107032 0.109289 169 235 234 0.000000 1.000000 0.000000
0.237579 -0.234600 0.496786 169 235 234 0.000000 -1.000000 0.000000
0.059982 -0.107032 0.037346 169 235 234 0.000000 1.000000 0.000000
0.612320 -0.217363 0.346761 169 235 234 1.000000 0.000000 0.000000
0.145194 -0.107032 0.065387 169 235 234 0.000000 1.000000 0.000000
0.488448 -0.111835 0.460264 169 235 234 0.000000 0.707098 0.707115
0.552751 -0.234600 0.391026 169 235 234 0.000000 1.000000 0.000000
0.314211 -0.231578 0.496863 169 235 234 0.000000 0.000000 1.000000
0.399268 -0.234600 0.224742 169 235 234 0.000000 -1.000000 0.000000
0.074072 -0.234600 0.247231 169 235 234 0.000000 -1.000000 0.000000
0.571923 -0.234600 0.071402 169 235 234 0.000000 -1.000000 0.000000
0.449812 -0.234600 0.000406 169 235 234 0.000000 -1.000000 0.000000
0.006911 -0.107032 0.321355 169 235 234 0.000000 1.000000 0.000000
0.489216 -0.234600 0.241207 169 235 234 0.000000 -1.000000 0.000000
0.470266 -0.234600 0.422540 169 235 234 0.000000 1.000000 0.000000
0.500414 -0.107032 0.106036 169 235 234 0.000000 1.000000 0.000000
0.438828 -0.234600 0.375975 169 235 234 0.000000 -1.000000 0.000000
0.598630 -0.234600 0.064542 169 235 234 0.000000 -1.000000 0.000000
0.612320 -0.204844 0.278591 169 235 234 1.000000 0.000000 0.000000
0.418743 -0.234600 0.496534 169 235 234 0.000000 -1.000000 0.000000
0.149802 -0.234600 0.470562 169 235 234 0.000000 -1.000000 0.000000
0.216100 -0.234600 0.441461 169 235 234 0.000000 -1.000000 0.000000
0.119963 -0.234600 -0.001495 169 235 234 0.000000 -1.000000 0.000000
0.477688 -0.196745 0.496863 169 235 234 0.000000 0.000000 1.000000
0.454411 -0.107032 0.020406 169 235 234 0.000000 1.000000 0.000000
0.382895 -0.107032 0.088575 169 235 234 0.000000 1.000000 0.000000
0.326691 -0.234600 0.219709 169 235 234 0.000000 -1.000000 0.000000
0.099842 -0.234600 0.099810 169 235 234 0.000000 -1.000000 0.000000
0.367455 -0.234600 0.132842 169 235 234 0.000000 -1.000000 0.000000
0.075145 -0.107032 0.439038 169 235 234 0.000000 1.000000 0.000000
0.463879 -0.234600 0.178420 169 235 234 0.000000 -1.000000 0.000000
0.229058 -0.142954 0.491382 169 235 234 0.000000 0.707098 0.707115
0.205741 -0.107032 0.078521 169 235 234 0.000000 1.000000 0.000000
0.353708 -0.218602 0.496863 169 235 234 0.000000 0.000000 1.000000
0.071836 -0.156833 0.496863 169 235 234 0.000000 0.000000 1.000000
0.577356 -0.113470 0.225688 169 235 234 0.707115 0.707098 0.000000
0.245172 -0.204542 0.496863 169 235 234 0.000000 0.000000 1.000000
0.523754 -0.234600 0.489417 169 235 234 0.000000 -1.000000 0.000000
0.612320 -0.229019 0.294644 169 235 234 1.000000 0.000000 0.000000
0.025788 -0.234600 0.345111 169 235 234 0.000000 -1.000000 0.000000
0.268132 -0.234600 0.101077 169 235 234 0.000000 -1.000000 0.000000
0.305291 -0.234600 0.036905 169 235 234 0.000000 -1.000000 0.000000
0.479860 -0.234600 0.390801 169 235 234 0.000000 -1.000000 0.000000
0.222035 -0.107032 0.264604 169 235 234 0.000000 1.000000 0.000000
0.543603 -0.107032 0.434617 169 235 234 0.000000 1.000000 0.000000
0.474073 -0.234600 0.297072 169 235 234 0.000000 -1.000000 0.000000
0.037781 -0.107032 0.447937 169 235 234 0.000000 1.000000 0.000000
0.430035 -0.234600 0.305390 169 235 234 0.000000 -1.000000 0.000000
0.612320 -0.162661 0.095998 169 235 234 1.000000 0.000000 0.000000
0.545715 -0.107032 0.188495 169 235 234 0.000000 1.000000 0.000000
0.469428 -0.143011 0.491439 169 235 234 0.000000 0.707098 0.707115
0.076991 -0.107032 0.064516 169 235 234 0.000000 1.000000 0.000000
0.612320 -0.221041 0.317819 169 235 234 1.000000 0.000000 0.000000
0.612320 -0.185559 0.199784 169 235 234 1.000000 0.000000 0.000000
0.353231 -0.234600 0.404792 169 235 234 0.000000 -1.000000 0.000000
0.098019 -0.149758 0.496863 169 235 234 0.000000 0.000000 1.000000
0.193209 -0.107032 -0.003303 169 235 234 0.000000 1.000000 0.000000
0.113401 -0.234600 0.263769 169 235 234 0.000000 -1.000000 0.000000
0.552486 -0.234600 0.363601 169 235 234 0.000000 -1.000000 0.000000
0.612320 -0.202773 0.305817 169 235 234 1.000000 0.000000 0.000000
0.002989 -0.234600 0.251151 169 235 234 0.000000 -1.000000 0.000000
0.141722 -0.234600 0.073745 169 235 234 0.000000 -1.000000 0.000000
0.185595 -0.234600 0.276302 169 235 234 0.000000 -1.000000 0.000000
0.320568 -0.234600 0.448552 169 235 234 0.000000 -1.000000 0.000000
0.514582 -0.107032 0.303466 169 235 234 0.000000 1.000000 0.000000
0.150222 -0.107032 0.206075 169 235 234 0.000000 1.000000 0.000000
0.345804 -0.158635 0.496863 169 235 234 0.000000 0.000000 1.000000
0.363955 -0.234600 0.227626 169 235 234 0.000000 -1.000000 0.000000
0.087919 -0.234600 0.343717 169 235 234 0.000000 -1.000000 0.000000
0.399302 -0.107032 0.199453 169 235 234 0.000000 1.000000 0.000000
0.374969 -0.107032 0.026997 169 235 234 0.000000 1.000000 0.000000
0.332021 -0.107032 0.447326 169 235 234 0.000000 1.000000 0.000000
