ply
format ascii 1.0
element vertex 728
property float x
property float y
property float z
property uchar red
property uchar green
property uchar blue
property float nx
property float ny
property float nz
end_header
-0.493461 -0.178319 0.090827 211 1 23 -0.987087 0.000000 0.160187
-0.305555 -0.061729 0.112443 211 1 23 0.000000 1.000000 0.000000
-0.164911 -0.061729 0.235269 211 1 23 0.000000 1.000000 0.000000
-0.382099 -0.185185 0.011718 211 1 23 0.000000 -1.000000 0.000000
-0.420021 -0.185185 0.142647 211 1 23 0.000000 -1.000000 0.000000
-0.103249 -0.061729 0.243210 211 1 23 0.000000 1.000000 0.000000
-0.040093 -0.061729 0.097608 211 1 23 0.000000 1.000000 0.000000
-0.108126 -0.185185 0.356846 211 1 23 0.000000 -1.000000 0.000000
-0.337895 -0.185185 0.099437 211 1 23 0.000000 -1.000000 0.000000
-0.489824 -0.185185 0.080837 211 1 23 0.000000 -1.000000 0.000000
-0.230493 -0.185185 0.091063 211 1 23 0.000000 -1.000000 0.000000
-0.134967 -0.185185 0.222273 211 1 23 0.000000 -1.000000 0.000000
-0.066791 -0.185185 0.399845 211 1 23 0.000000 -1.000000 0.000000
-0.138548 -0.185185 0.215431 211 1 23 0.000000 -1.000000 0.000000
-0.300037 -0.185185 0.398270 211 1 23 0.000000 -1.000000 0.000000
-0.411879 -0.185185 0.324375 211 1 23 0.000000 -1.000000 0.000000
-0.283585 -0.074465 0.416919 211 1 23 0.000000 0.707121 0.707093
-0.198430 -0.185185 0.040895 211 1 23 0.000000 -1.000000 0.000000
-0.333334 -0.126745 0.454477 211 1 23 0.000000 0.000000 1.000000
-0.191778 -0.061729 0.295040 211 1 23 0.000000 1.000000 0.000000
-0.419920 -0.143147 0.338987 211 1 23 -0.885778 0.000000 0.464109
-0.434671 -0.061729 0.012982 211 1 23 0.000000 1.000000 0.000000
-0.109175 -0.156524 0.454477 211 1 23 0.000000 0.000000 1.000000
-0.307772 -0.185185 0.234939 211 1 23 0.000000 -1.000000 0.000000
-0.090142 -0.185185 0.120736 211 1 23 0.000000 -1.000000 0.000000
-0.298160 -0.119836 0.454477 211 1 23 0.000000 0.000000 1.000000
-0.270834 -0.185185 0.381008 211 1 23 0.000000 -1.000000 0.000000
-0.091421 -0.185185 0.405860 211 1 23 0.000000 -1.000000 0.000000
-0.413850 -0.097697 0.319708 211 1 23 -0.626339 0.707118 0.328151
-0.129779 -0.061729 0.081638 211 1 23 0.000000 1.000000 0.000000
-0.102059 -0.061729 0.259591 211 1 23 0.000000 1.000000 0.000000
-0.273663 -0.106817 0.449273 211 1 23 0.000000 0.707121 0.707093
-0.399854 -0.103447 0.358810 211 1 23 -0.626344 0.707102 0.328177
-0.444013 -0.185185 0.141297 211 1 23 0.000000 -1.000000 0.000000
-0.189255 -0.185185 0.389350 211 1 23 0.000000 -1.000000 0.000000
-0.014836 -0.061729 0.027239 211 1 23 0.000000 1.000000 0.000000
-0.487121 -0.125876 0.129894 211 1 23 -0.987087 0.000000 0.160187
-0.224816 -0.061729 0.361485 211 1 23 0.000000 1.000000 0.000000
-0.031092 -0.061729 0.068414 211 1 23 0.000000 1.000000 0.000000
-0.256961 -0.061729 0.170332 211 1 23 0.000000 1.000000 0.000000
-0.101423 -0.185185 0.105096 211 1 23 0.000000 -1.000000 0.000000
-0.107784 -0.185185 0.313811 211 1 23 0.000000 -1.000000 0.000000
-0.444708 -0.065617 0.101560 211 1 23 -0.697975 0.707109 0.113258
-0.290175 -0.185185 0.375647 211 1 23 0.000000 -1.000000 0.000000
-0.485585 -0.170841 0.139359 211 1 23 -0.987087 0.000000 0.160187
-0.287506 -0.185185 0.397480 211 1 23 0.000000 -1.000000 0.000000
-0.397236 -0.185185 0.037765 211 1 23 0.000000 -1.000000 0.000000
-0.463864 -0.090989 0.141914 211 1 23 -0.697982 0.707100 0.113270
-0.280174 -0.185185 0.211729 211 1 23 0.000000 -1.000000 0.000000
-0.199936 -0.185185 0.138808 211 1 23 0.000000 -1.000000 0.000000
-0.463688 -0.185185 0.050929 211 1 23 0.000000 -1.000000 0.000000
-0.270844 -0.185185 0.245962 211 1 23 0.000000 -1.000000 0.000000
-0.147996 -0.061729 0.347251 211 1 23 0.000000 1.000000 0.000000
-0.242481 -0.061729 0.265001 211 1 23 0.000000 1.000000 0.000000
-0.136387 -0.185185 0.127260 211 1 23 0.000000 -1.000000 0.000000
-0.129478 -0.128202 0.454477 211 1 23 0.000000 0.000000 1.000000
-0.383983 -0.076990 0.332094 211 1 23 -0.626339 0.707118 0.328151
-0.100928 -0.061729 0.310887 211 1 23 0.000000 1.000000 0.000000
-0.383986 -0.061729 0.254675 211 1 23 0.000000 1.000000 0.000000
-0.353799 -0.185185 0.367591 211 1 23 0.000000 -1.000000 0.000000
-0.157672 -0.185185 0.038018 211 1 23 0.000000 -1.000000 0.000000
-0.165971 -0.061729 0.228303 211 1 23 0.000000 1.000000 0.000000
-0.282414 -0.185185 0.170507 211 1 23 0.000000 -1.000000 0.000000
-0.473920 -0.135577 0.193423 211 1 23 -0.964267 0.000000 0.264932
-0.045350 -0.061729 0.334107 211 1 23 0.000000 1.000000 0.000000
-0.022712 -0.061729 0.364134 211 1 23 0.000000 1.000000 0.000000
-0.047180 -0.061729 0.250353 211 1 23 0.000000 1.000000 0.000000
-0.045703 -0.185185 0.103372 211 1 23 0.000000 -1.000000 0.000000
-0.321685 -0.185185 0.303680 211 1 23 0.000000 -1.000000 0.000000
-0.493314 -0.137844 0.091737 211 1 23 -0.987087 0.000000 0.160187
-0.496074 -0.165163 0.045178 211 1 23 -0.998563 0.000000 0.053585
-0.021527 -0.061729 0.107231 211 1 23 0.000000 1.000000 0.000000
-0.107335 -0.061729 0.070225 211 1 23 0.000000 1.000000 0.000000
-0.047397 -0.061729 0.399309 211 1 23 0.000000 1.000000 0.000000
-0.285181 -0.061729 0.137710 211 1 23 0.000000 1.000000 0.000000
-0.263576 -0.061729 0.056973 211 1 23 0.000000 1.000000 0.000000
-0.128507 -0.065874 0.408328 211 1 23 0.000000 0.707121 0.707093
-0.448597 -0.062898 0.013178 211 1 23 -0.706087 0.707111 0.037884
-0.047745 -0.112971 0.454477 211 1 23 0.000000 0.000000 1.000000
-0.035492 -0.185185 0.414184 211 1 23 0.000000 -1.000000 0.000000
-0.242386 -0.185185 0.064083 211 1 23 0.000000 -1.000000 0.000000
-0.473402 -0.121570 0.195306 211 1 23 -0.964267 0.000000 0.264932
-0.433812 -0.149426 0.310600 211 1 23 -0.930372 0.000000 0.366618
-0.072466 -0.061729 0.045015 211 1 23 0.000000 1.000000 0.000000
-0.443365 -0.078314 0.177403 211 1 23 -0.681841 0.707101 0.187355
-0.295885 -0.061729 0.283294 211 1 23 0.000000 1.000000 0.000000
-0.176019 -0.185185 0.397405 211 1 23 0.000000 -1.000000 0.000000
-0.261424 -0.185185 0.437123 211 1 23 0.000000 -1.000000 0.000000
-0.281855 -0.185185 0.095051 211 1 23 0.000000 -1.000000 0.000000
-0.362141 -0.185185 0.289901 211 1 23 0.000000 -1.000000 0.000000
-0.418196 -0.185185 0.131905 211 1 23 0.000000 -1.000000 0.000000
-0.010472 -0.185185 0.014084 211 1 23 0.000000 -1.000000 0.000000
-0.430002 -0.185185 0.244355 211 1 23 0.000000 -1.000000 0.000000
-0.189050 -0.061729 0.272264 211 1 23 0.000000 1.000000 0.000000
-0.011692 -0.061729 0.309127 211 1 23 0.000000 1.000000 0.000000
-0.146134 -0.061729 0.025611 211 1 23 0.000000 1.000000 0.000000
-0.010964 -0.061729 0.380711 211 1 23 0.000000 1.000000 0.000000
-0.188807 -0.061729 0.087703 211 1 23 0.000000 1.000000 0.000000
-0.396585 -0.088374 0.332571 211 1 23 -0.626339 0.707118 0.328151
-0.133225 -0.061729 0.110574 211 1 23 0.000000 1.000000 0.000000
-0.495801 -0.145156 0.050265 211 1 23 -0.998563 0.000000 0.053585
-0.211247 -0.185185 0.250107 211 1 23 0.000000 -1.000000 0.000000
-0.057139 -0.061729 0.094620 211 1 23 0.000000 1.000000 0.000000
-0.117427 -0.185185 0.075158 211 1 23 0.000000 -1.000000 0.000000
-0.254875 -0.061729 0.117333 211 1 23 0.000000 1.000000 0.000000
-0.094111 -0.061729 0.200287 211 1 23 0.000000 1.000000 0.000000
-0.388193 -0.065074 0.298312 211 1 23 -0.657862 0.707117 0.259234
-0.038991 -0.061729 0.046022 211 1 23 0.000000 1.000000 0.000000
-0.361174 -0.185185 0.081462 211 1 23 0.000000 -1.000000 0.000000
-0.066006 -0.185185 0.102740 211 1 23 0.000000 -1.000000 0.000000
-0.017439 -0.061729 0.231759 211 1 23 0.000000 1.000000 0.000000
-0.314184 -0.079781 0.422235 211 1 23 0.000000 0.707121 0.707093
-0.198121 -0.133278 0.454477 211 1 23 0.000000 0.000000 1.000000
-0.447307 -0.185185 0.204742 211 1 23 0.000000 -1.000000 0.000000
-0.417264 -0.061729 0.138226 211 1 23 0.000000 1.000000 0.000000
-0.378777 -0.061729 0.300219 211 1 23 0.000000 1.000000 0.000000
-0.042905 -0.061729 0.287556 211 1 23 0.000000 1.000000 0.000000
-0.399655 -0.185185 0.034482 211 1 23 0.000000 -1.000000 0.000000
-0.401269 -0.185185 0.128337 211 1 23 0.000000 -1.000000 0.000000
-0.048362 -0.061729 0.086155 211 1 23 0.000000 1.000000 0.000000
-0.429948 -0.061729 0.042921 211 1 23 0.000000 1.000000 0.000000
-0.384135 -0.185185 0.093885 211 1 23 0.000000 -1.000000 0.000000
-0.252677 -0.185185 0.157772 211 1 23 0.000000 -1.000000 0.000000
-0.388619 -0.086254 0.343209 211 1 23 -0.626344 0.707102 0.328177
-0.066882 -0.185185 0.355713 211 1 23 0.000000 -1.000000 0.000000
-0.367269 -0.185185 0.018247 211 1 23 0.000000 -1.000000 0.000000
-0.270839 -0.148117 0.454477 211 1 23 0.000000 0.000000 1.000000
-0.337252 -0.185185 0.431393 211 1 23 0.000000 -1.000000 0.000000
-0.451034 -0.093062 0.205157 211 1 23 -0.681832 0.707115 0.187333
-0.376326 -0.185185 0.300174 211 1 23 0.000000 -1.000000 0.000000
-0.396314 -0.185185 0.071357 211 1 23 0.000000 -1.000000 0.000000
-0.008760 -0.061729 0.097757 211 1 23 0.000000 1.000000 0.000000
-0.089358 -0.061729 0.108859 211 1 23 0.000000 1.000000 0.000000
-0.242897 -0.061729 0.176457 211 1 23 0.000000 1.000000 0.000000
-0.497616 -0.155456 0.016445 211 1 23 -0.998563 0.000000 0.053585
-0.409873 -0.063408 0.238750 211 1 23 -0.657863 0.707115 0.259238
-0.173411 -0.149125 0.454477 211 1 23 0.000000 0.000000 1.000000
-0.117807 -0.061729 0.206260 211 1 23 0.000000 1.000000 0.000000
-0.317045 -0.061729 0.106877 211 1 23 0.000000 1.000000 0.000000
-0.182774 -0.185185 0.224202 211 1 23 0.000000 -1.000000 0.000000
-0.457448 -0.109866 0.244742 211 1 23 -0.657863 0.707115 0.259238
-0.195210 -0.185185 0.397805 211 1 23 0.000000 -1.000000 0.000000
-0.114099 -0.185185 0.216043 211 1 23 0.000000 -1.000000 0.000000
-0.111635 -0.185185 0.228639 211 1 23 0.000000 -1.000000 0.000000
-0.294750 -0.185185 0.158173 211 1 23 0.000000 -1.000000 0.000000
-0.087022 -0.061729 0.247084 211 1 23 0.000000 1.000000 0.000000
-0.292242 -0.185185 0.127430 211 1 23 0.000000 -1.000000 0.000000
-0.303277 -0.185185 0.270797 211 1 23 0.000000 -1.000000 0.000000
-0.386361 -0.185185 0.221138 211 1 23 0.000000 -1.000000 0.000000
-0.237968 -0.061729 0.163053 211 1 23 0.000000 1.000000 0.000000
-0.114411 -0.185185 0.199964 211 1 23 0.000000 -1.000000 0.000000
-0.357693 -0.135776 0.442707 211 1 23 -0.831026 0.000000 0.556234
-0.397090 -0.185185 0.145992 211 1 23 0.000000 -1.000000 0.000000
-0.011920 -0.185185 0.013553 211 1 23 0.000000 -1.000000 0.000000
-0.163216 -0.061729 0.322908 211 1 23 0.000000 1.000000 0.000000
-0.170857 -0.185185 0.019619 211 1 23 0.000000 -1.000000 0.000000
-0.236492 -0.185185 0.390300 211 1 23 0.000000 -1.000000 0.000000
-0.244323 -0.092757 0.435212 211 1 23 0.000000 0.707121 0.707093
-0.103635 -0.061729 0.222976 211 1 23 0.000000 1.000000 0.000000
-0.405510 -0.160951 0.366489 211 1 23 -0.885778 0.000000 0.464109
-0.081245 -0.185185 0.051246 211 1 23 0.000000 -1.000000 0.000000
-0.095329 -0.061729 0.324980 211 1 23 0.000000 1.000000 0.000000
-0.415383 -0.185185 0.308272 211 1 23 0.000000 -1.000000 0.000000
-0.003001 -0.185185 0.176403 211 1 23 0.000000 -1.000000 0.000000
-0.330413 -0.061729 0.287251 211 1 23 0.000000 1.000000 0.000000
-0.308253 -0.185185 0.372139 211 1 23 0.000000 -1.000000 0.000000
-0.446082 -0.185185 0.213577 211 1 23 0.000000 -1.000000 0.000000
-0.014638 -0.098767 0.441222 211 1 23 0.000000 0.707121 0.707093
-0.399642 -0.061729 0.077229 211 1 23 0.000000 1.000000 0.000000
-0.396921 -0.081761 0.317679 211 1 23 -0.626339 0.707118 0.328151
-0.324171 -0.185185 0.229933 211 1 23 0.000000 -1.000000 0.000000
-0.478532 -0.092729 0.012039 211 1 23 -0.706087 0.707111 0.037884
-0.376945 -0.185185 0.401433 211 1 23 0.000000 -1.000000 0.000000
-0.369756 -0.185185 0.276380 211 1 23 0.000000 -1.000000 0.000000
-0.266516 -0.061729 0.082651 211 1 23 0.000000 1.000000 0.000000
-0.022040 -0.061729 0.126591 211 1 23 0.000000 1.000000 0.000000
-0.425857 -0.185185 0.065281 211 1 23 0.000000 -1.000000 0.000000
-0.331842 -0.076268 0.417048 211 1 23 -0.587612 0.707121 0.393309
-0.239377 -0.185185 0.222784 211 1 23 0.000000 -1.000000 0.000000
-0.234648 -0.185185 0.398922 211 1 23 0.000000 -1.000000 0.000000
-0.250963 -0.166028 0.454477 211 1 23 0.000000 0.000000 1.000000
-0.047107 -0.061729 0.300165 211 1 23 0.000000 1.000000 0.000000
-0.438766 -0.061729 0.106838 211 1 23 0.000000 1.000000 0.000000
-0.246572 -0.098377 0.440832 211 1 23 0.000000 0.707121 0.707093
-0.097106 -0.163080 0.454477 211 1 23 0.000000 0.000000 1.000000
-0.420246 -0.169737 0.338365 211 1 23 -0.885778 0.000000 0.464109
-0.313195 -0.061729 0.294357 211 1 23 0.000000 1.000000 0.000000
-0.337572 -0.098982 0.441437 211 1 23 0.000000 0.707121 0.707093
-0.169470 -0.061729 0.238669 211 1 23 0.000000 1.000000 0.000000
-0.088839 -0.061729 0.177193 211 1 23 0.000000 1.000000 0.000000
-0.301080 -0.185185 0.203316 211 1 23 0.000000 -1.000000 0.000000
-0.359225 -0.065996 0.355659 211 1 23 -0.626339 0.707118 0.328151
-0.492410 -0.184283 0.097307 211 1 23 -0.987087 0.000000 0.160187
-0.238698 -0.061729 0.400166 211 1 23 0.000000 1.000000 0.000000
-0.456073 -0.103905 0.227745 211 1 23 -0.681832 0.707115 0.187333
-0.450325 -0.097078 0.222895 211 1 23 -0.681832 0.707115 0.187333
-0.141868 -0.061729 0.143315 211 1 23 0.000000 1.000000 0.000000
-0.212636 -0.061729 0.013225 211 1 23 0.000000 1.000000 0.000000
-0.114596 -0.064800 0.407254 211 1 23 0.000000 0.707121 0.707093
-0.153094 -0.162340 0.454477 211 1 23 0.000000 0.000000 1.000000
-0.289853 -0.061729 0.013232 211 1 23 0.000000 1.000000 0.000000
-0.088527 -0.185185 0.213798 211 1 23 0.000000 -1.000000 0.000000
-0.323020 -0.159368 0.454477 211 1 23 0.000000 0.000000 1.000000
-0.385491 -0.185185 0.113005 211 1 23 0.000000 -1.000000 0.000000
-0.327047 -0.102492 0.444947 211 1 23 0.000000 0.707121 0.707093
-0.029789 -0.061729 0.027812 211 1 23 0.000000 1.000000 0.000000
-0.119539 -0.116319 0.454477 211 1 23 0.000000 0.000000 1.000000
-0.273947 -0.185185 0.418742 211 1 23 0.000000 -1.000000 0.000000
-0.458396 -0.118007 0.248214 211 1 23 -0.930372 0.000000 0.366618
-0.456888 -0.102428 0.219201 211 1 23 -0.681832 0.707115 0.187333
-0.399423 -0.134869 0.378106 211 1 23 -0.885778 0.000000 0.464109
-0.425555 -0.120867 0.328232 211 1 23 -0.885778 0.000000 0.464109
-0.406797 -0.146470 0.364032 211 1 23 -0.885778 0.000000 0.464109
-0.470410 -0.179982 0.206196 211 1 23 -0.964267 0.000000 0.264932
-0.118292 -0.185185 0.283538 211 1 23 0.000000 -1.000000 0.000000
-0.016383 -0.061729 0.081740 211 1 23 0.000000 1.000000 0.000000
-0.230952 -0.164574 0.454477 211 1 23 0.000000 0.000000 1.000000
-0.087191 -0.185185 0.323953 211 1 23 0.000000 -1.000000 0.000000
-0.493844 -0.128004 0.086728 211 1 23 -0.998563 0.000000 0.053585
-0.140779 -0.078163 0.420618 211 1 23 0.000000 0.707121 0.707093
-0.051283 -0.061729 0.050307 211 1 23 0.000000 1.000000 0.000000
-0.161574 -0.185185 0.238865 211 1 23 0.000000 -1.000000 0.000000
-0.084595 -0.185185 0.251894 211 1 23 0.000000 -1.000000 0.000000
-0.195432 -0.061729 0.317939 211 1 23 0.000000 1.000000 0.000000
-0.432501 -0.185185 0.288597 211 1 23 0.000000 -1.000000 0.000000
-0.496073 -0.136546 0.045197 211 1 23 -0.998563 0.000000 0.053585
-0.323362 -0.185185 0.285464 211 1 23 0.000000 -1.000000 0.000000
-0.260709 -0.185185 0.124783 211 1 23 0.000000 -1.000000 0.000000
-0.419104 -0.100142 0.314950 211 1 23 -0.626339 0.707118 0.328151
-0.000552 -0.185185 0.121960 211 1 23 0.000000 -1.000000 0.000000
-0.015286 -0.061729 0.279546 211 1 23 0.000000 1.000000 0.000000
-0.260625 -0.102738 0.445194 211 1 23 0.000000 0.707121 0.707093
-0.436694 -0.061729 0.099712 211 1 23 0.000000 1.000000 0.000000
-0.297509 -0.061729 0.030772 211 1 23 0.000000 1.000000 0.000000
-0.441360 -0.185185 0.169615 211 1 23 0.000000 -1.000000 0.000000
-0.092662 -0.089830 0.432285 211 1 23 0.000000 0.707121 0.707093
-0.308814 -0.061729 0.254771 211 1 23 0.000000 1.000000 0.000000
-0.217296 -0.061729 0.115767 211 1 23 0.000000 1.000000 0.000000
-0.441368 -0.061729 0.078473 211 1 23 0.000000 1.000000 0.000000
-0.085662 -0.185185 0.424246 211 1 23 0.000000 -1.000000 0.000000
-0.149827 -0.185185 0.246738 211 1 23 0.000000 -1.000000 0.000000
-0.358989 -0.185185 0.352053 211 1 23 0.000000 -1.000000 0.000000
-0.381848 -0.185185 0.151404 211 1 23 0.000000 -1.000000 0.000000
-0.148994 -0.185185 0.218033 211 1 23 0.000000 -1.000000 0.000000
-0.134568 -0.185185 0.087336 211 1 23 0.000000 -1.000000 0.000000
-0.164203 -0.185185 0.189264 211 1 23 0.000000 -1.000000 0.000000
-0.266926 -0.095215 0.437671 211 1 23 0.000000 0.707121 0.707093
-0.012258 -0.185185 0.357368 211 1 23 0.000000 -1.000000 0.000000
-0.490794 -0.185185 0.095060 211 1 23 0.000000 -1.000000 0.000000
-0.403340 -0.061729 0.205923 211 1 23 0.000000 1.000000 0.000000
-0.025045 -0.135088 0.454477 211 1 23 0.000000 0.000000 1.000000
-0.067892 -0.106609 0.449065 211 1 23 0.000000 0.707121 0.707093
-0.104115 -0.061729 0.342918 211 1 23 0.000000 1.000000 0.000000
-0.246426 -0.061729 0.353059 211 1 23 0.000000 1.000000 0.000000
-0.370382 -0.167631 0.423750 211 1 23 -0.831026 0.000000 0.556234
-0.210653 -0.185185 0.175488 211 1 23 0.000000 -1.000000 0.000000
-0.293182 -0.185185 0.209618 211 1 23 0.000000 -1.000000 0.000000
-0.423587 -0.061729 0.176315 211 1 23 0.000000 1.000000 0.000000
-0.482217 -0.185185 0.055777 211 1 23 0.000000 -1.000000 0.000000
-0.247616 -0.061729 0.031426 211 1 23 0.000000 1.000000 0.000000
-0.309409 -0.185185 0.233536 211 1 23 0.000000 -1.000000 0.000000
-0.089781 -0.077374 0.419828 211 1 23 0.000000 0.707121 0.707093
-0.139092 -0.061729 0.116494 211 1 23 0.000000 1.000000 0.000000
-0.300624 -0.185185 0.353920 211 1 23 0.000000 -1.000000 0.000000
-0.072887 -0.185185 0.125150 211 1 23 0.000000 -1.000000 0.000000
-0.447105 -0.185185 0.267758 211 1 23 0.000000 -1.000000 0.000000
-0.229835 -0.185185 0.224252 211 1 23 0.000000 -1.000000 0.000000
-0.395393 -0.110148 0.381762 211 1 23 -0.626344 0.707102 0.328177
-0.033525 -0.061729 0.176518 211 1 23 0.000000 1.000000 0.000000
-0.346831 -0.185185 0.359862 211 1 23 0.000000 -1.000000 0.000000
-0.488134 -0.135014 0.123656 211 1 23 -0.987087 0.000000 0.160187
-0.324705 -0.185185 0.076040 211 1 23 0.000000 -1.000000 0.000000
-0.213328 -0.185185 0.069199 211 1 23 0.000000 -1.000000 0.000000
-0.011418 -0.185185 0.221293 211 1 23 0.000000 -1.000000 0.000000
-0.121528 -0.061729 0.192821 211 1 23 0.000000 1.000000 0.000000
-0.325758 -0.185185 0.442161 211 1 23 0.000000 -1.000000 0.000000
-0.194653 -0.061729 0.219288 211 1 23 0.000000 1.000000 0.000000
-0.232234 -0.061729 0.044386 211 1 23 0.000000 1.000000 0.000000
-0.041768 -0.185185 0.363422 211 1 23 0.000000 -1.000000 0.000000
-0.369704 -0.185185 0.278497 211 1 23 0.000000 -1.000000 0.000000
-0.026226 -0.061729 0.075872 211 1 23 0.000000 1.000000 0.000000
-0.183865 -0.111436 0.453892 211 1 23 0.000000 0.707121 0.707093
-0.253798 -0.061729 0.072279 211 1 23 0.000000 1.000000 0.000000
-0.120057 -0.185185 0.129366 211 1 23 0.000000 -1.000000 0.000000
-0.487442 -0.180085 0.127921 211 1 23 -0.987087 0.000000 0.160187
-0.071346 -0.118840 0.454477 211 1 23 0.000000 0.000000 1.000000
-0.013075 -0.061729 0.023309 211 1 23 0.000000 1.000000 0.000000
-0.266414 -0.185185 0.429694 211 1 23 0.000000 -1.000000 0.000000
-0.477366 -0.138398 0.180880 211 1 23 -0.964267 0.000000 0.264932
-0.097182 -0.063738 0.406192 211 1 23 0.000000 0.707121 0.707093
-0.488898 -0.106687 0.079349 211 1 23 -0.706091 0.707107 0.037890
-0.425829 -0.185185 0.089998 211 1 23 0.000000 -1.000000 0.000000
-0.268033 -0.061729 0.103287 211 1 23 0.000000 1.000000 0.000000
-0.287754 -0.185185 0.215421 211 1 23 0.000000 -1.000000 0.000000
-0.036292 -0.185185 0.222294 211 1 23 0.000000 -1.000000 0.000000
-0.326047 -0.061729 0.053766 211 1 23 0.000000 1.000000 0.000000
-0.192701 -0.061729 0.349529 211 1 23 0.000000 1.000000 0.000000
-0.007272 -0.185185 0.255072 211 1 23 0.000000 -1.000000 0.000000
-0.076035 -0.185185 0.320064 211 1 23 0.000000 -1.000000 0.000000
-0.384545 -0.185185 0.395121 211 1 23 0.000000 -1.000000 0.000000
-0.329603 -0.185185 0.445687 211 1 23 0.000000 -1.000000 0.000000
-0.244456 -0.185185 0.158035 211 1 23 0.000000 -1.000000 0.000000
-0.041908 -0.061729 0.067724 211 1 23 0.000000 1.000000 0.000000
-0.088642 -0.185185 0.412403 211 1 23 0.000000 -1.000000 0.000000
-0.290421 -0.061729 0.259619 211 1 23 0.000000 1.000000 0.000000
-0.475638 -0.118863 0.187170 211 1 23 -0.964267 0.000000 0.264932
-0.134970 -0.061729 0.120934 211 1 23 0.000000 1.000000 0.000000
-0.467295 -0.134820 0.217536 211 1 23 -0.964267 0.000000 0.264932
-0.025205 -0.100171 0.442626 211 1 23 0.000000 0.707121 0.707093
-0.132483 -0.061729 0.152917 211 1 23 0.000000 1.000000 0.000000
-0.432111 -0.070408 0.188522 211 1 23 -0.681841 0.707101 0.187355
-0.362851 -0.185185 0.205798 211 1 23 0.000000 -1.000000 0.000000
-0.192530 -0.185185 0.434918 211 1 23 0.000000 -1.000000 0.000000
-0.047450 -0.185185 0.352273 211 1 23 0.000000 -1.000000 0.000000
-0.274025 -0.061729 0.124151 211 1 23 0.000000 1.000000 0.000000
-0.040379 -0.120891 0.454477 211 1 23 0.000000 0.000000 1.000000
-0.237020 -0.185185 0.129021 211 1 23 0.000000 -1.000000 0.000000
-0.431521 -0.185185 0.264298 211 1 23 0.000000 -1.000000 0.000000
-0.441221 -0.062736 0.105069 211 1 23 -0.697975 0.707109 0.113258
-0.460584 -0.178748 0.241958 211 1 23 -0.964267 0.000000 0.264932
-0.082752 -0.185185 0.331887 211 1 23 0.000000 -1.000000 0.000000
-0.080537 -0.093049 0.435505 211 1 23 0.000000 0.707121 0.707093
-0.397217 -0.125395 0.382317 211 1 23 -0.885778 0.000000 0.464109
-0.243209 -0.185185 0.395862 211 1 23 0.000000 -1.000000 0.000000
-0.272160 -0.185185 0.131241 211 1 23 0.000000 -1.000000 0.000000
-0.227275 -0.061729 0.189463 211 1 23 0.000000 1.000000 0.000000
-0.426097 -0.185185 0.177812 211 1 23 0.000000 -1.000000 0.000000
-0.181715 -0.061729 0.126261 211 1 23 0.000000 1.000000 0.000000
-0.146783 -0.061729 0.152259 211 1 23 0.000000 1.000000 0.000000
-0.211626 -0.185185 0.422216 211 1 23 0.000000 -1.000000 0.000000
-0.211013 -0.061729 0.352234 211 1 23 0.000000 1.000000 0.000000
-0.403734 -0.070051 0.272449 211 1 23 -0.657863 0.707115 0.259238
-0.167591 -0.185185 0.081404 211 1 23 0.000000 -1.000000 0.000000
-0.059494 -0.183895 0.454477 211 1 23 0.000000 0.000000 1.000000
-0.255125 -0.092049 0.434505 211 1 23 0.000000 0.707121 0.707093
-0.002101 -0.061729 0.217560 211 1 23 0.000000 1.000000 0.000000
-0.497668 -0.162837 0.015469 211 1 23 -0.998563 0.000000 0.053585
-0.355086 -0.185185 0.365182 211 1 23 0.000000 -1.000000 0.000000
-0.270868 -0.061729 0.146727 211 1 23 0.000000 1.000000 0.000000
-0.091932 -0.061729 0.323066 211 1 23 0.000000 1.000000 0.000000
-0.187572 -0.061729 0.362803 211 1 23 0.000000 1.000000 0.000000
-0.222564 -0.185185 0.195088 211 1 23 0.000000 -1.000000 0.000000
-0.320376 -0.061729 0.028023 211 1 23 0.000000 1.000000 0.000000
-0.227983 -0.172647 0.454477 211 1 23 0.000000 0.000000 1.000000
-0.357272 -0.103701 0.428379 211 1 23 -0.587612 0.707121 0.393309
-0.453470 -0.075235 0.107612 211 1 23 -0.697975 0.707109 0.113258
-0.185150 -0.061729 0.312095 211 1 23 0.000000 1.000000 0.000000
-0.267185 -0.077447 0.419901 211 1 23 0.000000 0.707121 0.707093
-0.302218 -0.185185 0.151714 211 1 23 0.000000 -1.000000 0.000000
-0.144295 -0.061729 0.360347 211 1 23 0.000000 1.000000 0.000000
-0.061495 -0.185185 0.023301 211 1 23 0.000000 -1.000000 0.000000
-0.007354 -0.061729 0.333055 211 1 23 0.000000 1.000000 0.000000
-0.491105 -0.107767 0.058386 211 1 23 -0.706091 0.707107 0.037890
-0.062154 -0.061729 0.067900 211 1 23 0.000000 1.000000 0.000000
-0.233935 -0.185185 0.078909 211 1 23 0.000000 -1.000000 0.000000
-0.174335 -0.185185 0.097360 211 1 23 0.000000 -1.000000 0.000000
-0.438123 -0.185185 0.218273 211 1 23 0.000000 -1.000000 0.000000
-0.428583 -0.185185 0.208077 211 1 23 0.000000 -1.000000 0.000000
-0.343869 -0.185185 0.093586 211 1 23 0.000000 -1.000000 0.000000
-0.342809 -0.185185 0.152993 211 1 23 0.000000 -1.000000 0.000000
-0.168021 -0.061729 0.226576 211 1 23 0.000000 1.000000 0.000000
-0.103001 -0.185185 0.439289 211 1 23 0.000000 -1.000000 0.000000
-0.071670 -0.153628 0.454477 211 1 23 0.000000 0.000000 1.000000
-0.458134 -0.076359 0.085886 211 1 23 -0.697975 0.707109 0.113258
-0.491763 -0.185185 0.089749 211 1 23 0.000000 -1.000000 0.000000
-0.276677 -0.185185 0.188770 211 1 23 0.000000 -1.000000 0.000000
-0.347048 -0.185185 0.086080 211 1 23 0.000000 -1.000000 0.000000
-0.386327 -0.162493 0.399928 211 1 23 -0.831026 0.000000 0.556234
-0.059784 -0.061729 0.286987 211 1 23 0.000000 1.000000 0.000000
-0.470341 -0.185185 0.048708 211 1 23 0.000000 -1.000000 0.000000
-0.133136 -0.061729 0.266654 211 1 23 0.000000 1.000000 0.000000
-0.138448 -0.061729 0.012448 211 1 23 0.000000 1.000000 0.000000
-0.185479 -0.185185 0.243320 211 1 23 0.000000 -1.000000 0.000000
-0.407834 -0.061729 0.089717 211 1 23 0.000000 1.000000 0.000000
-0.303710 -0.185185 0.136909 211 1 23 0.000000 -1.000000 0.000000
-0.014016 -0.061729 0.184914 211 1 23 0.000000 1.000000 0.000000
-0.383479 -0.165013 0.404182 211 1 23 -0.831026 0.000000 0.556234
-0.012028 -0.185185 0.083647 211 1 23 0.000000 -1.000000 0.000000
-0.261196 -0.185185 0.257130 211 1 23 0.000000 1.000000 0.000000
-0.372216 -0.185185 0.149771 211 1 23 0.000000 -1.000000 0.000000
-0.220527 -0.061729 0.396655 211 1 23 0.000000 1.000000 0.000000
-0.193375 -0.061729 0.201982 211 1 23 0.000000 1.000000 0.000000
-0.467353 -0.097108 0.158608 211 1 23 -0.697982 0.707100 0.113270
-0.047758 -0.061729 0.094971 211 1 23 0.000000 1.000000 0.000000
-0.446653 -0.147255 0.278013 211 1 23 -0.930372 0.000000 0.366618
-0.436936 -0.062911 0.132562 211 1 23 -0.697975 0.707109 0.113258
-0.133608 -0.061729 0.073913 211 1 23 0.000000 1.000000 0.000000
-0.331128 -0.185185 0.117901 211 1 23 0.000000 -1.000000 0.000000
-0.370457 -0.160057 0.423638 211 1 23 -0.831026 0.000000 0.556234
-0.035673 -0.185185 0.187814 211 1 23 0.000000 -1.000000 0.000000
-0.284197 -0.185185 0.077841 211 1 23 0.000000 -1.000000 0.000000
-0.327103 -0.185185 0.166802 211 1 23 0.000000 -1.000000 0.000000
-0.204172 -0.061729 0.258854 211 1 23 0.000000 1.000000 0.000000
-0.056469 -0.061729 0.322529 211 1 23 0.000000 1.000000 0.000000
-0.247757 -0.061729 0.156072 211 1 23 0.000000 1.000000 0.000000
-0.151390 -0.061729 0.028237 211 1 23 0.000000 1.000000 0.000000
-0.083847 -0.159851 0.454477 211 1 23 0.000000 0.000000 1.000000
-0.461243 -0.122986 0.239560 211 1 23 -0.964267 0.000000 0.264932
-0.039472 -0.061729 0.272141 211 1 23 0.000000 1.000000 0.000000
-0.375882 -0.185185 0.052724 211 1 23 0.000000 -1.000000 0.000000
-0.260109 -0.078960 0.421415 211 1 23 0.000000 0.707121 0.707093
-0.430802 -0.091371 0.261914 211 1 23 -0.657863 0.707115 0.259238
-0.409693 -0.185185 0.155138 211 1 23 0.000000 -1.000000 0.000000
-0.422628 -0.061729 0.042863 211 1 23 0.000000 1.000000 0.000000
-0.229683 -0.061729 0.074735 211 1 23 0.000000 1.000000 0.000000
-0.068890 -0.170355 0.454477 211 1 23 0.000000 0.000000 1.000000
-0.318496 -0.185185 0.240816 211 1 23 0.000000 -1.000000 0.000000
-0.375255 -0.185185 0.193899 211 1 23 0.000000 -1.000000 0.000000
-0.051506 -0.061729 0.286160 211 1 23 0.000000 1.000000 0.000000
-0.096808 -0.061729 0.210227 211 1 23 0.000000 1.000000 0.000000
-0.259392 -0.087684 0.430139 211 1 23 0.000000 0.707121 0.707093
-0.393351 -0.136188 0.389433 211 1 23 -0.831026 0.000000 0.556234
-0.098346 -0.185185 0.401383 211 1 23 0.000000 -1.000000 0.000000
-0.087591 -0.061729 0.351035 211 1 23 0.000000 1.000000 0.000000
-0.149208 -0.092342 0.434797 211 1 23 0.000000 0.707121 0.707093
-0.379595 -0.185185 0.300871 211 1 23 0.000000 -1.000000 0.000000
-0.487615 -0.185185 0.113895 211 1 23 0.000000 -1.000000 0.000000
-0.278077 -0.185185 0.189341 211 1 23 0.000000 -1.000000 0.000000
-0.478479 -0.185185 0.067441 211 1 23 0.000000 -1.000000 0.000000
-0.028754 -0.061729 0.369646 211 1 23 0.000000 1.000000 0.000000
-0.215317 -0.061729 0.112489 211 1 23 0.000000 1.000000 0.000000
-0.127550 -0.061729 0.264395 211 1 23 0.000000 1.000000 0.000000
-0.302178 -0.061729 0.153827 211 1 23 0.000000 1.000000 0.000000
-0.433532 -0.104918 0.291935 211 1 23 -0.657862 0.707117 0.259234
-0.069691 -0.061729 0.265862 211 1 23 0.000000 1.000000 0.000000
-0.471326 -0.166985 0.202862 211 1 23 -0.964267 0.000000 0.264932
-0.445294 -0.074741 0.154915 211 1 23 -0.697982 0.707100 0.113270
-0.116478 -0.185185 0.287434 211 1 23 0.000000 -1.000000 0.000000
-0.186627 -0.118068 0.454477 211 1 23 0.000000 0.000000 1.000000
-0.009932 -0.061729 0.087480 211 1 23 0.000000 1.000000 0.000000
-0.421227 -0.161608 0.336492 211 1 23 -0.885778 0.000000 0.464109
-0.470368 -0.185185 0.078534 211 1 23 0.000000 -1.000000 0.000000
-0.289565 -0.185185 0.454360 211 1 23 0.000000 -1.000000 0.000000
-0.476288 -0.139716 0.184801 211 1 23 -0.964267 0.000000 0.264932
-0.384262 -0.061729 0.290940 211 1 23 0.000000 1.000000 0.000000
-0.047993 -0.185185 0.305391 211 1 23 0.000000 -1.000000 0.000000
-0.108557 -0.061729 0.239324 211 1 23 0.000000 1.000000 0.000000
-0.228161 -0.139406 0.454477 211 1 23 0.000000 0.000000 1.000000
-0.287795 -0.123999 0.454477 211 1 23 0.000000 0.000000 1.000000
-0.305844 -0.076963 0.419418 211 1 23 0.000000 0.707121 0.707093
-0.176462 -0.132424 0.454477 211 1 23 0.000000 0.000000 1.000000
-0.067447 -0.061729 0.141784 211 1 23 0.000000 1.000000 0.000000
-0.310356 -0.185185 0.343890 211 1 23 0.000000 -1.000000 0.000000
-0.137052 -0.061729 0.114745 211 1 23 0.000000 1.000000 0.000000
-0.036788 -0.185185 0.119073 211 1 23 0.000000 -1.000000 0.000000
-0.293831 -0.061729 0.118748 211 1 23 0.000000 1.000000 0.000000
-0.386627 -0.061729 0.084735 211 1 23 0.000000 1.000000 0.000000
-0.148377 -0.185185 0.226891 211 1 23 0.000000 -1.000000 0.000000
-0.102976 -0.129762 0.454477 211 1 23 0.000000 0.000000 1.000000
-0.234931 -0.185185 0.127598 211 1 23 0.000000 -1.000000 0.000000
-0.372508 -0.061729 0.100661 211 1 23 0.000000 1.000000 0.000000
-0.126842 -0.061729 0.281497 211 1 23 0.000000 1.000000 0.000000
-0.215416 -0.061729 0.246831 211 1 23 0.000000 1.000000 0.000000
-0.355490 -0.061729 0.269648 211 1 23 0.000000 1.000000 0.000000
-0.335780 -0.185185 0.327083 211 1 23 0.000000 -1.000000 0.000000
-0.145298 -0.061729 0.351519 211 1 23 0.000000 1.000000 0.000000
-0.338135 -0.185185 0.347172 211 1 23 0.000000 -1.000000 0.000000
-0.309713 -0.061729 0.111601 211 1 23 0.000000 1.000000 0.000000
-0.467572 -0.127679 0.216527 211 1 23 -0.964267 0.000000 0.264932
-0.426377 -0.085111 0.256067 211 1 23 -0.657863 0.707115 0.259238
-0.215336 -0.061729 0.245318 211 1 23 0.000000 1.000000 0.000000
-0.137922 -0.061729 0.383639 211 1 23 0.000000 1.000000 0.000000
-0.299056 -0.185185 0.200370 211 1 23 0.000000 -1.000000 0.000000
-0.097935 -0.185185 0.393947 211 1 23 0.000000 -1.000000 0.000000
-0.122418 -0.061729 0.180395 211 1 23 0.000000 1.000000 0.000000
-0.365640 -0.168001 0.430834 211 1 23 -0.831026 0.000000 0.556234
-0.012221 -0.185185 0.184259 211 1 23 0.000000 -1.000000 0.000000
-0.470345 -0.168903 0.206431 211 1 23 -0.964267 0.000000 0.264932
-0.138466 -0.061729 0.318841 211 1 23 0.000000 1.000000 0.000000
-0.408298 -0.061729 0.170630 211 1 23 0.000000 1.000000 0.000000
-0.113473 -0.061729 0.258504 211 1 23 0.000000 1.000000 0.000000
-0.074323 -0.061729 0.290800 211 1 23 0.000000 1.000000 0.000000
-0.094482 -0.185185 0.265158 211 1 23 0.000000 -1.000000 0.000000
-0.398199 -0.171024 0.380442 211 1 23 -0.885778 0.000000 0.464109
-0.166484 -0.185185 0.431107 211 1 23 0.000000 -1.000000 0.000000
-0.198060 -0.061729 0.097255 211 1 23 0.000000 1.000000 0.000000
-0.452667 -0.185185 0.047834 211 1 23 0.000000 -1.000000 0.000000
-0.234964 -0.185185 0.385543 211 1 23 0.000000 -1.000000 0.000000
-0.266164 -0.185185 0.027168 211 1 23 0.000000 -1.000000 0.000000
-0.040308 -0.185185 0.130300 211 1 23 0.000000 -1.000000 0.000000
-0.043919 -0.061729 0.344913 211 1 23 0.000000 1.000000 0.000000
-0.133140 -0.061729 0.083580 211 1 23 0.000000 1.000000 0.000000
-0.487566 -0.162258 0.127156 211 1 23 -0.987087 0.000000 0.160187
-0.254005 -0.083059 0.425514 211 1 23 0.000000 0.707121 0.707093
-0.036233 -0.185185 0.240046 211 1 23 0.000000 -1.000000 0.000000
-0.372011 -0.061729 0.313460 211 1 23 0.000000 1.000000 0.000000
-0.316870 -0.185185 0.439718 211 1 23 0.000000 -1.000000 0.000000
-0.054066 -0.185185 0.385064 211 1 23 0.000000 -1.000000 0.000000
-0.368805 -0.069452 0.344820 211 1 23 -0.626339 0.707118 0.328151
-0.395224 -0.185185 0.305871 211 1 23 0.000000 -1.000000 0.000000
-0.193623 -0.185185 0.024386 211 1 23 0.000000 -1.000000 0.000000
-0.066759 -0.061729 0.392379 211 1 23 0.000000 1.000000 0.000000
-0.082688 -0.185185 0.165436 211 1 23 0.000000 -1.000000 0.000000
-0.173890 -0.079668 0.422123 211 1 23 0.000000 0.707121 0.707093
-0.176532 -0.061729 0.067751 211 1 23 0.000000 1.000000 0.000000
-0.058297 -0.061729 0.121850 211 1 23 0.000000 1.000000 0.000000
-0.305745 -0.185185 0.338280 211 1 23 0.000000 -1.000000 0.000000
-0.326066 -0.061729 0.110873 211 1 23 0.000000 1.000000 0.000000
-0.245629 -0.061729 0.316968 211 1 23 0.000000 1.000000 0.000000
-0.467642 -0.091632 0.122644 211 1 23 -0.697982 0.707100 0.113270
-0.122814 -0.117222 0.454477 211 1 23 0.000000 0.000000 1.000000
-0.209596 -0.061729 0.284934 211 1 23 0.000000 1.000000 0.000000
-0.124655 -0.061729 0.355666 211 1 23 0.000000 1.000000 0.000000
-0.139769 -0.061729 0.305456 211 1 23 0.000000 1.000000 0.000000
-0.494413 -0.145318 0.076123 211 1 23 -0.998563 0.000000 0.053585
-0.037997 -0.061729 0.200031 211 1 23 0.000000 1.000000 0.000000
-0.133611 -0.061729 0.026009 211 1 23 0.000000 1.000000 0.000000
-0.092399 -0.185185 0.331988 211 1 23 0.000000 -1.000000 0.000000
-0.184796 -0.185185 0.245700 211 1 23 0.000000 -1.000000 0.000000
-0.300453 -0.185185 0.052065 211 1 23 0.000000 -1.000000 0.000000
-0.288708 -0.061729 0.153885 211 1 23 0.000000 1.000000 0.000000
-0.018938 -0.061729 0.086981 211 1 23 0.000000 1.000000 0.000000
-0.162156 -0.180149 0.454477 211 1 23 0.000000 0.000000 1.000000
-0.350331 -0.118031 0.453706 211 1 23 -0.831026 0.000000 0.556234
-0.423979 -0.073705 0.230561 211 1 23 -0.681832 0.707115 0.187333
-0.167206 -0.096198 0.438653 211 1 23 0.000000 0.707121 0.707093
-0.359040 -0.149109 0.440695 211 1 23 -0.831026 0.000000 0.556234
-0.389520 -0.061729 0.230207 211 1 23 0.000000 1.000000 0.000000
-0.129424 -0.061729 0.121911 211 1 23 0.000000 1.000000 0.000000
-0.201406 -0.174338 0.454477 211 1 23 0.000000 0.000000 1.000000
-0.187953 -0.185185 0.210960 211 1 23 0.000000 -1.000000 0.000000
-0.235573 -0.061729 0.353765 211 1 23 0.000000 1.000000 0.000000
-0.140924 -0.185185 0.205422 211 1 23 0.000000 -1.000000 0.000000
-0.172602 -0.185185 0.152194 211 1 23 0.000000 -1.000000 0.000000
-0.329158 -0.185185 0.304135 211 1 23 0.000000 -1.000000 0.000000
-0.103560 -0.185185 0.066756 211 1 23 0.000000 -1.000000 0.000000
-0.351451 -0.185185 0.277690 211 1 23 0.000000 -1.000000 0.000000
-0.175528 -0.061729 0.128131 211 1 23 0.000000 1.000000 0.000000
-0.434598 -0.123598 0.308607 211 1 23 -0.930372 0.000000 0.366618
-0.065050 -0.185185 0.055781 211 1 23 0.000000 -1.000000 0.000000
-0.013082 -0.061729 0.358206 211 1 23 0.000000 1.000000 0.000000
-0.235483 -0.061729 0.210391 211 1 23 0.000000 1.000000 0.000000
-0.080429 -0.061729 0.167458 211 1 23 0.000000 1.000000 0.000000
-0.078864 -0.185185 0.361209 211 1 23 0.000000 -1.000000 0.000000
-0.018482 -0.185185 0.267353 211 1 23 0.000000 -1.000000 0.000000
-0.177179 -0.061729 0.372604 211 1 23 0.000000 1.000000 0.000000
-0.209088 -0.061729 0.159973 211 1 23 0.000000 1.000000 0.000000
-0.270203 -0.185185 0.024782 211 1 23 0.000000 -1.000000 0.000000
-0.400059 -0.099065 0.348977 211 1 23 -0.626344 0.707102 0.328177
-0.417794 -0.084031 0.274899 211 1 23 -0.657862 0.707117 0.259234
-0.037090 -0.061729 0.290367 211 1 23 0.000000 1.000000 0.000000
-0.411157 -0.061729 0.041820 211 1 23 0.000000 1.000000 0.000000
-0.023635 -0.061729 0.359362 211 1 23 0.000000 1.000000 0.000000
-0.444815 -0.137806 0.282679 211 1 23 -0.930372 0.000000 0.366618
-0.414668 -0.102971 0.329511 211 1 23 -0.626344 0.707102 0.328177
-0.114242 -0.185185 0.060892 211 1 23 0.000000 -1.000000 0.000000
-0.012181 -0.185185 0.272259 211 1 23 0.000000 -1.000000 0.000000
-0.149207 -0.185185 0.073467 211 1 23 0.000000 -1.000000 0.000000
-0.157771 -0.185185 0.134405 211 1 23 0.000000 -1.000000 0.000000
-0.278952 -0.061729 0.212828 211 1 23 0.000000 1.000000 0.000000
-0.229793 -0.185185 0.206860 211 1 23 0.000000 -1.000000 0.000000
-0.145709 -0.061729 0.129210 211 1 23 0.000000 1.000000 0.000000
-0.173432 -0.185185 0.169490 211 1 23 0.000000 -1.000000 0.000000
-0.087173 -0.185185 0.097517 211 1 23 0.000000 -1.000000 0.000000
-0.159155 -0.185185 0.042694 211 1 23 0.000000 -1.000000 0.000000
-0.268830 -0.185185 0.449674 211 1 23 0.000000 -1.000000 0.000000
-0.072472 -0.061729 0.350170 211 1 23 0.000000 1.000000 0.000000
-0.129936 -0.061729 0.023275 211 1 23 0.000000 1.000000 0.000000
-0.431316 -0.069490 0.187949 211 1 23 -0.681841 0.707101 0.187355
-0.184923 -0.061729 0.099627 211 1 23 0.000000 1.000000 0.000000
-0.225167 -0.185185 0.098771 211 1 23 0.000000 -1.000000 0.000000
-0.330541 -0.185185 0.236856 211 1 23 0.000000 -1.000000 0.000000
-0.494020 -0.112052 0.083448 211 1 23 -0.998563 0.000000 0.053585
-0.405693 -0.185185 0.241634 211 1 23 0.000000 -1.000000 0.000000
-0.444836 -0.123860 0.282625 211 1 23 -0.930372 0.000000 0.366618
-0.335427 -0.185185 0.318812 211 1 23 0.000000 -1.000000 0.000000
-0.230491 -0.072740 0.415195 211 1 23 0.000000 0.707121 0.707093
-0.391219 -0.185185 0.069387 211 1 23 0.000000 -1.000000 0.000000
-0.356155 -0.185185 0.118061 211 1 23 0.000000 -1.000000 0.000000
-0.418748 -0.185185 0.261652 211 1 23 0.000000 -1.000000 0.000000
-0.089043 -0.061729 0.069225 211 1 23 0.000000 1.000000 0.000000
-0.380208 -0.185185 0.150932 211 1 23 0.000000 -1.000000 0.000000
-0.458428 -0.169151 0.248132 211 1 23 -0.930372 0.000000 0.366618
-0.236008 -0.061729 0.247406 211 1 23 0.000000 1.000000 0.000000
-0.317559 -0.061729 0.010820 211 1 23 0.000000 1.000000 0.000000
-0.399521 -0.089761 0.329956 211 1 23 -0.626339 0.707118 0.328151
-0.257622 -0.185185 0.135358 211 1 23 0.000000 -1.000000 0.000000
-0.422693 -0.083576 0.261227 211 1 23 -0.657863 0.707115 0.259238
-0.033482 -0.061729 0.142480 211 1 23 0.000000 1.000000 0.000000
-0.263770 -0.185185 0.238535 211 1 23 0.000000 -1.000000 0.000000
-0.431343 -0.157144 0.316865 211 1 23 -0.930372 0.000000 0.366618
-0.391151 -0.101620 0.371483 211 1 23 -0.626344 0.707102 0.328177
-0.030323 -0.185185 0.315861 211 1 23 0.000000 -1.000000 0.000000
-0.326229 -0.185185 0.072396 211 1 23 0.000000 -1.000000 0.000000
-0.379906 -0.185185 0.012495 211 1 23 0.000000 -1.000000 0.000000
-0.170684 -0.185185 0.441449 211 1 23 0.000000 -1.000000 0.000000
-0.203834 -0.061729 0.316479 211 1 23 0.000000 1.000000 0.000000
-0.407590 -0.156995 0.362519 211 1 23 -0.885778 0.000000 0.464109
-0.013541 -0.061729 0.307808 211 1 23 0.000000 1.000000 0.000000
-0.474321 -0.185185 0.105038 211 1 23 0.000000 -1.000000 0.000000
-0.297594 -0.185185 0.443170 211 1 23 0.000000 -1.000000 0.000000
-0.458835 -0.147849 0.247100 211 1 23 -0.930372 0.000000 0.366618
-0.462992 -0.078136 0.029308 211 1 23 -0.706087 0.707111 0.037884
-0.030352 -0.185185 0.143059 211 1 23 0.000000 -1.000000 0.000000
-0.163528 -0.061729 0.181750 211 1 23 0.000000 1.000000 0.000000
-0.166427 -0.185185 0.410604 211 1 23 0.000000 -1.000000 0.000000
-0.242600 -0.061729 0.140544 211 1 23 0.000000 1.000000 0.000000
-0.144072 -0.185185 0.265627 211 1 23 0.000000 1.000000 0.000000
-0.204790 -0.061729 0.361333 211 1 23 0.000000 1.000000 0.000000
-0.082972 -0.061729 0.273724 211 1 23 0.000000 1.000000 0.000000
-0.489799 -0.185185 0.029316 211 1 23 0.000000 -1.000000 0.000000
-0.218708 -0.185225 0.256946 211 1 23 0.000000 0.000000 1.000000
-0.000570 -0.061729 0.225045 211 1 23 0.000000 1.000000 0.000000
-0.023143 -0.061729 0.144346 211 1 23 0.000000 1.000000 0.000000
-0.452530 -0.119314 0.263100 211 1 23 -0.930372 0.000000 0.366618
-0.331558 -0.061729 0.101924 211 1 23 0.000000 1.000000 0.000000
-0.021353 -0.185185 0.235379 211 1 23 0.000000 -1.000000 0.000000
-0.245866 -0.185185 0.431709 211 1 23 0.000000 -1.000000 0.000000
-0.321658 -0.066842 0.409296 211 1 23 0.000000 0.707121 0.707093
-0.446302 -0.185185 0.239562 211 1 23 0.000000 -1.000000 0.000000
-0.278699 -0.061729 0.247968 211 1 23 0.000000 1.000000 0.000000
-0.229232 -0.185185 0.030474 211 1 23 0.000000 -1.000000 0.000000
-0.404289 -0.061729 0.208641 211 1 23 0.000000 1.000000 0.000000
-0.261048 -0.185185 0.053759 211 1 23 0.000000 -1.000000 0.000000
-0.149689 -0.061729 0.323355 211 1 23 0.000000 1.000000 0.000000
-0.212448 -0.185185 0.017417 211 1 23 0.000000 -1.000000 0.000000
-0.033096 -0.185185 0.448327 211 1 23 0.000000 -1.000000 0.000000
-0.002633 -0.061729 0.401154 211 1 23 0.000000 1.000000 0.000000
-0.289259 -0.124809 0.454477 211 1 23 0.000000 0.000000 1.000000
-0.023018 -0.061729 0.185754 211 1 23 0.000000 1.000000 0.000000
-0.485333 -0.112347 0.140916 211 1 23 -0.987087 0.000000 0.160187
-0.453596 -0.167878 0.260396 211 1 23 -0.930372 0.000000 0.366618
-0.196028 -0.157843 0.454477 211 1 23 0.000000 0.000000 1.000000
-0.320775 -0.133278 0.454477 211 1 23 0.000000 0.000000 1.000000
-0.136059 -0.061729 0.355562 211 1 23 0.000000 1.000000 0.000000
-0.277258 -0.185185 0.192338 211 1 23 0.000000 -1.000000 0.000000
-0.391458 -0.185185 0.113585 211 1 23 0.000000 -1.000000 0.000000
-0.181524 -0.081465 0.423919 211 1 23 0.000000 0.707121 0.707093
-0.376553 -0.185185 0.378942 211 1 23 0.000000 -1.000000 0.000000
-0.395253 -0.066029 0.282999 211 1 23 -0.657863 0.707115 0.259238
-0.409517 -0.185185 0.285008 211 1 23 0.000000 -1.000000 0.000000
-0.456506 -0.156154 0.253011 211 1 23 -0.930372 0.000000 0.366618
-0.284693 -0.185185 0.226035 211 1 23 0.000000 -1.000000 0.000000
-0.328929 -0.185185 0.424152 211 1 23 0.000000 -1.000000 0.000000
-0.431429 -0.106439 0.301422 211 1 23 -0.657862 0.707117 0.259234
-0.107938 -0.181350 0.454477 211 1 23 0.000000 0.000000 1.000000
-0.348757 -0.185185 0.354560 211 1 23 0.000000 -1.000000 0.000000
-0.401774 -0.092734 0.332064 211 1 23 -0.626339 0.707118 0.328151
-0.194860 -0.061729 0.122818 211 1 23 0.000000 1.000000 0.000000
-0.070481 -0.185185 0.378110 211 1 23 0.000000 -1.000000 0.000000
-0.002838 -0.185185 0.167847 211 1 23 0.000000 -1.000000 0.000000
-0.486797 -0.179602 0.131892 211 1 23 -0.987087 0.000000 0.160187
-0.399501 -0.162620 0.377958 211 1 23 -0.885778 0.000000 0.464109
-0.075215 -0.061729 0.162376 211 1 23 0.000000 1.000000 0.000000
-0.142461 -0.061729 0.222360 211 1 23 0.000000 1.000000 0.000000
-0.441053 -0.185185 0.257866 211 1 23 0.000000 -1.000000 0.000000
-0.064049 -0.061729 0.104706 211 1 23 0.000000 1.000000 0.000000
-0.004974 -0.061729 0.235249 211 1 23 0.000000 1.000000 0.000000
-0.291763 -0.095522 0.437977 211 1 23 0.000000 0.707121 0.707093
-0.390467 -0.185185 0.041659 211 1 23 0.000000 -1.000000 0.000000
-0.487881 -0.163052 0.125211 211 1 23 -0.987087 0.000000 0.160187
-0.262205 -0.061729 0.198700 211 1 23 0.000000 1.000000 0.000000
-0.233089 -0.061729 0.168790 211 1 23 0.000000 1.000000 0.000000
-0.425878 -0.160648 0.327616 211 1 23 -0.885778 0.000000 0.464109
-0.059540 -0.061729 0.044368 211 1 23 0.000000 1.000000 0.000000
-0.029600 -0.185185 0.094268 211 1 23 0.000000 -1.000000 0.000000
-0.150290 -0.185185 0.130888 211 1 23 0.000000 -1.000000 0.000000
-0.333599 -0.138976 0.454477 211 1 23 0.000000 0.000000 1.000000
-0.318081 -0.185185 0.205750 211 1 23 0.000000 -1.000000 0.000000
-0.347442 -0.123342 0.454477 211 1 23 0.000000 0.000000 1.000000
-0.102605 -0.061729 0.282142 211 1 23 0.000000 1.000000 0.000000
-0.029841 -0.061729 0.057833 211 1 23 0.000000 1.000000 0.000000
-0.266373 -0.061729 0.396846 211 1 23 0.000000 1.000000 0.000000
-0.103201 -0.185185 0.132568 211 1 23 0.000000 -1.000000 0.000000
-0.263323 -0.185185 0.209872 211 1 23 0.000000 -1.000000 0.000000
-0.202430 -0.061729 0.251410 211 1 23 0.000000 1.000000 0.000000
-0.255577 -0.185185 0.067220 211 1 23 0.000000 -1.000000 0.000000
-0.038365 -0.185185 0.373910 211 1 23 0.000000 -1.000000 0.000000
-0.496389 -0.170918 0.039304 211 1 23 -0.998563 0.000000 0.053585
-0.042634 -0.185185 0.401334 211 1 23 0.000000 -1.000000 0.000000
-0.365276 -0.170196 0.431378 211 1 23 -0.831026 0.000000 0.556234
-0.352321 -0.185185 0.352716 211 1 23 0.000000 -1.000000 0.000000
-0.067888 -0.061729 0.256640 211 1 23 0.000000 1.000000 0.000000
-0.432875 -0.185185 0.147952 211 1 23 0.000000 -1.000000 0.000000
-0.248835 -0.061729 0.064096 211 1 23 0.000000 1.000000 0.000000
-0.216622 -0.185185 0.389634 211 1 23 0.000000 -1.000000 0.000000
-0.415210 -0.067555 0.236516 211 1 23 -0.657863 0.707115 0.259238
-0.274527 -0.061729 0.400503 211 1 23 0.000000 1.000000 0.000000
-0.293522 -0.061729 0.224066 211 1 23 0.000000 1.000000 0.000000
-0.497653 -0.171917 0.015759 211 1 23 -0.998563 0.000000 0.053585
-0.304163 -0.185185 0.389746 211 1 23 0.000000 -1.000000 0.000000
-0.336959 -0.185185 0.030164 211 1 23 0.000000 -1.000000 0.000000
-0.376613 -0.061729 0.262051 211 1 23 0.000000 1.000000 0.000000
-0.423410 -0.100037 0.304310 211 1 23 -0.657862 0.707117 0.259234
-0.281055 -0.061729 0.221507 211 1 23 0.000000 1.000000 0.000000
-0.028237 -0.061729 0.351495 211 1 23 0.000000 1.000000 0.000000
-0.313445 -0.185185 0.175792 211 1 23 0.000000 -1.000000 0.000000
-0.045150 -0.061729 0.201148 211 1 23 0.000000 1.000000 0.000000
-0.314412 -0.061729 0.029522 211 1 23 0.000000 1.000000 0.000000
-0.152703 -0.061729 0.059973 211 1 23 0.000000 1.000000 0.000000
-0.277015 -0.061729 0.072161 211 1 23 0.000000 1.000000 0.000000
-0.181081 -0.061729 0.328093 211 1 23 0.000000 1.000000 0.000000
-0.363090 -0.110934 0.432690 211 1 23 -0.587612 0.707121 0.393309
-0.270739 -0.185185 0.424059 211 1 23 0.000000 -1.000000 0.000000
-0.426057 -0.185185 0.301049 211 1 23 0.000000 -1.000000 0.000000
-0.065927 -0.061729 0.063511 211 1 23 0.000000 1.000000 0.000000
-0.104938 -0.185185 0.450781 211 1 23 0.000000 -1.000000 0.000000
-0.096282 -0.061729 0.216149 211 1 23 0.000000 1.000000 0.000000
-0.174517 -0.061729 0.141808 211 1 23 0.000000 1.000000 0.000000
-0.224321 -0.185185 0.240612 211 1 23 0.000000 -1.000000 0.000000
-0.413193 -0.101913 0.330047 211 1 23 -0.626344 0.707102 0.328177
-0.253514 -0.185185 0.063163 211 1 23 0.000000 -1.000000 0.000000
-0.298608 -0.061729 0.200414 211 1 23 0.000000 1.000000 0.000000
-0.363601 -0.185185 0.305709 211 1 23 0.000000 -1.000000 0.000000
-0.258040 -0.185185 0.438392 211 1 23 0.000000 -1.000000 0.000000
-0.347069 -0.185185 0.088978 211 1 23 0.000000 -1.000000 0.000000
-0.192798 -0.061729 0.252748 211 1 23 0.000000 1.000000 0.000000
-0.090214 -0.185185 0.120968 211 1 23 0.000000 -1.000000 0.000000
-0.389904 -0.061729 0.110748 211 1 23 0.000000 1.000000 0.000000
-0.434104 -0.104851 0.290302 211 1 23 -0.657862 0.707117 0.259234
-0.021171 -0.185185 0.295104 211 1 23 0.000000 -1.000000 0.000000
-0.237016 -0.140484 0.454477 211 1 23 0.000000 0.000000 1.000000
-0.177037 -0.100003 0.442459 211 1 23 0.000000 0.707121 0.707093
-0.139417 -0.185185 0.266487 211 1 23 0.000000 -1.000000 0.000000
-0.076986 -0.185185 0.087025 211 1 23 0.000000 -1.000000 0.000000
-0.146617 -0.061729 0.226567 211 1 23 0.000000 1.000000 0.000000
-0.012753 -0.185185 0.199144 211 1 23 0.000000 -1.000000 0.000000
-0.362303 -0.095686 0.406452 211 1 23 -0.587612 0.707121 0.393309
-0.383212 -0.185185 0.216153 211 1 23 0.000000 -1.000000 0.000000
-0.268743 -0.061729 0.037139 211 1 23 0.000000 1.000000 0.000000
-0.121898 -0.185185 0.374678 211 1 23 0.000000 -1.000000 0.000000
-0.224025 -0.061729 0.193918 211 1 23 0.000000 1.000000 0.000000
-0.264293 -0.061729 0.382100 211 1 23 0.000000 1.000000 0.000000
-0.211172 -0.061729 0.219394 211 1 23 0.000000 1.000000 0.000000
-0.158626 -0.103295 0.445751 211 1 23 0.000000 0.707121 0.707093
-0.009955 -0.061729 0.048001 211 1 23 0.000000 1.000000 0.000000
-0.064622 -0.185185 0.342940 211 1 23 0.000000 -1.000000 0.000000
-0.032159 -0.061729 0.121989 211 1 23 0.000000 1.000000 0.000000
