ply
format ascii 1.0
element vertex 689
property float x
property float y
property float z
property uchar red
property uchar green
property uchar blue
property float nx
property float ny
property float nz
end_header
-0.008594 -0.320911 -0.158073 107 77 234 0.000000 -1.000000 0.000000
0.006173 -0.247035 -0.004049 107 77 234 0.000000 -1.000000 0.000000
-0.051092 -0.320911 -0.035608 107 77 234 0.000000 -1.000000 0.000000
0.056693 -0.083121 -0.109632 107 77 234 -0.021440 0.999405 -0.027012
0.011140 -0.320911 -0.364134 107 77 234 0.000000 -1.000000 0.000000
-0.069857 -0.086725 -0.028644 107 77 234 -0.069376 0.997280 -0.024895
-0.226844 -0.247035 -0.166712 107 77 234 0.000000 -1.000000 0.000000
-0.229179 -0.247035 -0.086998 107 77 234 0.000000 -1.000000 0.000000
-0.198272 -0.138175 -0.352716 107 77 234 -0.581949 0.728375 -0.361671
0.081470 -0.320911 -0.144705 107 77 234 0.000000 -1.000000 0.000000
-0.332918 -0.184896 -0.139065 107 77 234 -0.992899 -0.002005 -0.118946
-0.004746 -0.247035 -0.407247 107 77 234 0.000000 -1.000000 0.000000
-0.132101 -0.096455 -0.179127 107 77 234 -0.075780 0.996708 -0.028832
-0.049160 -0.086944 -0.104365 107 77 234 -0.062707 0.997843 -0.019400
-0.194603 -0.320911 -0.220771 107 77 234 0.000000 -1.000000 0.000000
-0.002902 -0.083520 -0.074846 107 77 234 -0.023714 0.999407 -0.024948
-0.189215 -0.194747 -0.406711 107 77 234 -0.509513 0.310931 -0.802321
-0.169633 -0.108040 -0.279979 107 77 234 -0.376351 0.916887 -0.132962
-0.340883 -0.176619 -0.030532 107 77 234 -0.999903 -0.000039 -0.013936
-0.110442 -0.124459 -0.355198 107 77 234 -0.071114 0.937674 -0.340162
-0.095279 -0.320911 -0.236336 107 77 234 0.000000 -1.000000 0.000000
0.062066 -0.276827 -0.423498 107 77 234 -0.060972 -0.010288 -0.998086
0.026107 -0.315721 -0.421871 107 77 234 -0.060482 -0.094573 -0.993679
-0.015829 -0.320911 -0.063311 107 77 234 0.000000 -1.000000 0.000000
-0.307352 -0.233930 -0.129838 107 77 234 0.993160 0.001197 0.116758
-0.123677 -0.295519 -0.406310 107 77 234 -0.142819 -0.057938 -0.988052
0.066437 -0.095154 -0.274164 107 77 234 -0.009995 0.995243 -0.096906
-0.341014 -0.192014 -0.021079 107 77 234 -0.999903 -0.000039 -0.013936
-0.282970 -0.320911 -0.005081 107 77 234 0.000000 -1.000000 0.000000
-0.232387 -0.320911 -0.214570 107 77 234 0.000000 -1.000000 0.000000
-0.051295 -0.091386 -0.191668 107 77 234 -0.048012 0.997090 -0.059222
-0.279267 -0.320911 -0.013852 107 77 234 0.000000 -1.000000 0.000000
-0.233616 -0.320911 -0.211283 107 77 234 0.000000 -1.000000 0.000000
0.074178 -0.320911 -0.164929 107 77 234 0.000000 -1.000000 0.000000
-0.107228 -0.132664 -0.378595 107 77 234 -0.053925 0.941666 -0.332201
0.046721 -0.082613 -0.082898 107 77 234 -0.021440 0.999405 -0.027012
-0.209268 -0.320911 -0.060701 107 77 234 0.000000 -1.000000 0.000000
-0.185935 -0.247035 -0.164462 107 77 234 0.000000 -1.000000 0.000000
-0.086739 -0.093163 -0.191360 107 77 234 -0.062652 0.996964 -0.046236
0.068885 -0.094115 -0.263745 107 77 234 -0.009995 0.995243 -0.096906
-0.191939 -0.104245 -0.066042 107 77 234 -0.374440 0.927117 -0.015795
0.046076 -0.320911 -0.115176 107 77 234 0.000000 -1.000000 0.000000
-0.087878 -0.247035 -0.224518 107 77 234 0.000000 -1.000000 0.000000
-0.288396 -0.319528 -0.223041 107 77 234 -0.128221 0.991630 -0.015174
0.028537 -0.081597 -0.027725 107 77 234 -0.023714 0.999407 -0.024948
-0.315321 -0.243109 -0.238196 107 77 234 -0.972794 0.023449 -0.230482
-0.218479 -0.115154 -0.082500 107 77 234 -0.370539 0.928745 -0.011594
-0.126406 -0.247035 -0.357152 107 77 234 0.000000 -1.000000 0.000000
0.023469 -0.320911 -0.187476 107 77 234 0.000000 -1.000000 0.000000
-0.065590 -0.233093 -0.407380 107 77 234 -0.116366 0.206474 -0.971508
-0.329340 -0.185257 -0.165693 107 77 234 -0.989878 0.002496 -0.141902
-0.323301 -0.190645 -0.199160 107 77 234 -0.976865 0.010818 -0.213583
-0.081476 -0.247035 -0.131804 107 77 234 0.000000 -1.000000 0.000000
0.099372 -0.320911 -0.099131 107 77 234 0.000000 -1.000000 0.000000
0.076421 -0.209836 -0.442363 107 77 234 -0.060922 -0.012808 -0.998060
-0.290549 -0.165493 -0.192887 107 77 234 -0.720945 0.687591 -0.086347
0.088859 -0.247035 -0.298855 107 77 234 0.000000 -1.000000 0.000000
-0.170908 -0.105693 -0.253253 107 77 234 -0.353108 0.930998 -0.092501
-0.197120 -0.247035 -0.391946 107 77 234 0.000000 -1.000000 0.000000
-0.001574 -0.247035 -0.210340 107 77 234 0.000000 -1.000000 0.000000
-0.034083 -0.282229 -0.417280 107 77 234 -0.117434 -0.009955 -0.993031
-0.045008 -0.320911 -0.019860 107 77 234 0.000000 -1.000000 0.000000
0.069113 -0.096308 -0.286290 107 77 234 -0.009995 0.995243 -0.096906
-0.049730 -0.320911 -0.191848 107 77 234 0.000000 -1.000000 0.000000
0.019842 -0.320911 -0.068061 107 77 234 0.000000 -1.000000 0.000000
-0.021103 -0.320911 -0.382534 107 77 234 0.000000 -1.000000 0.000000
-0.010208 -0.320911 -0.172375 107 77 234 0.000000 -1.000000 0.000000
-0.265524 -0.133575 -0.054688 107 77 234 -0.370539 0.928745 -0.011594
-0.086627 -0.087392 -0.008662 107 77 234 -0.069376 0.997280 -0.024895
-0.315537 -0.320911 -0.015307 107 77 234 0.000000 -1.000000 0.000000
-0.132303 -0.247035 -0.010369 107 77 234 0.000000 -1.000000 0.000000
0.069185 -0.149822 -0.420068 107 77 234 -0.045782 0.656993 -0.752505
-0.316639 -0.177272 -0.227513 107 77 234 -0.969791 0.010885 -0.243696
0.015650 -0.247035 -0.113113 107 77 234 0.000000 -1.000000 0.000000
-0.303837 -0.227586 -0.132914 107 77 234 0.967688 -0.223849 0.116066
-0.314750 -0.242006 -0.012506 107 77 234 0.999907 0.000000 0.013646
-0.001415 -0.146769 -0.413105 107 77 234 -0.045823 0.656916 -0.752570
0.034738 -0.320911 -0.097647 107 77 234 0.000000 -1.000000 0.000000
-0.189273 -0.320911 -0.109303 107 77 234 0.000000 -1.000000 0.000000
-0.313147 -0.244212 -0.031511 107 77 234 -0.973887 0.225037 -0.030029
0.043094 -0.320911 -0.121604 107 77 234 0.000000 -1.000000 0.000000
-0.310179 -0.226519 -0.257258 107 77 234 -0.967333 0.039410 -0.250427
-0.039518 -0.090710 -0.189839 107 77 234 -0.048012 0.997090 -0.059222
-0.010073 -0.320911 -0.009620 107 77 234 0.000000 -1.000000 0.000000
0.032579 -0.320911 -0.375435 107 77 234 0.000000 -1.000000 0.000000
-0.262778 -0.320911 -0.060993 107 77 234 0.000000 -1.000000 0.000000
0.073338 -0.247035 -0.306634 107 77 234 0.000000 -1.000000 0.000000
-0.176607 -0.320911 -0.228853 107 77 234 0.000000 -1.000000 0.000000
0.090707 -0.087861 -0.195297 107 77 234 -0.021404 0.997704 -0.064254
-0.209357 -0.247035 -0.162010 107 77 234 0.000000 -1.000000 0.000000
-0.296809 -0.270514 -0.211071 107 77 234 -0.784851 -0.616993 -0.057703
0.048480 -0.132994 -0.395713 107 77 234 -0.020930 0.938730 -0.344017
-0.220476 -0.320911 -0.053380 107 77 234 0.000000 -1.000000 0.000000
-0.303933 -0.196398 -0.155465 107 77 234 -0.955035 0.274078 -0.113094
0.029574 -0.083316 -0.095314 107 77 234 -0.021440 0.999405 -0.027012
-0.088978 -0.320911 -0.189983 107 77 234 0.000000 -1.000000 0.000000
-0.083508 -0.247035 -0.354765 107 77 234 0.000000 -1.000000 0.000000
-0.289758 -0.247035 -0.059768 107 77 234 0.000000 -1.000000 0.000000
-0.053973 -0.247035 -0.252578 107 77 234 0.000000 -1.000000 0.000000
-0.136512 -0.202041 -0.421323 107 77 234 -0.143189 -0.012773 -0.989613
-0.049622 -0.091265 -0.190988 107 77 234 -0.048012 0.997090 -0.059222
-0.173829 -0.109663 -0.279288 107 77 234 -0.376351 0.916887 -0.132962
-0.123253 -0.116042 -0.329319 107 77 234 -0.071114 0.937674 -0.340162
0.003735 -0.247035 -0.240797 107 77 234 0.000000 -1.000000 0.000000
-0.273542 -0.320911 -0.060573 107 77 234 0.000000 -1.000000 0.000000
-0.136453 -0.094858 -0.131196 107 77 234 -0.099800 0.993911 -0.046710
-0.198381 -0.247035 -0.301126 107 77 234 0.000000 -1.000000 0.000000
-0.286281 -0.247035 -0.192870 107 77 234 0.000000 -1.000000 0.000000
-0.016538 -0.183642 -0.432956 107 77 234 -0.115171 0.249357 -0.961539
-0.156677 -0.320911 -0.341310 107 77 234 0.000000 -1.000000 0.000000
-0.126892 -0.105821 -0.300382 107 77 234 -0.071114 0.937674 -0.340162
0.052632 -0.124912 -0.373911 107 77 234 -0.020930 0.938730 -0.344017
-0.021317 -0.140494 -0.405730 107 77 234 -0.091825 0.659549 -0.746032
0.044898 -0.149024 -0.417893 107 77 234 -0.045782 0.656993 -0.752505
0.078894 -0.320911 -0.368967 107 77 234 0.000000 -1.000000 0.000000
0.018073 -0.247035 -0.200809 107 77 234 0.000000 -1.000000 0.000000
-0.198848 -0.320911 -0.336249 107 77 234 0.000000 -1.000000 0.000000
-0.047140 -0.098205 -0.281908 107 77 234 -0.029266 0.997187 -0.069000
-0.005371 -0.320911 -0.089350 107 77 234 0.000000 -1.000000 0.000000
-0.100049 -0.104488 -0.302319 107 77 234 -0.071114 0.937674 -0.340162
-0.139260 -0.247035 -0.262761 107 77 234 0.000000 -1.000000 0.000000
0.048800 -0.320911 -0.236611 107 77 234 0.000000 -1.000000 0.000000
-0.083044 -0.247035 -0.275612 107 77 234 0.000000 -1.000000 0.000000
-0.021848 -0.247035 -0.091301 107 77 234 0.000000 -1.000000 0.000000
-0.224039 -0.117573 -0.098606 107 77 234 -0.370539 0.928745 -0.011594
-0.241855 -0.142666 -0.281529 107 77 234 -0.681967 0.690799 -0.240247
-0.313227 -0.205348 -0.062073 107 77 234 0.999149 -0.000031 0.041243
-0.220628 -0.247035 -0.022379 107 77 234 0.000000 -1.000000 0.000000
0.057553 -0.320911 -0.394059 107 77 234 0.000000 -1.000000 0.000000
0.001445 -0.247035 -0.296918 107 77 234 0.000000 -1.000000 0.000000
0.006194 -0.247035 -0.328101 107 77 234 0.000000 -1.000000 0.000000
-0.293197 -0.247035 -0.203042 107 77 234 0.000000 -1.000000 0.000000
-0.225992 -0.247035 -0.153705 107 77 234 0.000000 -1.000000 0.000000
-0.096164 -0.247035 -0.081630 107 77 234 0.000000 -1.000000 0.000000
-0.199606 -0.320911 -0.022328 107 77 234 0.000000 -1.000000 0.000000
-0.278014 -0.306513 -0.267639 107 77 234 -0.951436 0.247079 -0.183637
-0.068685 -0.247035 -0.305482 107 77 234 0.000000 -1.000000 0.000000
-0.269965 -0.247035 -0.112896 107 77 234 0.000000 -1.000000 0.000000
-0.189965 -0.247035 -0.275962 107 77 234 0.000000 -1.000000 0.000000
-0.161767 -0.221477 -0.417414 107 77 234 -0.143263 -0.012986 -0.989599
-0.172958 -0.320911 -0.034390 107 77 234 0.000000 -1.000000 0.000000
0.090305 -0.268946 -0.423288 107 77 234 0.031165 -0.010302 -0.999461
-0.158464 -0.098617 -0.184574 107 77 234 -0.075780 0.996708 -0.028832
-0.314398 -0.222771 -0.033665 107 77 234 0.999154 0.000000 0.041120
-0.102967 -0.320911 -0.010674 107 77 234 0.000000 -1.000000 0.000000
0.090572 -0.082111 -0.099151 107 77 234 -0.021440 0.999405 -0.027012
-0.215340 -0.247035 -0.100007 107 77 234 0.000000 -1.000000 0.000000
-0.312756 -0.241324 -0.022528 107 77 234 -0.973887 0.225037 -0.030029
-0.077250 -0.320911 -0.402601 107 77 234 0.000000 -1.000000 0.000000
-0.285205 -0.222062 -0.248511 107 77 234 0.965498 -0.041396 0.257099
-0.286407 -0.147307 -0.001087 107 77 234 -0.724106 0.689316 -0.022656
-0.187828 -0.210386 -0.408322 107 77 234 -0.535836 -0.014023 -0.844206
-0.035236 -0.247035 -0.260226 107 77 234 0.000000 -1.000000 0.000000
0.029092 -0.320911 -0.272991 107 77 234 0.000000 -1.000000 0.000000
-0.262569 -0.320911 -0.038499 107 77 234 0.000000 -1.000000 0.000000
-0.034247 -0.320911 -0.243707 107 77 234 0.000000 -1.000000 0.000000
-0.237378 -0.122126 -0.038451 107 77 234 -0.374440 0.927117 -0.015795
-0.082691 -0.320911 -0.051347 107 77 234 0.000000 -1.000000 0.000000
-0.017470 -0.238795 -0.413683 107 77 234 0.059496 -0.207403 0.976445
0.020163 -0.081505 -0.016054 107 77 234 -0.023714 0.999407 -0.024948
-0.143081 -0.320911 -0.300524 107 77 234 0.000000 -1.000000 0.000000
-0.314844 -0.320911 -0.008944 107 77 234 0.000000 -1.000000 0.000000
-0.167923 -0.320911 -0.229808 107 77 234 0.000000 -1.000000 0.000000
-0.043458 -0.119823 -0.352161 107 77 234 -0.041407 0.938149 -0.343746
-0.106954 -0.092093 -0.135409 107 77 234 -0.099800 0.993911 -0.046710
-0.317187 -0.276027 -0.023528 107 77 234 -0.998809 -0.037815 -0.030818
-0.116857 -0.109008 -0.311265 107 77 234 -0.071114 0.937674 -0.340162
-0.169171 -0.293981 -0.399788 107 77 234 -0.143482 -0.010986 -0.989592
-0.056821 -0.129897 -0.378047 107 77 234 -0.041407 0.938149 -0.343746
0.089489 -0.320911 -0.401009 107 77 234 0.000000 -1.000000 0.000000
0.053927 -0.320911 -0.063226 107 77 234 0.000000 -1.000000 0.000000
-0.003986 -0.320911 -0.245116 107 77 234 0.000000 -1.000000 0.000000
0.091719 -0.247035 -0.184994 107 77 234 0.000000 -1.000000 0.000000
-0.132044 -0.247035 -0.361664 107 77 234 0.000000 -1.000000 0.000000
-0.214791 -0.257171 -0.378767 107 77 234 0.517669 -0.259355 0.815324
-0.251191 -0.247035 -0.089758 107 77 234 0.000000 -1.000000 0.000000
-0.170890 -0.320911 -0.310782 107 77 234 0.000000 -1.000000 0.000000
-0.210571 -0.228252 -0.372589 107 77 234 0.534577 -0.237409 0.811089
-0.164041 -0.320911 -0.303424 107 77 234 0.000000 -1.000000 0.000000
0.020593 -0.320911 -0.192377 107 77 234 0.000000 -1.000000 0.000000
-0.208655 -0.306049 -0.385224 107 77 234 -0.419175 0.624447 -0.659058
-0.160031 -0.320911 0.000491 107 77 234 0.000000 -1.000000 0.000000
-0.092090 -0.100693 -0.293240 107 77 234 -0.044863 0.939006 -0.340962
-0.207751 -0.247035 -0.251300 107 77 234 0.000000 -1.000000 0.000000
-0.175343 -0.320911 -0.297230 107 77 234 0.000000 -1.000000 0.000000
-0.080877 -0.247035 -0.054169 107 77 234 0.000000 -1.000000 0.000000
-0.201296 -0.320911 -0.334412 107 77 234 0.000000 -1.000000 0.000000
-0.227244 -0.122538 -0.202717 107 77 234 -0.355685 0.933488 -0.045700
0.009349 -0.243939 -0.437565 107 77 234 -0.031180 -0.858131 -0.512484
-0.174891 -0.102884 -0.208716 107 77 234 -0.355685 0.933488 -0.045700
-0.243888 -0.127113 -0.154485 107 77 234 -0.370319 0.928374 -0.031395
-0.263553 -0.320911 -0.163242 107 77 234 0.000000 -1.000000 0.000000
0.063693 -0.320911 -0.113681 107 77 234 0.000000 -1.000000 0.000000
-0.314508 -0.225565 -0.030240 107 77 234 0.999907 0.000000 0.013646
-0.210637 -0.320911 -0.112890 107 77 234 0.000000 -1.000000 0.000000
-0.285172 -0.195701 -0.245991 107 77 234 0.964819 -0.011100 0.262681
-0.121946 -0.315480 -0.407386 107 77 234 -0.144610 -0.095645 -0.984855
-0.212962 -0.112824 -0.072311 107 77 234 -0.370539 0.928745 -0.011594
-0.311352 -0.161027 -0.089892 107 77 234 0.997714 -0.000090 0.067574
-0.296287 -0.247753 -0.291339 107 77 234 -0.012162 -0.999908 -0.005956
0.060130 -0.320911 -0.381626 107 77 234 0.000000 -1.000000 0.000000
-0.076557 -0.087374 -0.037948 107 77 234 -0.062707 0.997843 -0.019400
-0.127027 -0.258600 -0.405311 107 77 234 -0.139974 0.210145 -0.967598
0.019432 -0.247035 -0.338482 107 77 234 0.000000 -1.000000 0.000000
-0.302460 -0.320911 -0.133436 107 77 234 0.000000 -1.000000 0.000000
-0.188945 -0.247035 -0.184123 107 77 234 0.000000 -1.000000 0.000000
-0.009196 -0.082287 -0.019511 107 77 234 -0.023714 0.999407 -0.024948
-0.113010 -0.247035 -0.225518 107 77 234 0.000000 -1.000000 0.000000
-0.270674 -0.320911 -0.048773 107 77 234 0.000000 -1.000000 0.000000
-0.026363 -0.239448 -0.436129 107 77 234 -0.116620 -0.114800 -0.986520
-0.122315 -0.247035 -0.240638 107 77 234 0.000000 -1.000000 0.000000
0.082311 -0.128897 -0.386455 107 77 234 -0.017080 0.939910 -0.340995
0.085291 -0.088675 -0.206143 107 77 234 -0.021404 0.997704 -0.064254
-0.155974 -0.320911 -0.090262 107 77 234 0.000000 -1.000000 0.000000
-0.193150 -0.247035 -0.073379 107 77 234 0.000000 -1.000000 0.000000
0.099262 -0.088879 -0.209264 107 77 234 0.015750 0.998108 -0.059439
-0.294436 -0.241050 -0.218615 107 77 234 -0.922744 0.223438 -0.314038
0.098992 -0.247035 -0.207164 107 77 234 0.000000 -1.000000 0.000000
0.053596 -0.247035 -0.130630 107 77 234 0.000000 -1.000000 0.000000
0.080380 -0.230172 -0.442011 107 77 234 -0.060616 -0.068087 -0.995836
-0.305686 -0.194383 -0.135776 107 77 234 -0.955035 0.274078 -0.113094
-0.170628 -0.320911 -0.175732 107 77 234 0.000000 -1.000000 0.000000
-0.168570 -0.247035 -0.046547 107 77 234 0.000000 -1.000000 0.000000
-0.016326 -0.320911 -0.328359 107 77 234 0.000000 -1.000000 0.000000
-0.192692 -0.247035 -0.344362 107 77 234 0.000000 -1.000000 0.000000
-0.069139 -0.247035 -0.340837 107 77 234 0.000000 -1.000000 0.000000
-0.199229 -0.320911 -0.290216 107 77 234 0.000000 -1.000000 0.000000
-0.136290 -0.247035 -0.132600 107 77 234 0.000000 -1.000000 0.000000
-0.009080 -0.082074 -0.011079 107 77 234 -0.023714 0.999407 -0.024948
-0.081318 -0.089114 -0.111389 107 77 234 -0.062652 0.996964 -0.046236
0.099918 -0.247035 -0.095835 107 77 234 0.000000 -1.000000 0.000000
0.077092 -0.320911 -0.180685 107 77 234 0.000000 -1.000000 0.000000
-0.162541 -0.247035 -0.253440 107 77 234 0.000000 -1.000000 0.000000
0.079654 -0.233172 -0.417378 107 77 234 0.030485 0.208064 -0.977640
-0.217286 -0.265531 -0.378938 107 77 234 -0.535977 -0.011139 -0.844159
-0.297917 -0.247944 -0.252663 107 77 234 0.000019 -1.000000 -0.000015
-0.196749 -0.119941 -0.285291 107 77 234 -0.376351 0.916887 -0.132962
-0.125523 -0.247035 -0.063775 107 77 234 0.000000 -1.000000 0.000000
-0.265666 -0.247035 -0.138004 107 77 234 0.000000 -1.000000 0.000000
-0.195216 -0.320911 -0.173776 107 77 234 0.000000 -1.000000 0.000000
-0.145548 -0.160172 -0.406300 107 77 234 -0.110207 0.677585 -0.727140
-0.311444 -0.311810 -0.101569 107 77 234 -0.951436 0.247079 -0.183637
-0.140536 -0.092576 0.000186 107 77 234 -0.110869 0.993760 -0.012250
-0.201161 -0.247035 -0.284794 107 77 234 0.000000 -1.000000 0.000000
-0.310430 -0.199049 -0.100311 107 77 234 0.995700 0.000675 0.092638
-0.261455 -0.247035 -0.009079 107 77 234 0.000000 -1.000000 0.000000
-0.073118 -0.247035 -0.407357 107 77 234 0.000000 -1.000000 0.000000
0.005306 -0.320911 -0.087211 107 77 234 0.000000 -1.000000 0.000000
-0.223215 -0.122464 -0.222380 107 77 234 -0.353108 0.930998 -0.092501
-0.254708 -0.131607 -0.159742 107 77 234 -0.370319 0.928374 -0.031395
-0.314187 -0.230662 -0.038794 107 77 234 0.999154 0.000000 0.041120
-0.276426 -0.137842 -0.032117 107 77 234 -0.724106 0.689316 -0.022656
-0.307714 -0.188575 -0.085992 107 77 234 -0.961985 0.271462 -0.029873
-0.161869 -0.320911 -0.237673 107 77 234 0.000000 -1.000000 0.000000
-0.210060 -0.282786 -0.383296 107 77 234 -0.535733 -0.011635 -0.844307
-0.210622 -0.120192 -0.247585 107 77 234 -0.353108 0.930998 -0.092501
-0.196860 -0.115411 -0.251991 107 77 234 -0.353108 0.930998 -0.092501
0.050391 -0.320911 -0.073424 107 77 234 0.000000 -1.000000 0.000000
-0.293836 -0.206691 -0.211514 107 77 234 0.978778 -0.005730 0.204841
-0.017527 -0.247035 -0.369162 107 77 234 0.000000 -1.000000 0.000000
-0.011507 -0.320911 -0.059118 107 77 234 0.000000 -1.000000 0.000000
-0.302861 -0.320911 -0.143580 107 77 234 0.000000 -1.000000 0.000000
-0.146776 -0.140623 -0.387984 107 77 234 -0.127440 0.659725 -0.740623
-0.075951 -0.247035 -0.371752 107 77 234 0.000000 -1.000000 0.000000
-0.102736 -0.320911 -0.153615 107 77 234 0.000000 -1.000000 0.000000
-0.305467 -0.178252 -0.064544 107 77 234 -0.961985 0.271462 -0.029873
-0.307663 -0.294241 -0.097520 107 77 234 -0.951436 0.247079 -0.183637
-0.125819 -0.247035 -0.170712 107 77 234 0.000000 -1.000000 0.000000
0.001780 -0.320911 -0.354719 107 77 234 0.000000 -1.000000 0.000000
0.020496 -0.247035 -0.339870 107 77 234 0.000000 -1.000000 0.000000
0.013097 -0.083261 -0.079703 107 77 234 -0.023714 0.999407 -0.024948
-0.136138 -0.247035 -0.281200 107 77 234 0.000000 -1.000000 0.000000
-0.297833 -0.320911 -0.197713 107 77 234 0.000000 -1.000000 0.000000
-0.099665 -0.247035 -0.340800 107 77 234 0.000000 -1.000000 0.000000
0.045323 -0.320911 -0.086740 107 77 234 0.000000 -1.000000 0.000000
-0.146625 -0.320911 -0.118204 107 77 234 0.000000 -1.000000 0.000000
-0.308255 -0.190803 -0.260952 107 77 234 -0.964660 0.019410 -0.262780
-0.008898 -0.247035 -0.034134 107 77 234 0.000000 -1.000000 0.000000
-0.288073 -0.149860 -0.025544 107 77 234 -0.724106 0.689316 -0.022656
-0.127976 -0.091612 -0.035284 107 77 234 -0.110869 0.993760 -0.012250
0.015127 -0.320911 -0.261276 107 77 234 0.000000 -1.000000 0.000000
0.083736 -0.226937 -0.415920 107 77 234 -0.030710 -0.208654 0.977507
-0.042893 -0.320911 -0.149172 107 77 234 0.000000 -1.000000 0.000000
-0.317045 -0.298323 -0.000764 107 77 234 -0.998809 -0.037815 -0.030818
0.014757 -0.081571 -0.013585 107 77 234 -0.023714 0.999407 -0.024948
-0.228101 -0.247035 -0.271726 107 77 234 0.000000 -1.000000 0.000000
-0.228944 -0.247035 -0.264182 107 77 234 0.000000 -1.000000 0.000000
-0.297467 -0.172250 -0.152035 107 77 234 -0.956018 0.270036 -0.114501
-0.341040 -0.219693 -0.017818 107 77 234 -0.999934 -0.000693 -0.011463
-0.136209 -0.094725 -0.128886 107 77 234 -0.099800 0.993911 -0.046710
-0.266036 -0.247035 -0.138576 107 77 234 0.000000 -1.000000 0.000000
-0.323054 -0.209009 -0.201079 107 77 234 -0.977272 0.008258 -0.211828
-0.308775 -0.227560 -0.262847 107 77 234 -0.967333 0.039410 -0.250427
-0.102345 -0.320911 -0.137258 107 77 234 0.000000 -1.000000 0.000000
-0.282076 -0.227165 -0.261082 107 77 234 0.965498 -0.041396 0.257099
-0.049918 -0.320911 -0.381886 107 77 234 0.000000 -1.000000 0.000000
0.063081 -0.083489 -0.118216 107 77 234 -0.021404 0.997704 -0.064254
-0.008324 -0.320911 -0.141873 107 77 234 0.000000 -1.000000 0.000000
-0.162750 -0.107930 -0.293887 107 77 234 -0.356135 0.905331 -0.231395
-0.311657 -0.223890 -0.085470 107 77 234 0.997754 0.000041 0.066991
0.082704 -0.320911 -0.086192 107 77 234 0.000000 -1.000000 0.000000
0.073719 -0.282386 -0.423667 107 77 234 0.031165 -0.010302 -0.999461
-0.331506 -0.218572 -0.150702 107 77 234 -0.992256 0.000403 -0.124211
0.010078 -0.247035 -0.278617 107 77 234 0.000000 -1.000000 0.000000
-0.131106 -0.091590 -0.005148 107 77 234 -0.110869 0.993760 -0.012250
-0.044548 -0.247035 -0.219598 107 77 234 0.000000 -1.000000 0.000000
0.059162 -0.247035 -0.226673 107 77 234 0.000000 -1.000000 0.000000
-0.089820 -0.222037 -0.427500 107 77 234 -0.117502 -0.012264 -0.992997
0.083721 -0.247035 -0.314174 107 77 234 0.000000 -1.000000 0.000000
0.025371 -0.083575 -0.101547 107 77 234 -0.021440 0.999405 -0.027012
0.027463 -0.091082 -0.224890 107 77 234 -0.016512 0.995891 -0.089041
0.094552 -0.090502 -0.228713 107 77 234 0.009639 0.995247 -0.096902
-0.309768 -0.237202 -0.088541 107 77 234 -0.973882 0.225060 -0.030037
-0.228633 -0.247035 -0.149542 107 77 234 0.000000 -1.000000 0.000000
-0.236291 -0.247035 -0.059469 107 77 234 0.000000 -1.000000 0.000000
0.062984 -0.113024 -0.341734 107 77 234 -0.017080 0.939910 -0.340995
-0.166513 -0.095959 -0.039184 107 77 234 -0.110869 0.993760 -0.012250
-0.023458 -0.082992 -0.008452 107 77 234 -0.069376 0.997280 -0.024895
0.066655 -0.247035 -0.041827 107 77 234 0.000000 -1.000000 0.000000
0.017116 -0.082780 -0.064243 107 77 234 -0.023714 0.999407 -0.024948
-0.101736 -0.225554 -0.425968 107 77 234 -0.117230 -0.069108 -0.990697
0.035619 -0.320911 -0.177105 107 77 234 0.000000 -1.000000 0.000000
-0.311607 -0.224084 -0.086212 107 77 234 0.997714 -0.000090 0.067574
0.062812 -0.247035 -0.037326 107 77 234 0.000000 -1.000000 0.000000
0.100741 -0.197473 -0.443179 107 77 234 0.031075 -0.012826 -0.999435
-0.030657 -0.247035 -0.041113 107 77 234 0.000000 -1.000000 0.000000
0.073617 -0.320911 -0.302236 107 77 234 0.000000 -1.000000 0.000000
-0.002190 -0.320911 -0.128421 107 77 234 0.000000 -1.000000 0.000000
-0.023556 -0.088063 -0.158199 107 77 234 -0.048012 0.997090 -0.059222
-0.129577 -0.320911 -0.145663 107 77 234 0.000000 -1.000000 0.000000
-0.067507 -0.306744 -0.414812 107 77 234 -0.116790 -0.094905 -0.988612
-0.302512 -0.272624 -0.110933 107 77 234 -0.784851 -0.616993 -0.057703
-0.311138 -0.273910 -0.052164 107 77 234 -0.951436 0.247079 -0.183637
-0.127813 -0.222256 -0.422319 107 77 234 -0.143263 -0.012986 -0.989599
-0.217063 -0.247035 -0.161801 107 77 234 0.000000 -1.000000 0.000000
0.073291 -0.320911 -0.155306 107 77 234 0.000000 -1.000000 0.000000
0.087449 -0.320911 -0.382858 107 77 234 0.000000 -1.000000 0.000000
-0.072302 -0.247035 -0.130281 107 77 234 0.000000 -1.000000 0.000000
-0.208461 -0.320911 -0.349684 107 77 234 0.000000 -1.000000 0.000000
-0.313450 -0.204216 -0.056669 107 77 234 0.999149 -0.000031 0.041243
0.048065 -0.130197 -0.388058 107 77 234 -0.020930 0.938730 -0.344017
-0.180795 -0.320911 -0.125255 107 77 234 0.000000 -1.000000 0.000000
0.015939 -0.247035 -0.256872 107 77 234 0.000000 -1.000000 0.000000
-0.172396 -0.320911 -0.123413 107 77 234 0.000000 -1.000000 0.000000
0.051551 -0.081527 -0.046531 107 77 234 -0.021440 0.999405 -0.027012
0.058408 -0.251874 -0.421094 107 77 234 -0.059644 0.207790 -0.976353
0.043172 -0.122663 -0.367203 107 77 234 -0.020930 0.938730 -0.344017
-0.083964 -0.214791 -0.428285 107 77 234 -0.117384 -0.012668 -0.993006
-0.125350 -0.092238 -0.082685 107 77 234 -0.099890 0.994807 -0.019495
-0.223131 -0.126696 -0.257201 107 77 234 -0.376351 0.916887 -0.132962
-0.010304 -0.264229 -0.419207 107 77 234 -0.060972 -0.010288 -0.998086
0.101164 -0.247035 -0.099918 107 77 234 0.000000 -1.000000 0.000000
0.070462 -0.247035 -0.065382 107 77 234 0.000000 -1.000000 0.000000
-0.266513 -0.320911 -0.253357 107 77 234 0.000000 -1.000000 0.000000
-0.001215 -0.247035 -0.193015 107 77 234 0.000000 -1.000000 0.000000
-0.120101 -0.320911 -0.028793 107 77 234 0.000000 -1.000000 0.000000
-0.155115 -0.102929 -0.285726 107 77 234 -0.353108 0.930998 -0.092501
-0.327258 -0.237749 -0.179596 107 77 234 -0.987606 -0.000735 -0.156951
-0.017011 -0.086655 -0.139816 107 77 234 -0.048012 0.997090 -0.059222
-0.057622 -0.194893 -0.431017 107 77 234 -0.113560 0.253462 -0.960657
-0.131125 -0.320911 -0.069648 107 77 234 0.000000 -1.000000 0.000000
-0.198212 -0.320911 -0.033892 107 77 234 0.000000 -1.000000 0.000000
-0.142630 -0.247035 -0.293369 107 77 234 0.000000 -1.000000 0.000000
-0.103437 -0.130203 -0.372495 107 77 234 -0.071114 0.937674 -0.340162
-0.083667 -0.247035 -0.359070 107 77 234 0.000000 -1.000000 0.000000
-0.317577 -0.261486 -0.017279 107 77 234 -0.973887 0.225037 -0.030029
-0.228126 -0.118599 -0.050736 107 77 234 -0.374440 0.927117 -0.015795
-0.284009 -0.247035 -0.239638 107 77 234 0.000000 1.000000 0.000000
-0.152797 -0.320911 -0.058503 107 77 234 0.000000 -1.000000 0.000000
-0.116512 -0.320911 -0.146998 107 77 234 0.000000 -1.000000 0.000000
-0.090990 -0.320911 -0.185227 107 77 234 0.000000 -1.000000 0.000000
-0.085205 -0.088791 -0.082897 107 77 234 -0.062707 0.997843 -0.019400
-0.061254 -0.320911 -0.385634 107 77 234 0.000000 -1.000000 0.000000
-0.001982 -0.088496 -0.178997 107 77 234 -0.016322 0.998108 -0.059283
0.063994 -0.320911 -0.322187 107 77 234 0.000000 -1.000000 0.000000
-0.064993 -0.178534 -0.425829 107 77 234 -0.113560 0.253462 -0.960657
-0.182495 -0.247035 -0.318774 107 77 234 0.000000 -1.000000 0.000000
-0.149736 -0.320911 -0.278844 107 77 234 0.000000 -1.000000 0.000000
-0.134067 -0.247035 -0.000092 107 77 234 0.000000 -1.000000 0.000000
-0.239695 -0.247035 -0.229354 107 77 234 0.000000 -1.000000 0.000000
-0.046480 -0.247035 -0.058731 107 77 234 0.000000 -1.000000 0.000000
0.053176 -0.081890 -0.061293 107 77 234 -0.021440 0.999405 -0.027012
0.020076 -0.104055 -0.314866 107 77 234 -0.017080 0.939910 -0.340995
-0.340940 -0.228792 -0.025961 107 77 234 -0.999934 -0.000693 -0.011463
-0.295669 -0.171079 -0.222406 107 77 234 0.023533 0.995371 -0.093185
-0.015028 -0.247035 -0.132445 107 77 234 0.000000 -1.000000 0.000000
-0.255887 -0.131318 -0.137300 107 77 234 -0.370319 0.928374 -0.031395
0.058362 -0.247035 -0.169056 107 77 234 0.000000 -1.000000 0.000000
-0.009372 -0.247035 -0.359868 107 77 234 0.000000 -1.000000 0.000000
0.012261 -0.247035 -0.226253 107 77 234 0.000000 -1.000000 0.000000
-0.243972 -0.247035 -0.025031 107 77 234 0.000000 -1.000000 0.000000
-0.116703 -0.320911 -0.328443 107 77 234 0.000000 -1.000000 0.000000
0.059980 -0.320911 -0.173743 107 77 234 0.000000 -1.000000 0.000000
-0.194770 -0.247035 -0.202625 107 77 234 0.000000 -1.000000 0.000000
-0.107046 -0.109934 -0.315868 107 77 234 -0.071114 0.937674 -0.340162
-0.309178 -0.177742 -0.113927 107 77 234 0.995700 0.000675 0.092638
-0.314828 -0.185062 -0.006757 107 77 234 0.999907 0.000000 0.013646
-0.044155 -0.132767 -0.387404 107 77 234 -0.041407 0.938149 -0.343746
-0.146378 -0.122410 -0.343176 107 77 234 -0.053925 0.941666 -0.332201
-0.142034 -0.094420 -0.108592 107 77 234 -0.099890 0.994807 -0.019495
0.081597 -0.320911 -0.142970 107 77 234 0.000000 -1.000000 0.000000
-0.037755 -0.247035 -0.290885 107 77 234 0.000000 -1.000000 0.000000
-0.276696 -0.144789 -0.144122 107 77 234 -0.734730 0.673534 -0.080772
-0.245929 -0.320911 -0.076249 107 77 234 0.000000 -1.000000 0.000000
0.030869 -0.320911 -0.051775 107 77 234 0.000000 -1.000000 0.000000
-0.300316 -0.247035 -0.003629 107 77 234 0.000000 1.000000 0.000000
-0.233417 -0.247035 -0.069906 107 77 234 0.000000 -1.000000 0.000000
-0.308496 -0.185470 -0.120456 107 77 234 0.993539 0.000589 0.113488
-0.082640 -0.247035 -0.042872 107 77 234 0.000000 -1.000000 0.000000
-0.052025 -0.177437 -0.427097 107 77 234 -0.115171 0.249357 -0.961539
0.090614 -0.083666 -0.130139 107 77 234 -0.021404 0.997704 -0.064254
-0.078729 -0.320911 -0.190943 107 77 234 0.000000 -1.000000 0.000000
-0.078018 -0.320911 -0.206938 107 77 234 0.000000 -1.000000 0.000000
-0.046533 -0.093920 -0.229624 107 77 234 -0.048358 0.994862 -0.088949
-0.025928 -0.247035 -0.165088 107 77 234 0.000000 -1.000000 0.000000
-0.174986 -0.247035 -0.198196 107 77 234 0.000000 -1.000000 0.000000
-0.078875 -0.247035 -0.319366 107 77 234 0.000000 -1.000000 0.000000
0.074295 -0.199862 -0.442361 107 77 234 -0.060922 -0.012808 -0.998060
-0.175282 -0.294018 -0.398901 107 77 234 -0.143482 -0.010986 -0.989592
-0.081858 -0.320911 -0.245669 107 77 234 0.000000 -1.000000 0.000000
0.035668 -0.320911 -0.204248 107 77 234 0.000000 -1.000000 0.000000
-0.043387 -0.320911 -0.360117 107 77 234 0.000000 -1.000000 0.000000
-0.279922 -0.179912 -0.252739 107 77 234 -0.911760 0.269036 -0.310343
-0.221332 -0.247035 -0.211377 107 77 234 0.000000 -1.000000 0.000000
-0.326409 -0.190215 -0.183369 107 77 234 -0.983805 0.002602 -0.179221
-0.055002 -0.247035 -0.221414 107 77 234 0.000000 -1.000000 0.000000
-0.051632 -0.247035 -0.017449 107 77 234 0.000000 -1.000000 0.000000
0.035667 -0.264354 -0.422015 107 77 234 -0.060972 -0.010288 -0.998086
-0.305041 -0.235710 -0.138541 107 77 234 0.967688 -0.223849 0.116066
-0.080152 -0.320911 -0.081460 107 77 234 0.000000 -1.000000 0.000000
-0.020386 -0.247035 -0.005245 107 77 234 0.000000 -1.000000 0.000000
-0.178495 -0.204238 -0.414348 107 77 234 -0.535836 -0.014023 -0.844206
0.024686 -0.320911 -0.063605 107 77 234 0.000000 -1.000000 0.000000
0.042735 -0.168453 -0.433012 107 77 234 -0.058839 0.250463 -0.966336
-0.079362 -0.093935 -0.211827 107 77 234 -0.048012 0.997090 -0.059222
-0.065575 -0.320911 -0.328385 107 77 234 0.000000 -1.000000 0.000000
-0.120922 -0.278034 -0.406949 107 77 234 -0.143164 -0.010245 -0.989646
-0.038943 -0.247035 -0.407504 107 77 234 0.000000 -1.000000 0.000000
-0.100397 -0.131765 -0.377435 107 77 234 -0.071114 0.937674 -0.340162
0.046134 -0.320911 -0.068608 107 77 234 0.000000 -1.000000 0.000000
0.085084 -0.320911 -0.365294 107 77 234 0.000000 -1.000000 0.000000
-0.230025 -0.247035 -0.297833 107 77 234 0.000000 -1.000000 0.000000
0.023453 -0.320911 -0.113273 107 77 234 0.000000 -1.000000 0.000000
-0.030122 -0.247035 -0.308274 107 77 234 0.000000 -1.000000 0.000000
-0.126545 -0.247035 -0.418429 107 77 234 0.000000 -1.000000 0.000000
-0.099661 -0.254897 -0.408015 107 77 234 -0.114747 0.210014 -0.970941
-0.274999 -0.226068 -0.263126 107 77 234 -0.913535 0.248769 -0.321820
-0.084708 -0.095019 -0.221169 107 77 234 -0.048358 0.994862 -0.088949
-0.037205 -0.203112 -0.433961 107 77 234 -0.117384 -0.012668 -0.993006
-0.160920 -0.247035 -0.111598 107 77 234 0.000000 -1.000000 0.000000
0.015666 -0.320911 -0.130993 107 77 234 0.000000 -1.000000 0.000000
-0.208446 -0.247035 -0.232674 107 77 234 0.000000 -1.000000 0.000000
-0.173889 -0.247035 -0.079264 107 77 234 0.000000 -1.000000 0.000000
-0.053124 -0.132365 -0.385227 107 77 234 -0.041407 0.938149 -0.343746
-0.114723 -0.247035 -0.136931 107 77 234 0.000000 -1.000000 0.000000
0.100876 -0.247035 -0.416162 107 77 234 0.000000 -1.000000 0.000000
-0.028901 -0.085834 -0.111702 107 77 234 -0.062652 0.996964 -0.046236
-0.059741 -0.247035 -0.387033 107 77 234 0.000000 -1.000000 0.000000
0.071559 -0.316452 -0.424257 107 77 234 0.018366 -0.806736 -0.590626
-0.031831 -0.320911 -0.185675 107 77 234 0.000000 -1.000000 0.000000
-0.018871 -0.247035 -0.235050 107 77 234 0.000000 -1.000000 0.000000
-0.286108 -0.197156 -0.249513 107 77 234 -0.911760 0.269036 -0.310343
-0.127020 -0.092698 -0.097650 107 77 234 -0.099890 0.994807 -0.019495
-0.234894 -0.320911 -0.215139 107 77 234 0.000000 -1.000000 0.000000
-0.244479 -0.320911 -0.272341 107 77 234 0.000000 -1.000000 0.000000
0.045701 -0.247035 -0.209047 107 77 234 0.000000 -1.000000 0.000000
-0.303484 -0.161677 -0.181586 107 77 234 0.077812 0.912030 -0.402674
-0.142292 -0.102173 -0.285619 107 77 234 -0.048983 0.996363 -0.069728
0.059081 -0.208087 -0.441326 107 77 234 -0.060922 -0.012808 -0.998060
-0.338135 -0.243270 -0.085002 107 77 234 -0.997766 0.000188 -0.066804
-0.181059 -0.247035 -0.193189 107 77 234 0.000000 -1.000000 0.000000
-0.279517 -0.216064 -0.268909 107 77 234 0.965498 -0.041396 0.257099
-0.078508 -0.100235 -0.293764 107 77 234 -0.044863 0.939006 -0.340962
0.066340 -0.320911 -0.030214 107 77 234 0.000000 -1.000000 0.000000
-0.174338 -0.320911 -0.207433 107 77 234 0.000000 -1.000000 0.000000
-0.305356 -0.229046 -0.275818 107 77 234 -0.963358 0.032167 -0.266282
-0.009379 -0.247035 -0.357173 107 77 234 0.000000 -1.000000 0.000000
-0.039370 -0.278411 -0.416693 107 77 234 -0.117434 -0.009955 -0.993031
0.093081 -0.247035 -0.087873 107 77 234 0.000000 -1.000000 0.000000
0.053411 -0.247035 -0.242988 107 77 234 0.000000 -1.000000 0.000000
0.075024 -0.320911 -0.204390 107 77 234 0.000000 -1.000000 0.000000
-0.105940 -0.247035 -0.375029 107 77 234 0.000000 -1.000000 0.000000
-0.025404 -0.084075 -0.046413 107 77 234 -0.069376 0.997280 -0.024895
-0.054636 -0.088982 -0.144694 107 77 234 -0.062652 0.996964 -0.046236
-0.240033 -0.247035 -0.128433 107 77 234 0.000000 -1.000000 0.000000
-0.274316 -0.247035 -0.099164 107 77 234 0.000000 -1.000000 0.000000
-0.195680 -0.142445 -0.362975 107 77 234 -0.399903 0.725191 -0.560514
-0.222001 -0.230623 -0.385799 107 77 234 -0.534220 -0.078841 -0.841661
-0.296264 -0.159492 -0.057043 107 77 234 -0.723771 0.689674 -0.022475
-0.036181 -0.320911 -0.203035 107 77 234 0.000000 -1.000000 0.000000
-0.116379 -0.091063 -0.068704 107 77 234 -0.099890 0.994807 -0.019495
-0.331719 -0.202963 -0.148775 107 77 234 -0.992899 -0.002005 -0.118946
-0.338660 -0.235651 -0.077126 107 77 234 -0.997766 0.000188 -0.066804
-0.265034 -0.138089 -0.194346 107 77 234 -0.734730 0.673534 -0.080772
-0.268442 -0.247035 -0.106462 107 77 234 0.000000 -1.000000 0.000000
0.036561 -0.247035 -0.381707 107 77 234 0.000000 -1.000000 0.000000
-0.213258 -0.247035 -0.003732 107 77 234 0.000000 -1.000000 0.000000
0.047361 -0.241995 -0.418317 107 77 234 -0.059644 0.207790 -0.976353
-0.124534 -0.247035 -0.024789 107 77 234 0.000000 -1.000000 0.000000
0.094023 -0.247035 -0.274679 107 77 234 0.000000 -1.000000 0.000000
-0.312676 -0.237941 -0.070277 107 77 234 0.997754 0.000041 0.066991
-0.022404 -0.241669 -0.413994 107 77 234 0.059496 -0.207403 0.976445
0.062419 -0.247035 -0.158291 107 77 234 0.000000 -1.000000 0.000000
-0.186484 -0.229799 -0.408441 107 77 234 -0.534953 -0.074419 -0.841598
-0.150110 -0.100237 -0.241028 107 77 234 -0.076119 0.995877 -0.049336
-0.100655 -0.320911 -0.054324 107 77 234 0.000000 -1.000000 0.000000
-0.269631 -0.320911 -0.217896 107 77 234 0.000000 -1.000000 0.000000
-0.268093 -0.320911 -0.265240 107 77 234 0.000000 -1.000000 0.000000
0.015344 -0.320911 -0.042405 107 77 234 0.000000 -1.000000 0.000000
0.085747 -0.292140 -0.423191 107 77 234 0.031183 -0.010358 -0.999460
-0.313171 -0.178838 -0.062950 107 77 234 0.997754 0.000041 0.066991
0.048438 -0.091028 -0.228183 107 77 234 -0.016512 0.995891 -0.089041
0.051179 -0.309065 -0.424030 107 77 234 -0.060482 -0.094573 -0.993679
-0.122942 -0.099540 -0.261600 107 77 234 -0.048983 0.996363 -0.069728
0.071113 -0.247035 -0.274537 107 77 234 0.000000 -1.000000 0.000000
-0.175857 -0.098311 -0.099020 107 77 234 -0.374440 0.927117 -0.015795
-0.305685 -0.270477 -0.090746 107 77 234 -0.784851 -0.616993 -0.057703
0.035004 -0.080880 -0.005156 107 77 234 -0.023714 0.999407 -0.024948
-0.190521 -0.104555 -0.116895 107 77 234 -0.370319 0.928374 -0.031395
-0.063103 -0.247035 -0.369408 107 77 234 0.000000 -1.000000 0.000000
-0.198447 -0.111501 -0.201396 107 77 234 -0.355685 0.933488 -0.045700
-0.288854 -0.247035 -0.153506 107 77 234 0.000000 -1.000000 0.000000
0.040012 -0.086485 -0.157062 107 77 234 -0.021404 0.997704 -0.064254
-0.313556 -0.314677 -0.093796 107 77 234 -0.998809 -0.037815 -0.030818
0.032820 -0.180550 -0.435543 107 77 234 -0.058839 0.250463 -0.966336
-0.269938 -0.247035 -0.156794 107 77 234 0.000000 -1.000000 0.000000
-0.262976 -0.133542 -0.119473 107 77 234 -0.370319 0.928374 -0.031395
-0.258729 -0.132801 -0.147633 107 77 234 -0.370319 0.928374 -0.031395
-0.179073 -0.247035 -0.180133 107 77 234 0.000000 -1.000000 0.000000
-0.300971 -0.229006 -0.159543 107 77 234 0.967688 -0.223849 0.116066
-0.224798 -0.247035 -0.103596 107 77 234 0.000000 -1.000000 0.000000
-0.292879 -0.179923 -0.208881 107 77 234 -0.955035 0.274078 -0.113094
-0.133925 -0.172045 -0.414977 107 77 234 -0.144364 0.268106 -0.952511
-0.001017 -0.247035 -0.253528 107 77 234 0.000000 -1.000000 0.000000
-0.267183 -0.247035 -0.095547 107 77 234 0.000000 -1.000000 0.000000
-0.199437 -0.247035 -0.330665 107 77 234 0.000000 -1.000000 0.000000
0.024363 -0.320911 -0.263496 107 77 234 0.000000 -1.000000 0.000000
-0.140024 -0.247035 -0.157748 107 77 234 0.000000 -1.000000 0.000000
-0.226177 -0.142497 -0.316345 107 77 234 -0.630191 0.691193 -0.353711
-0.157053 -0.111770 -0.310554 107 77 234 -0.210134 0.923679 -0.320407
0.022621 -0.247035 -0.283861 107 77 234 0.000000 -1.000000 0.000000
-0.252006 -0.131758 -0.196088 107 77 234 -0.370319 0.928374 -0.031395
0.031869 -0.320911 -0.042178 107 77 234 0.000000 -1.000000 0.000000
-0.025599 -0.247035 -0.226649 107 77 234 0.000000 -1.000000 0.000000
0.071211 -0.247035 -0.272224 107 77 234 0.000000 -1.000000 0.000000
-0.288849 -0.272086 -0.250224 107 77 234 -0.946631 -0.009887 -0.322167
-0.132466 -0.320911 -0.217120 107 77 234 0.000000 -1.000000 0.000000
0.031724 -0.247035 -0.185554 107 77 234 0.000000 -1.000000 0.000000
-0.299087 -0.320911 -0.092442 107 77 234 0.000000 -1.000000 0.000000
-0.165281 -0.247035 -0.315531 107 77 234 0.000000 -1.000000 0.000000
0.070449 -0.247035 -0.217394 107 77 234 0.000000 -1.000000 0.000000
-0.084399 -0.247035 -0.013236 107 77 234 0.000000 -1.000000 0.000000
-0.064210 -0.099480 -0.293095 107 77 234 -0.029266 0.997187 -0.069000
0.036216 -0.247035 -0.325701 107 77 234 0.000000 -1.000000 0.000000
-0.227170 -0.127642 -0.252286 107 77 234 -0.376351 0.916887 -0.132962
-0.029694 -0.247035 -0.157824 107 77 234 0.000000 -1.000000 0.000000
-0.308057 -0.264656 -0.120718 107 77 234 -0.784851 -0.616993 -0.057703
-0.184787 -0.320911 -0.032576 107 77 234 0.000000 -1.000000 0.000000
-0.121104 -0.247035 -0.141488 107 77 234 0.000000 -1.000000 0.000000
-0.018725 -0.086915 -0.142783 107 77 234 -0.048012 0.997090 -0.059222
-0.212567 -0.168202 -0.381626 107 77 234 -0.527490 0.285355 -0.800204
-0.140148 -0.094074 -0.100583 107 77 234 -0.099890 0.994807 -0.019495
-0.265044 -0.134051 -0.108117 107 77 234 -0.370539 0.928745 -0.011594
-0.191544 -0.247035 -0.376934 107 77 234 0.000000 -1.000000 0.000000
-0.188017 -0.320911 -0.269970 107 77 234 0.000000 -1.000000 0.000000
-0.111286 -0.237632 -0.402907 107 77 234 -0.114747 0.210014 -0.970941
-0.095680 -0.247035 -0.281757 107 77 234 0.000000 -1.000000 0.000000
-0.314497 -0.157114 -0.031056 107 77 234 0.999907 0.000000 0.013646
-0.076801 -0.279036 -0.412261 107 77 234 -0.117359 -0.010168 -0.993038
0.084725 -0.081500 -0.071882 107 77 234 -0.021440 0.999405 -0.027012
-0.211746 -0.320911 0.000348 107 77 234 0.000000 -1.000000 0.000000
0.006968 -0.090047 -0.207566 107 77 234 -0.016322 0.998108 -0.059283
-0.207326 -0.247035 -0.002079 107 77 234 0.000000 -1.000000 0.000000
-0.295296 -0.247035 -0.147361 107 77 234 0.000000 -1.000000 0.000000
-0.125020 -0.247035 -0.224885 107 77 234 0.000000 -1.000000 0.000000
-0.040664 -0.091909 -0.209096 107 77 234 -0.048012 0.997090 -0.059222
-0.135177 -0.320911 -0.159859 107 77 234 0.000000 -1.000000 0.000000
-0.071809 -0.247035 -0.231967 107 77 234 0.000000 -1.000000 0.000000
0.062458 -0.094370 -0.265694 107 77 234 -0.009995 0.995243 -0.096906
-0.083964 -0.247035 -0.243339 107 77 234 0.000000 -1.000000 0.000000
-0.162713 -0.320911 -0.243121 107 77 234 0.000000 -1.000000 0.000000
-0.020206 -0.247035 -0.159752 107 77 234 0.000000 -1.000000 0.000000
-0.155224 -0.247035 -0.248048 107 77 234 0.000000 -1.000000 0.000000
-0.136299 -0.247035 -0.018367 107 77 234 0.000000 -1.000000 0.000000
-0.000768 -0.320911 -0.394435 107 77 234 0.000000 -1.000000 0.000000
-0.120142 -0.247035 -0.225520 107 77 234 0.000000 -1.000000 0.000000
-0.308123 -0.278108 -0.073426 107 77 234 -0.951436 0.247079 -0.183637
-0.195019 -0.320911 -0.070784 107 77 234 0.000000 -1.000000 0.000000
-0.069372 -0.320911 -0.101090 107 77 234 0.000000 -1.000000 0.000000
-0.123248 -0.244716 -0.421082 107 77 234 -0.073612 -0.858406 -0.507661
0.082717 -0.247035 -0.277717 107 77 234 0.000000 -1.000000 0.000000
-0.316622 -0.292068 -0.022153 107 77 234 -0.998809 -0.037815 -0.030818
-0.301139 -0.247035 -0.109934 107 77 234 0.000000 -1.000000 0.000000
0.048433 -0.320911 -0.045536 107 77 234 0.000000 -1.000000 0.000000
-0.217081 -0.115887 -0.138731 107 77 234 -0.370319 0.928374 -0.031395
-0.143052 -0.095012 -0.120376 107 77 234 -0.099800 0.993911 -0.046710
-0.268978 -0.143956 -0.207392 107 77 234 -0.734730 0.673534 -0.080772
0.015052 -0.247035 -0.163307 107 77 234 0.000000 -1.000000 0.000000
0.066720 -0.247035 -0.346816 107 77 234 0.000000 -1.000000 0.000000
-0.050297 -0.199331 -0.432462 107 77 234 -0.117384 -0.012668 -0.993006
-0.111595 -0.320911 -0.113636 107 77 234 0.000000 -1.000000 0.000000
-0.112248 -0.247035 -0.257922 107 77 234 0.000000 -1.000000 0.000000
-0.161884 -0.247035 -0.293841 107 77 234 0.000000 -1.000000 0.000000
-0.018328 -0.247035 -0.073390 107 77 234 0.000000 -1.000000 0.000000
-0.105304 -0.247035 -0.242486 107 77 234 0.000000 -1.000000 0.000000
-0.025806 -0.085356 -0.098200 107 77 234 -0.062707 0.997843 -0.019400
-0.196979 -0.107542 -0.129046 107 77 234 -0.370319 0.928374 -0.031395
-0.153638 -0.247035 -0.014038 107 77 234 0.000000 -1.000000 0.000000
-0.251282 -0.247035 -0.201788 107 77 234 0.000000 -1.000000 0.000000
0.069912 -0.320911 -0.178711 107 77 234 0.000000 -1.000000 0.000000
0.034515 -0.320911 -0.243331 107 77 234 0.000000 -1.000000 0.000000
-0.029715 -0.090051 -0.186684 107 77 234 -0.048012 0.997090 -0.059222
-0.040937 -0.247035 -0.387884 107 77 234 0.000000 -1.000000 0.000000
-0.202095 -0.247035 -0.162164 107 77 234 0.000000 -1.000000 0.000000
-0.187698 -0.137659 -0.362478 107 77 234 -0.399903 0.725191 -0.560514
-0.303450 -0.170050 -0.054968 107 77 234 -0.961985 0.271462 -0.029873
0.078025 -0.117845 -0.355777 107 77 234 -0.017080 0.939910 -0.340995
-0.065988 -0.086071 -0.013264 107 77 234 -0.069376 0.997280 -0.024895
-0.106097 -0.092083 -0.137010 107 77 234 -0.099800 0.993911 -0.046710
-0.285002 -0.146253 -0.013967 107 77 234 -0.724106 0.689316 -0.022656
0.015016 -0.227585 -0.438208 107 77 234 -0.060710 -0.069292 -0.995747
-0.175947 -0.111509 -0.286025 107 77 234 -0.376351 0.916887 -0.132962
-0.049463 -0.320911 -0.308154 107 77 234 0.000000 -1.000000 0.000000
-0.215399 -0.247035 -0.024847 107 77 234 0.000000 -1.000000 0.000000
-0.237036 -0.148844 -0.309405 107 77 234 -0.630191 0.691193 -0.353711
-0.290177 -0.165532 -0.196312 107 77 234 -0.720945 0.687591 -0.086347
-0.120481 -0.320911 -0.025398 107 77 234 0.000000 -1.000000 0.000000
-0.204570 -0.261497 -0.386633 107 77 234 0.517669 -0.259355 0.815324
-0.185819 -0.125982 -0.329009 107 77 234 -0.356135 0.905331 -0.231395
-0.126792 -0.320911 -0.222290 107 77 234 0.000000 -1.000000 0.000000
-0.074352 -0.302145 -0.411940 107 77 234 -0.117220 -0.057692 -0.991429
-0.315431 -0.318935 -0.027795 107 77 234 -0.998809 -0.037815 -0.030818
-0.268450 -0.320911 -0.067391 107 77 234 0.000000 -1.000000 0.000000
-0.024162 -0.085277 -0.099429 107 77 234 -0.062707 0.997843 -0.019400
0.098135 -0.320911 -0.380667 107 77 234 0.000000 -1.000000 0.000000
0.068768 -0.089721 -0.217331 107 77 234 -0.016512 0.995891 -0.089041
-0.010588 -0.305425 -0.419510 107 77 234 -0.046638 0.642907 -0.764523
-0.120927 -0.247035 -0.383836 107 77 234 0.000000 -1.000000 0.000000
-0.335645 -0.221364 -0.114523 107 77 234 -0.995877 0.000063 -0.090711
-0.031628 -0.247035 -0.272118 107 77 234 0.000000 -1.000000 0.000000
-0.085297 -0.270913 -0.411340 107 77 234 -0.117359 -0.010168 -0.993038
-0.005711 -0.320911 -0.385985 107 77 234 0.000000 -1.000000 0.000000
-0.220076 -0.114807 -0.019036 107 77 234 -0.374440 0.927117 -0.015795
-0.204694 -0.247035 -0.391925 107 77 234 0.000000 -1.000000 0.000000
-0.210679 -0.320911 -0.279223 107 77 234 0.000000 -1.000000 0.000000
-0.105105 -0.093277 -0.164533 107 77 234 -0.099800 0.993911 -0.046710
0.101380 -0.247035 -0.093272 107 77 234 0.000000 -1.000000 0.000000
-0.003634 -0.247035 -0.248770 107 77 234 0.000000 -1.000000 0.000000
-0.184617 -0.287645 -0.397619 107 77 234 -0.143482 -0.010986 -0.989592
-0.052992 -0.320911 -0.374073 107 77 234 0.000000 -1.000000 0.000000
-0.145124 -0.247035 -0.203488 107 77 234 0.000000 -1.000000 0.000000
-0.115612 -0.225686 -0.423956 107 77 234 -0.142939 -0.068542 -0.987355
-0.300672 -0.173471 -0.278162 107 77 234 -0.002924 0.999875 -0.015509
-0.055704 -0.247035 -0.398545 107 77 234 0.000000 -1.000000 0.000000
0.039656 -0.093448 -0.253616 107 77 234 -0.016512 0.995891 -0.089041
-0.073787 -0.124124 -0.360174 107 77 234 -0.044863 0.939006 -0.340962
-0.154376 -0.320911 -0.120461 107 77 234 0.000000 -1.000000 0.000000
0.078900 -0.247035 -0.306447 107 77 234 0.000000 -1.000000 0.000000
-0.258640 -0.247035 -0.172423 107 77 234 0.000000 -1.000000 0.000000
0.057170 -0.206577 -0.441229 107 77 234 -0.060922 -0.012808 -0.998060
0.085354 -0.087257 -0.184151 107 77 234 -0.021404 0.997704 -0.064254
-0.100180 -0.091849 -0.144675 107 77 234 -0.099800 0.993911 -0.046710
-0.227993 -0.137391 -0.303136 107 77 234 -0.630191 0.691193 -0.353711
0.041252 -0.247035 -0.031162 107 77 234 0.000000 -1.000000 0.000000
-0.011296 -0.247035 -0.044482 107 77 234 0.000000 -1.000000 0.000000
-0.304504 -0.320911 -0.119191 107 77 234 0.000000 -1.000000 0.000000
-0.123638 -0.092035 -0.081184 107 77 234 -0.099890 0.994807 -0.019495
0.040617 -0.247035 -0.159418 107 77 234 0.000000 -1.000000 0.000000
-0.314833 -0.177857 -0.006382 107 77 234 0.999907 0.000000 0.013646
-0.286823 -0.150693 -0.091078 107 77 234 -0.723771 0.689674 -0.022475
0.030969 -0.242134 -0.417345 107 77 234 -0.059644 0.207790 -0.976353
-0.086499 -0.094059 -0.208131 107 77 234 -0.048012 0.997090 -0.059222
0.056924 -0.320911 -0.063494 107 77 234 0.000000 -1.000000 0.000000
-0.161526 -0.096197 -0.099413 107 77 234 -0.099890 0.994807 -0.019495
-0.285096 -0.281484 -0.253077 107 77 234 -0.784851 -0.616993 -0.057703
-0.311009 -0.195153 -0.039237 107 77 234 -0.962174 0.270813 -0.029681
0.038683 -0.320911 -0.118777 107 77 234 0.000000 -1.000000 0.000000
-0.093551 -0.113810 -0.329172 107 77 234 -0.044863 0.939006 -0.340962
-0.303322 -0.190459 -0.161506 107 77 234 0.989408 0.000051 0.145163
0.091919 -0.082329 -0.108035 107 77 234 0.020750 0.999420 -0.027012
-0.086253 -0.134781 -0.387830 107 77 234 -0.041407 0.938149 -0.343746
-0.115031 -0.097998 -0.245118 107 77 234 -0.048983 0.996363 -0.069728
-0.043334 -0.320911 -0.288631 107 77 234 0.000000 -1.000000 0.000000
0.033066 -0.320911 -0.230362 107 77 234 0.000000 -1.000000 0.000000
-0.157238 -0.146883 -0.392145 107 77 234 -0.110207 0.677585 -0.727140
-0.314428 -0.241061 -0.032913 107 77 234 0.999154 0.000000 0.041120
-0.298967 -0.205115 -0.295681 107 77 234 -0.961346 0.036656 -0.272892
0.026823 -0.221241 -0.439198 107 77 234 -0.060753 -0.012165 -0.998079
-0.095595 -0.247035 -0.183846 107 77 234 0.000000 -1.000000 0.000000
