ply
format ascii 1.0
element vertex 717
property float x
property float y
property float z
property uchar red
property uchar green
property uchar blue
property float nx
property float ny
property float nz
end_header
-0.187631 -0.506076 0.280904 32 251 241 0.000000 0.247963 -0.968769
-0.271426 -0.408100 0.288303 32 251 241 -0.946514 0.322664 0.000000
-0.129916 -0.434621 0.369914 32 251 241 0.382815 0.923825 0.000000
-0.130435 -0.434406 0.288541 32 251 241 -0.382815 -0.923825 0.000000
-0.184361 -0.453047 0.269941 32 251 241 0.000000 -0.991527 -0.129898
-0.247224 -0.495399 0.285461 32 251 241 -0.998734 0.050304 0.000000
-0.184903 -0.463256 0.389474 32 251 241 0.000000 0.436165 -0.899867
-0.250422 -0.440926 0.261835 32 251 241 0.000000 0.130176 -0.991491
-0.259319 -0.453133 0.277381 32 251 241 -0.129799 -0.991540 0.000000
-0.271598 -0.408603 0.335907 32 251 241 -0.946514 0.322664 0.000000
-0.248887 -0.474768 0.356779 32 251 241 -0.968741 -0.248074 0.000000
-0.272248 -0.410510 0.275772 32 251 241 0.946514 -0.322664 0.000000
-0.123662 -0.404491 0.286323 32 251 241 -0.853618 -0.520900 0.000000
-0.270720 -0.406290 0.314459 32 251 241 0.853618 -0.520900 0.000000
-0.160599 -0.428719 0.403202 32 251 241 0.000000 0.694237 -0.719746
-0.133955 -0.433419 0.316846 32 251 241 -0.130931 -0.991391 0.000000
-0.169470 -0.459726 0.391184 32 251 241 0.000000 0.436165 -0.899867
-0.144647 -0.461228 0.390456 32 251 241 0.000000 -0.436165 0.899867
-0.145634 -0.499089 0.319016 32 251 241 0.988653 0.150218 0.000000
-0.146137 -0.493881 0.360429 32 251 241 0.998757 0.049846 0.000000
-0.191061 -0.450718 0.264952 32 251 241 0.000000 0.793594 0.608448
-0.135209 -0.444279 0.261658 32 251 241 0.000000 -0.130176 -0.991491
-0.271734 -0.420509 0.393950 32 251 241 -0.946588 -0.322446 0.000000
-0.246144 -0.460111 0.390998 32 251 241 0.000000 -0.436165 0.899867
-0.125962 -0.447622 0.381016 32 251 241 -0.923745 0.383007 0.000000
-0.148725 -0.514623 0.388398 32 251 241 0.000000 0.343805 0.939041
-0.146123 -0.486184 0.353898 32 251 241 -0.998756 0.049861 0.000000
-0.236509 -0.471666 0.386314 32 251 241 0.000000 0.248074 -0.968741
-0.268256 -0.442246 0.330743 32 251 241 -0.991491 0.130176 0.000000
-0.123567 -0.424866 0.321598 32 251 241 -0.853488 0.521112 0.000000
-0.131822 -0.432133 0.355112 32 251 241 0.357076 -0.934075 0.000000
-0.143649 -0.471848 0.361295 32 251 241 0.968778 -0.247930 0.000000
-0.264110 -0.417574 0.257493 32 251 241 0.000000 -0.108782 -0.994066
-0.272332 -0.411113 0.337034 32 251 241 0.994020 -0.109201 0.000000
-0.190827 -0.513281 0.387906 32 251 241 0.000000 -0.343805 -0.939041
-0.142864 -0.510951 0.294598 32 251 241 -0.939090 -0.343670 0.000000
-0.145250 -0.501618 0.367268 32 251 241 -0.988653 -0.150218 0.000000
-0.271164 -0.407332 0.268812 32 251 241 -0.946514 0.322664 0.000000
-0.142461 -0.512050 0.352322 32 251 241 0.939090 0.343670 0.000000
-0.252521 -0.432093 0.268348 32 251 241 0.000000 0.934075 0.357076
-0.194182 -0.457912 0.274368 32 251 241 0.000000 -0.524021 -0.851706
-0.126351 -0.428341 0.389797 32 251 241 0.719985 -0.693990 0.000000
-0.127027 -0.449305 0.319944 32 251 241 -0.793223 0.608931 0.000000
-0.128805 -0.430381 0.305898 32 251 241 0.551779 -0.833990 0.000000
-0.248167 -0.502497 0.359365 32 251 241 -0.988721 0.149769 0.000000
-0.196438 -0.426146 0.405569 32 251 241 0.000000 -0.520938 0.853594
-0.257705 -0.424610 0.260044 32 251 241 0.000000 -0.521112 -0.853488
-0.226742 -0.429832 0.401940 32 251 241 0.000000 -0.833845 0.551999
-0.127083 -0.429101 0.354493 32 251 241 0.719985 -0.693990 0.000000
-0.238997 -0.483440 0.282596 32 251 241 0.000000 0.149769 0.988721
-0.143423 -0.470964 0.293660 32 251 241 -0.968778 0.247930 0.000000
-0.141734 -0.514038 0.309242 32 251 241 -0.939090 -0.343670 0.000000
-0.268265 -0.444235 0.264306 32 251 241 0.991491 0.130176 0.000000
-0.217602 -0.462667 0.389759 32 251 241 0.000000 0.436165 -0.899867
-0.260399 -0.404659 0.260192 32 251 241 0.000000 -0.520900 0.853618
-0.212637 -0.506272 0.280853 32 251 241 0.000000 -0.247963 0.968769
-0.143473 -0.509192 0.298164 32 251 241 -0.968806 -0.247820 0.000000
-0.225636 -0.492112 0.383692 32 251 241 0.000000 -0.050304 -0.998734
-0.220855 -0.513184 0.278679 32 251 241 0.000000 -0.343805 0.939041
-0.267561 -0.419387 0.257799 32 251 241 0.000000 0.322873 0.946442
-0.251701 -0.514449 0.342657 32 251 241 -0.939041 0.343805 0.000000
-0.243159 -0.502653 0.281726 32 251 241 0.000000 -0.149769 0.988721
-0.262420 -0.431743 0.380902 32 251 241 -0.551779 -0.833990 0.000000
-0.159950 -0.446099 0.261965 32 251 241 0.000000 -0.382679 -0.923881
-0.249266 -0.473285 0.368276 32 251 241 0.968741 0.248074 0.000000
-0.249629 -0.508480 0.311002 32 251 241 0.968769 -0.247963 0.000000
-0.134277 -0.433376 0.313227 32 251 241 -0.130931 -0.991391 0.000000
-0.258985 -0.433080 0.342039 32 251 241 -0.356917 -0.934136 0.000000
-0.179980 -0.435655 0.401365 32 251 241 0.000000 0.793408 0.608690
-0.220288 -0.445264 0.404763 32 251 241 0.000000 -0.130931 0.991391
-0.127088 -0.447725 0.403912 32 251 241 0.000000 0.382679 -0.923881
-0.140880 -0.516194 0.315989 32 251 241 -0.899834 -0.436232 0.000000
-0.243051 -0.407020 0.258859 32 251 241 0.000000 0.323092 -0.946368
-0.252407 -0.445884 0.261876 32 251 241 0.000000 -0.382679 -0.923881
-0.211874 -0.507885 0.280441 32 251 241 0.000000 -0.247963 0.968769
-0.237142 -0.398469 0.266437 32 251 241 0.000000 -0.833881 0.551945
-0.191066 -0.422947 0.259028 32 251 241 0.000000 0.521112 0.853488
-0.122135 -0.422227 0.339536 32 251 241 0.946515 -0.322659 0.000000
-0.187072 -0.450530 0.401843 32 251 241 0.000000 0.793594 -0.608448
-0.262708 -0.434348 0.278785 32 251 241 0.382679 -0.923881 0.000000
-0.252612 -0.436196 0.402070 32 251 241 0.000000 0.793408 0.608690
-0.267813 -0.446436 0.315608 32 251 241 -0.923881 -0.382679 0.000000
-0.262646 -0.431594 0.277648 32 251 241 -0.551779 -0.833990 0.000000
-0.145797 -0.482332 0.330056 32 251 241 0.988653 -0.150218 0.000000
-0.183406 -0.422983 0.259051 32 251 241 0.000000 0.521112 0.853488
-0.269702 -0.404621 0.292663 32 251 241 0.853618 -0.520900 0.000000
-0.177416 -0.452516 0.398588 32 251 241 0.000000 -0.923745 0.383007
-0.271056 -0.407014 0.321442 32 251 241 0.946514 -0.322664 0.000000
-0.120554 -0.414788 0.292826 32 251 241 -0.993988 0.109489 0.000000
-0.235122 -0.496878 0.383949 32 251 241 0.000000 -0.149769 -0.988721
-0.126578 -0.448720 0.391934 32 251 241 0.793223 -0.608931 0.000000
-0.240877 -0.482450 0.384104 32 251 241 0.000000 0.149769 -0.988721
-0.133049 -0.433538 0.300084 32 251 241 -0.130931 -0.991391 0.000000
-0.164796 -0.433953 0.268161 32 251 241 0.000000 0.923881 -0.382679
-0.237047 -0.433267 0.395130 32 251 241 0.000000 0.934136 -0.356917
-0.256562 -0.406990 0.258869 32 251 241 0.000000 0.323092 -0.946368
-0.128683 -0.450997 0.275102 32 251 241 -0.608633 0.793452 0.000000
-0.261059 -0.432288 0.370075 32 251 241 -0.356917 -0.934136 0.000000
-0.187908 -0.476051 0.385191 32 251 241 0.000000 -0.248074 0.968741
-0.203726 -0.428027 0.403869 32 251 241 0.000000 -0.694237 0.719746
-0.259239 -0.435277 0.400872 32 251 241 0.000000 0.793408 0.608690
-0.247239 -0.484646 0.317587 32 251 241 0.998733 0.050319 0.000000
-0.251820 -0.514775 0.299686 32 251 241 0.939041 -0.343805 0.000000
-0.120724 -0.416336 0.304174 32 251 241 -0.993988 0.109489 0.000000
-0.265945 -0.400145 0.266169 32 251 241 -0.719989 0.693985 0.000000
-0.186606 -0.458451 0.391850 32 251 241 0.000000 0.523799 -0.851842
-0.247180 -0.494524 0.362354 32 251 241 -0.998734 0.050304 0.000000
-0.249464 -0.507836 0.363441 32 251 241 0.968769 -0.247963 0.000000
-0.145689 -0.481619 0.297913 32 251 241 0.988653 -0.150218 0.000000
-0.219017 -0.427789 0.404099 32 251 241 0.000000 0.694237 -0.719746
-0.268973 -0.426084 0.348969 32 251 241 -0.853488 -0.521112 0.000000
-0.155099 -0.453245 0.271454 32 251 241 0.000000 -0.991527 -0.129898
-0.236915 -0.423639 0.259451 32 251 241 0.000000 0.521112 0.853488
-0.271618 -0.420849 0.384656 32 251 241 -0.946588 -0.322446 0.000000
-0.139667 -0.453074 0.270150 32 251 241 0.000000 -0.991527 -0.129898
-0.154921 -0.446744 0.262232 32 251 241 0.000000 -0.382679 -0.923881
-0.142332 -0.512405 0.376210 32 251 241 -0.939090 -0.343670 0.000000
-0.216715 -0.489644 0.383621 32 251 241 0.000000 -0.050319 0.998733
-0.146026 -0.496102 0.283761 32 251 241 -0.998757 -0.049846 0.000000
-0.266949 -0.428326 0.346598 32 251 241 -0.720104 -0.693866 0.000000
-0.144874 -0.426367 0.405435 32 251 241 0.000000 0.520938 -0.853594
-0.230589 -0.436638 0.402422 32 251 241 0.000000 -0.608319 -0.793693
-0.193551 -0.456440 0.393087 32 251 241 0.000000 0.523799 -0.851842
-0.155283 -0.462022 0.390072 32 251 241 0.000000 0.436165 -0.899867
-0.237280 -0.453154 0.270761 32 251 241 0.000000 0.991527 0.129898
-0.272020 -0.409841 0.272065 32 251 241 0.946514 -0.322664 0.000000
-0.127486 -0.449902 0.279355 32 251 241 0.793223 -0.608931 0.000000
-0.263313 -0.434598 0.272553 32 251 241 -0.382679 0.923881 0.000000
-0.159424 -0.467537 0.387735 32 251 241 0.000000 0.343657 -0.939095
-0.201545 -0.455596 0.272943 32 251 241 0.000000 0.524021 0.851706
-0.127006 -0.429022 0.381018 32 251 241 0.719985 -0.693990 0.000000
-0.245953 -0.450316 0.402115 32 251 241 0.000000 -0.608690 0.793408
-0.144717 -0.504330 0.282679 32 251 241 0.968806 0.247820 0.000000
-0.250143 -0.510194 0.340242 32 251 241 -0.939041 0.343805 0.000000
-0.186224 -0.497895 0.282447 32 251 241 0.000000 0.149769 -0.988721
-0.138255 -0.441956 0.261699 32 251 241 0.000000 0.130176 -0.991491
-0.222078 -0.475721 0.385276 32 251 241 0.000000 -0.248074 0.968741
-0.181463 -0.427133 0.261819 32 251 241 0.000000 -0.693866 -0.720104
-0.195508 -0.091061 -0.101805 0 46 120 0.000000 -1.000000 0.000000
-0.275055 0.037805 -0.325210 0 46 120 0.000000 1.000000 0.000000
-0.032167 0.037805 -0.267342 0 46 120 0.000000 1.000000 0.000000
-0.204595 -0.040563 -0.413409 0 46 120 0.000000 0.000000 1.000000
-0.345017 -0.029204 -0.245089 0 46 120 0.943238 0.000000 0.332117
-0.119193 -0.091061 -0.143152 0 46 120 0.000000 -1.000000 0.000000
-0.145985 -0.091061 -0.040405 0 46 120 0.000000 1.000000 0.000000
-0.349138 0.037805 -0.072476 0 46 120 0.000000 -1.000000 0.000000
-0.213378 -0.091061 -0.298910 0 46 120 0.000000 -1.000000 0.000000
-0.385992 0.003334 -0.014062 0 46 120 0.998830 0.000000 0.048366
-0.123147 0.009717 -0.399305 0 46 120 -0.756833 0.000000 0.653608
-0.169841 -0.091061 -0.183083 0 46 120 0.000000 1.000000 0.000000
-0.368191 -0.091061 -0.092179 0 46 120 0.000000 1.000000 0.000000
-0.165014 0.037805 -0.013402 0 46 120 0.000000 -1.000000 0.000000
-0.222881 0.030859 -0.302476 0 46 120 -0.091793 -0.991539 0.091788
-0.260109 -0.091061 -0.149038 0 46 120 0.000000 1.000000 0.000000
-0.123431 -0.093603 -0.327621 0 46 120 0.918174 0.396178 0.000000
-0.314933 -0.091061 -0.205019 0 46 120 0.000000 -1.000000 0.000000
-0.240961 -0.089683 -0.413409 0 46 120 0.000000 0.000000 -1.000000
-0.204393 -0.084819 -0.413409 0 46 120 0.000000 0.000000 -1.000000
-0.220532 0.037805 -0.105882 0 46 120 0.000000 -1.000000 0.000000
-0.050065 -0.091061 -0.010755 0 46 120 0.000000 -1.000000 0.000000
-0.209274 -0.019538 -0.351133 0 46 120 0.000000 0.214511 -0.976722
-0.279460 -0.091061 -0.269387 0 46 120 0.000000 -1.000000 0.000000
-0.223244 -0.056344 -0.413409 0 46 120 0.000000 0.000000 -1.000000
-0.133347 0.037805 -0.218953 0 46 120 0.000000 -1.000000 0.000000
-0.176571 -0.091061 -0.266708 0 46 120 0.000000 1.000000 0.000000
-0.247839 -0.091061 -0.034778 0 46 120 0.000000 -1.000000 0.000000
-0.315365 -0.091061 -0.005676 0 46 120 0.000000 -1.000000 0.000000
-0.349699 -0.070346 -0.231793 0 46 120 -0.943238 0.000000 -0.332117
-0.212354 0.037805 -0.163085 0 46 120 0.000000 1.000000 0.000000
-0.024762 0.037805 -0.188539 0 46 120 0.000000 -1.000000 0.000000
-0.268025 0.037805 -0.387360 0 46 120 0.000000 1.000000 0.000000
-0.104921 0.037805 -0.364316 0 46 120 0.000000 1.000000 0.000000
-0.201890 0.037805 -0.106224 0 46 120 0.000000 1.000000 0.000000
-0.182473 0.037805 -0.373334 0 46 120 0.000000 -1.000000 0.000000
-0.134792 -0.079974 -0.315413 0 46 120 -0.625015 -0.780613 0.000000
-0.026794 -0.091061 -0.003863 0 46 120 0.000000 1.000000 0.000000
-0.295021 0.037805 -0.223716 0 46 120 0.000000 1.000000 0.000000
-0.014623 -0.091061 -0.279300 0 46 120 0.000000 -1.000000 0.000000
-0.206430 0.030782 -0.340737 0 46 120 0.000000 1.000000 0.000000
-0.190049 -0.091061 -0.401065 0 46 120 0.000000 1.000000 0.000000
-0.033618 0.037805 -0.300051 0 46 120 0.000000 1.000000 0.000000
-0.273491 0.037805 -0.365461 0 46 120 0.000000 -1.000000 0.000000
-0.343880 0.002203 -0.248320 0 46 120 -0.943238 0.000000 -0.332117
-0.007085 0.037805 -0.171634 0 46 120 0.000000 1.000000 0.000000
-0.025578 0.037805 -0.133935 0 46 120 0.000000 -1.000000 0.000000
-0.313347 -0.091061 -0.254826 0 46 120 0.000000 1.000000 0.000000
-0.287473 -0.091061 -0.041654 0 46 120 0.000000 -1.000000 0.000000
-0.133212 -0.091061 -0.182183 0 46 120 0.000000 1.000000 0.000000
-0.241149 -0.065120 -0.305088 0 46 120 0.713009 -0.701155 0.000000
-0.257356 0.037805 -0.079217 0 46 120 0.000000 1.000000 0.000000
-0.139646 -0.080046 -0.269158 0 46 120 0.000000 -0.780613 -0.625015
-0.154769 0.037805 -0.118018 0 46 120 0.000000 -1.000000 0.000000
-0.045407 -0.091061 -0.279561 0 46 120 0.000000 1.000000 0.000000
-0.150641 0.037805 -0.143546 0 46 120 0.000000 -1.000000 0.000000
-0.229310 0.037805 -0.265050 0 46 120 0.000000 -1.000000 0.000000
-0.064631 0.037805 -0.229765 0 46 120 0.000000 -1.000000 0.000000
-0.159350 -0.091760 -0.258680 0 46 120 0.000000 0.395862 0.918310
-0.066877 -0.091061 -0.296388 0 46 120 0.000000 1.000000 0.000000
-0.059549 -0.091061 -0.043742 0 46 120 0.000000 1.000000 0.000000
-0.250251 -0.073699 -0.316826 0 46 120 0.654578 -0.755995 0.000000
-0.267910 -0.089952 -0.378962 0 46 120 0.841914 -0.539612 0.000000
-0.188594 0.030782 -0.370681 0 46 120 0.000000 1.000000 0.000000
-0.227699 0.041339 -0.299548 0 46 120 0.561255 -0.608273 -0.561246
-0.311359 -0.091061 -0.289111 0 46 120 0.000000 -1.000000 0.000000
-0.145845 0.012821 -0.413409 0 46 120 0.000000 0.000000 1.000000
-0.318012 0.037805 -0.283821 0 46 120 0.000000 -1.000000 0.000000
-0.371244 0.000312 -0.151089 0 46 120 -0.970911 0.000000 -0.239441
-0.102749 0.037805 -0.061499 0 46 120 0.000000 -1.000000 0.000000
-0.246167 -0.070162 -0.294450 0 46 120 0.654578 -0.755995 0.000000
-0.100991 -0.091061 -0.099514 0 46 120 0.000000 1.000000 0.000000
-0.127705 -0.091061 -0.358506 0 46 120 0.000000 -1.000000 0.000000
-0.251757 -0.075003 -0.347018 0 46 120 -0.654578 0.755995 0.000000
-0.371010 0.015609 -0.152040 0 46 120 -0.970911 0.000000 -0.239441
-0.317674 -0.085979 -0.313534 0 46 120 -0.906753 0.000000 -0.421663
-0.183478 0.002286 -0.314424 0 46 120 0.000000 -1.000000 0.000000
-0.027445 0.037805 -0.309426 0 46 120 0.000000 1.000000 0.000000
-0.367047 0.025121 -0.168109 0 46 120 -0.970911 0.000000 -0.239441
-0.024148 -0.090046 -0.351456 0 46 120 -0.077924 0.000000 0.996959
-0.281187 -0.091061 -0.150978 0 46 120 0.000000 -1.000000 0.000000
-0.275769 -0.091061 -0.139682 0 46 120 0.000000 1.000000 0.000000
-0.042254 -0.091061 -0.274799 0 46 120 0.000000 -1.000000 0.000000
-0.239350 0.033297 -0.131824 0 46 120 0.780696 -0.608923 0.140453
-0.087972 0.037805 -0.233680 0 46 120 0.000000 1.000000 0.000000
-0.000735 0.037805 -0.106753 0 46 120 0.000000 -1.000000 0.000000
-0.001063 -0.080498 -0.351167 0 46 120 -0.077924 0.000000 -0.996959
-0.370917 0.006544 -0.152416 0 46 120 0.970911 0.000000 0.239441
-0.257620 -0.091061 -0.054887 0 46 120 0.000000 1.000000 0.000000
-0.190332 -0.081572 -0.394943 0 46 120 0.000000 0.780613 -0.625015
-0.335087 -0.032066 -0.273291 0 46 120 0.943238 0.000000 0.332117
-0.261421 0.037805 -0.089230 0 46 120 0.000000 -1.000000 0.000000
-0.332822 -0.091061 -0.257246 0 46 120 0.000000 1.000000 0.000000
-0.309369 -0.091061 -0.209279 0 46 120 0.000000 -1.000000 0.000000
-0.250762 -0.091061 -0.254584 0 46 120 0.000000 1.000000 0.000000
-0.094837 -0.020927 -0.375739 0 46 120 0.519615 0.000000 -0.854400
-0.267632 0.037805 -0.181215 0 46 120 0.000000 1.000000 0.000000
-0.287345 0.037805 -0.003084 0 46 120 0.000000 -1.000000 0.000000
-0.028275 -0.091061 -0.295407 0 46 120 0.000000 -1.000000 0.000000
-0.092805 -0.091061 -0.372256 0 46 120 0.000000 1.000000 0.000000
-0.280743 0.037805 -0.355074 0 46 120 0.000000 -1.000000 0.000000
-0.335889 -0.091061 -0.093716 0 46 120 0.000000 -1.000000 0.000000
-0.234296 -0.062940 -0.288574 0 46 120 0.000000 0.641714 0.766944
-0.316667 0.036340 -0.098306 0 46 120 0.175573 0.129838 -0.975867
-0.145781 -0.091061 -0.001308 0 46 120 0.000000 -1.000000 0.000000
-0.017510 0.037805 -0.233534 0 46 120 0.000000 -1.000000 0.000000
-0.261492 -0.082377 -0.349378 0 46 120 0.625015 -0.780613 0.000000
-0.303392 -0.091061 -0.100154 0 46 120 0.000000 1.000000 0.000000
-0.106154 -0.006278 -0.383811 0 46 120 -0.645939 0.000000 0.763389
-0.358257 0.037805 -0.093753 0 46 120 0.000000 -1.000000 0.000000
-0.288611 0.037482 -0.182912 0 46 120 0.175559 -0.130166 -0.975826
-0.181363 0.037805 -0.196711 0 46 120 0.000000 -1.000000 0.000000
-0.386241 -0.081484 -0.008936 0 46 120 0.998830 0.000000 0.048366
-0.278756 0.037805 -0.243871 0 46 120 0.000000 1.000000 0.000000
-0.123473 -0.091061 -0.012803 0 46 120 0.000000 -1.000000 0.000000
-0.158876 -0.082978 -0.265496 0 46 120 0.000000 0.780613 0.625015
-0.145848 0.037805 -0.243001 0 46 120 0.000000 1.000000 0.000000
-0.296943 -0.091061 -0.119512 0 46 120 0.000000 -1.000000 0.000000
-0.193359 0.043800 -0.303605 0 46 120 0.430063 0.793783 0.430063
-0.360393 -0.060155 -0.195087 0 46 120 0.970911 0.000000 0.239441
-0.380694 0.037805 0.001027 0 46 120 0.000000 -1.000000 0.000000
-0.170582 -0.004117 -0.413409 0 46 120 0.000000 0.000000 1.000000
-0.170319 -0.091061 -0.295820 0 46 120 0.000000 -1.000000 0.000000
-0.303342 -0.091061 -0.021025 0 46 120 0.000000 -1.000000 0.000000
-0.019062 -0.091061 -0.227386 0 46 120 0.000000 1.000000 0.000000
-0.215317 -0.029800 -0.308088 0 46 120 0.000000 0.367726 0.929934
-0.261456 0.037805 0.000183 0 46 120 0.000000 -1.000000 0.000000
-0.034724 0.037805 -0.147396 0 46 120 0.000000 1.000000 0.000000
-0.326308 -0.018346 -0.294967 0 46 120 -0.906753 0.000000 -0.421663
-0.208252 0.034179 -0.413409 0 46 120 0.000000 0.000000 -1.000000
-0.218770 0.037805 -0.274940 0 46 120 0.000000 -1.000000 0.000000
-0.004171 -0.091061 -0.260210 0 46 120 0.000000 -1.000000 0.000000
-0.191289 -0.072695 -0.383546 0 46 120 0.000000 -0.755995 0.654578
-0.020584 0.037805 -0.344435 0 46 120 0.000000 -1.000000 0.000000
-0.158177 -0.085380 -0.263238 0 46 120 0.000000 0.669027 0.743238
-0.216469 -0.081887 -0.413409 0 46 120 0.000000 0.000000 -1.000000
-0.191293 -0.091061 -0.132876 0 46 120 0.000000 -1.000000 0.000000
-0.120880 0.037805 -0.249025 0 46 120 0.000000 -1.000000 0.000000
-0.271005 -0.091061 -0.183270 0 46 120 0.000000 -1.000000 0.000000
-0.304260 0.037805 -0.265389 0 46 120 0.000000 1.000000 0.000000
-0.299596 0.037805 -0.208581 0 46 120 0.000000 1.000000 0.000000
-0.269175 0.037805 -0.238736 0 46 120 0.000000 1.000000 0.000000
-0.046636 0.037805 -0.161477 0 46 120 0.000000 -1.000000 0.000000
-0.125200 -0.008981 -0.401683 0 46 120 0.756833 0.000000 -0.653608
-0.284488 -0.091061 -0.153038 0 46 120 0.000000 1.000000 0.000000
-0.216248 0.037805 -0.305257 0 46 120 0.000000 1.000000 0.000000
-0.271707 -0.091061 -0.210862 0 46 120 0.000000 -1.000000 0.000000
-0.099061 0.037805 -0.046791 0 46 120 0.000000 1.000000 0.000000
-0.171052 -0.014237 -0.413409 0 46 120 0.000000 0.000000 1.000000
-0.049487 0.037805 -0.090769 0 46 120 0.000000 -1.000000 0.000000
-0.295198 -0.091061 -0.076868 0 46 120 0.000000 1.000000 0.000000
-0.324399 0.037805 -0.192304 0 46 120 0.000000 1.000000 0.000000
-0.028205 -0.091061 -0.008632 0 46 120 0.000000 1.000000 0.000000
-0.329675 -0.070529 -0.287726 0 46 120 -0.906753 0.000000 -0.421663
-0.092762 -0.091061 -0.277132 0 46 120 0.000000 -1.000000 0.000000
-0.107123 -0.091061 -0.076634 0 46 120 0.000000 1.000000 0.000000
-0.365005 0.011131 -0.176388 0 46 120 0.970911 0.000000 0.239441
-0.228864 0.037805 -0.319622 0 46 120 0.000000 1.000000 0.000000
-0.288064 -0.091061 -0.293736 0 46 120 0.000000 -1.000000 0.000000
-0.295834 0.037805 -0.331126 0 46 120 0.000000 1.000000 0.000000
-0.188842 0.042468 -0.305895 0 46 120 0.561242 0.608279 0.561252
-0.379467 0.029375 -0.098575 0 46 120 -0.989491 0.000000 -0.144592
-0.231689 -0.091061 -0.071862 0 46 120 0.000000 1.000000 0.000000
-0.253025 -0.091061 -0.385982 0 46 120 0.000000 1.000000 0.000000
-0.244884 0.037805 -0.383040 0 46 120 0.000000 1.000000 0.000000
-0.017233 0.037805 -0.085073 0 46 120 0.000000 -1.000000 0.000000
-0.278391 0.037805 -0.060755 0 46 120 0.000000 1.000000 0.000000
-0.123511 -0.093417 -0.286287 0 46 120 -0.918174 -0.396178 0.000000
-0.179275 -0.091061 -0.043348 0 46 120 0.000000 -1.000000 0.000000
-0.034753 -0.091061 -0.341454 0 46 120 0.000000 1.000000 0.000000
-0.228968 -0.091061 -0.203966 0 46 120 0.000000 -1.000000 0.000000
-0.209802 0.030782 -0.361198 0 46 120 0.000000 -1.000000 0.000000
-0.236299 0.037805 -0.192687 0 46 120 0.000000 -1.000000 0.000000
-0.383480 0.030902 -0.065957 0 46 120 -0.998830 0.000000 -0.048366
-0.096945 0.037805 -0.046890 0 46 120 0.000000 1.000000 0.000000
-0.217442 0.037805 -0.289208 0 46 120 0.000000 -1.000000 0.000000
-0.379248 -0.079047 -0.100074 0 46 120 -0.989491 0.000000 -0.144592
-0.326558 0.037805 -0.098910 0 46 120 0.000000 -1.000000 0.000000
-0.007588 -0.091061 -0.300957 0 46 120 0.000000 -1.000000 0.000000
-0.079988 -0.091061 -0.036580 0 46 120 0.000000 -1.000000 0.000000
-0.284551 -0.091061 -0.348384 0 46 120 0.000000 -1.000000 0.000000
-0.181030 -0.055404 -0.294569 0 46 120 0.000000 0.578548 0.815648
-0.273380 -0.091061 -0.188947 0 46 120 0.000000 1.000000 0.000000
-0.266771 -0.088175 -0.364780 0 46 120 0.841914 -0.539612 0.000000
-0.080664 -0.091061 -0.159978 0 46 120 0.000000 -1.000000 0.000000
-0.216202 0.037805 -0.301614 0 46 120 0.000000 -1.000000 0.000000
-0.235770 0.041554 -0.307852 0 46 120 0.561255 -0.608273 -0.561246
-0.118234 0.037805 -0.251954 0 46 120 0.000000 -1.000000 0.000000
-0.386476 -0.073988 0.001995 0 46 120 0.998830 0.000000 -0.048368
-0.329893 0.033533 -0.109972 0 46 120 -0.781302 -0.608114 -0.140584
-0.228536 0.037805 -0.389310 0 46 120 0.000000 -1.000000 0.000000
-0.269156 -0.091061 -0.257427 0 46 120 0.000000 -1.000000 0.000000
-0.315416 0.023355 -0.318389 0 46 120 -0.906753 0.000000 -0.421663
-0.338794 -0.005451 -0.262763 0 46 120 -0.943238 0.000000 -0.332117
-0.115494 0.022389 -0.391714 0 46 120 0.645939 0.000000 -0.763389
-0.283213 0.037805 -0.261665 0 46 120 0.000000 1.000000 0.000000
-0.383366 -0.060363 -0.068301 0 46 120 -0.998830 0.000000 -0.048366
-0.133197 0.037805 -0.252562 0 46 120 0.000000 -1.000000 0.000000
-0.271471 0.037805 -0.333834 0 46 120 0.000000 1.000000 0.000000
-0.106328 0.002746 -0.383958 0 46 120 0.645939 0.000000 -0.763389
-0.278970 -0.091061 -0.265309 0 46 120 0.000000 1.000000 0.000000
-0.275261 0.037805 -0.330575 0 46 120 0.000000 1.000000 0.000000
-0.187431 -0.091061 -0.180510 0 46 120 0.000000 -1.000000 0.000000
-0.189686 0.037805 -0.251303 0 46 120 0.000000 1.000000 0.000000
-0.280584 0.037805 -0.136581 0 46 120 0.000000 -1.000000 0.000000
-0.264356 -0.091061 -0.250869 0 46 120 0.000000 -1.000000 0.000000
-0.027458 -0.061910 -0.351714 0 46 120 0.077924 0.000000 -0.996959
-0.046171 -0.091061 -0.083070 0 46 120 0.000000 -1.000000 0.000000
-0.004054 0.037805 -0.028241 0 46 120 0.000000 -1.000000 0.000000
-0.257002 0.037805 -0.273063 0 46 120 0.000000 1.000000 0.000000
-0.176169 -0.075114 -0.413409 0 46 120 0.000000 0.000000 1.000000
-0.267911 0.037805 -0.372538 0 46 120 0.000000 -1.000000 0.000000
-0.125462 0.037805 -0.007819 0 46 120 0.000000 -1.000000 0.000000
-0.015764 0.037805 -0.025001 0 46 120 0.000000 1.000000 0.000000
-0.190806 0.002286 -0.344320 0 46 120 0.000000 -1.000000 0.000000
-0.210134 -0.091061 -0.284683 0 46 120 0.000000 -1.000000 0.000000
-0.286406 0.037805 -0.256122 0 46 120 0.000000 1.000000 0.000000
-0.218506 -0.091061 -0.396139 0 46 120 0.000000 -1.000000 0.000000
-0.210911 -0.091061 -0.015795 0 46 120 0.000000 1.000000 0.000000
-0.006115 0.037805 -0.005701 0 46 120 0.000000 1.000000 0.000000
-0.210014 -0.091061 -0.311856 0 46 120 0.000000 -1.000000 0.000000
-0.218459 -0.032190 -0.355053 0 46 120 0.000000 0.367726 -0.929934
-0.261122 0.037805 -0.164130 0 46 120 0.000000 -1.000000 0.000000
-0.134573 0.009656 -0.412537 0 46 120 0.756825 0.000000 -0.653617
-0.021994 0.037805 -0.337757 0 46 120 0.000000 1.000000 0.000000
-0.125830 0.037805 -0.261539 0 46 120 0.000000 -1.000000 0.000000
-0.188319 0.037805 -0.413065 0 46 120 0.000000 -1.000000 0.000000
-0.363256 -0.060730 -0.183481 0 46 120 0.970911 0.000000 0.239441
-0.224074 0.037805 -0.336171 0 46 120 0.000000 -1.000000 0.000000
-0.058252 -0.091061 -0.087157 0 46 120 0.000000 -1.000000 0.000000
-0.316531 -0.074139 -0.315992 0 46 120 -0.906753 0.000000 -0.421663
-0.375847 -0.009594 -0.123348 0 46 120 -0.989491 0.000000 -0.144592
-0.136184 0.037805 -0.037239 0 46 120 0.000000 -1.000000 0.000000
-0.300340 0.000674 -0.350795 0 46 120 -0.861791 0.000000 -0.507264
-0.385407 0.035486 -0.026145 0 46 120 0.998830 0.000000 0.048366
-0.230354 -0.091061 -0.222150 0 46 120 0.000000 -1.000000 0.000000
-0.209247 -0.091061 -0.222536 0 46 120 0.000000 1.000000 0.000000
-0.227387 0.037805 -0.180221 0 46 120 0.000000 -1.000000 0.000000
-0.351053 -0.000825 -0.227947 0 46 120 0.943238 0.000000 0.332117
-0.210520 -0.091061 -0.379419 0 46 120 0.000000 -1.000000 0.000000
-0.188200 0.037805 -0.225879 0 46 120 0.000000 1.000000 0.000000
-0.049178 -0.091061 -0.328061 0 46 120 0.000000 1.000000 0.000000
-0.161841 0.037805 -0.338166 0 46 120 0.000000 -1.000000 0.000000
-0.184204 -0.044700 -0.301415 0 46 120 0.000000 0.511241 0.859438
-0.118659 -0.091061 -0.263472 0 46 120 0.000000 -1.000000 0.000000
-0.268683 0.023336 -0.404579 0 46 120 0.861791 0.000000 0.507264
-0.103145 -0.091061 -0.269271 0 46 120 0.000000 -1.000000 0.000000
-0.360514 0.037805 -0.070906 0 46 120 0.000000 -1.000000 0.000000
-0.229036 -0.091061 -0.208729 0 46 120 0.000000 1.000000 0.000000
-0.049580 0.037805 -0.053047 0 46 120 0.000000 1.000000 0.000000
-0.226801 0.037805 -0.131407 0 46 120 0.000000 1.000000 0.000000
-0.259876 0.037805 -0.000197 0 46 120 0.000000 1.000000 0.000000
-0.384570 -0.018383 -0.043432 0 46 120 -0.998830 0.000000 -0.048366
-0.280067 -0.053592 -0.385237 0 46 120 0.861791 0.000000 0.507264
-0.357809 0.022506 -0.205567 0 46 120 0.970911 0.000000 0.239441
-0.319755 0.037805 -0.028701 0 46 120 0.000000 1.000000 0.000000
-0.021614 0.037805 -0.304030 0 46 120 0.000000 -1.000000 0.000000
-0.250952 -0.091061 -0.125133 0 46 120 0.000000 -1.000000 0.000000
-0.162785 0.037805 -0.272327 0 46 120 0.000000 1.000000 0.000000
-0.138937 -0.091061 -0.082379 0 46 120 0.000000 -1.000000 0.000000
-0.081960 -0.007089 -0.367908 0 46 120 -0.519615 0.000000 0.854400
-0.236944 0.036536 -0.380094 0 46 120 -0.700992 -0.131412 -0.700958
-0.384859 0.032740 -0.037466 0 46 120 0.998830 0.000000 0.048366
-0.032701 0.037805 -0.132224 0 46 120 0.000000 1.000000 0.000000
-0.021379 -0.039245 -0.351239 0 46 120 -0.077924 0.000000 0.996959
-0.193068 0.044725 -0.379850 0 46 120 0.092202 0.991462 -0.092202
-0.298367 0.037805 -0.008353 0 46 120 0.000000 -1.000000 0.000000
-0.088331 -0.091061 -0.158763 0 46 120 0.000000 -1.000000 0.000000
-0.183075 -0.013414 -0.312375 0 46 120 0.000000 -0.135990 -0.990710
-0.178671 -0.057011 -0.293429 0 46 120 0.000000 -0.578548 -0.815648
-0.245592 -0.075321 -0.413409 0 46 120 0.000000 0.000000 -1.000000
-0.154307 -0.062713 -0.302796 0 46 120 -0.766823 -0.641859 0.000000
-0.090413 -0.032264 -0.373049 0 46 120 0.519615 0.000000 -0.854400
-0.309654 -0.082032 -0.330780 0 46 120 -0.906753 0.000000 -0.421663
-0.354752 -0.009561 -0.217441 0 46 120 0.943238 0.000000 0.332117
-0.053229 0.037805 -0.188661 0 46 120 0.000000 1.000000 0.000000
-0.240694 0.037805 -0.198196 0 46 120 0.000000 -1.000000 0.000000
-0.384573 -0.061005 -0.043375 0 46 120 -0.998830 0.000000 -0.048366
-0.373522 0.037805 -0.068713 0 46 120 0.000000 1.000000 0.000000
-0.330234 0.039736 -0.115069 0 46 120 0.908928 -0.383553 0.163515
-0.074847 -0.091061 -0.318117 0 46 120 0.000000 1.000000 0.000000
-0.028949 -0.091061 -0.056175 0 46 120 0.000000 -1.000000 0.000000
-0.037879 0.037805 -0.067775 0 46 120 0.000000 1.000000 0.000000
-0.065077 -0.072780 -0.360690 0 46 120 0.380283 0.000000 -0.924870
-0.197606 -0.003508 -0.313548 0 46 120 0.000000 -0.055819 -0.998441
-0.033098 0.037805 -0.029811 0 46 120 0.000000 -1.000000 0.000000
-0.194551 -0.091061 -0.074686 0 46 120 0.000000 -1.000000 0.000000
-0.122942 -0.094736 -0.273139 0 46 120 -0.918174 -0.396178 0.000000
-0.034137 -0.091061 -0.284440 0 46 120 0.000000 1.000000 0.000000
-0.119004 -0.005890 -0.394684 0 46 120 -0.645939 0.000000 0.763389
-0.344614 -0.083392 -0.246233 0 46 120 -0.943238 0.000000 -0.332117
-0.236091 -0.061672 -0.289635 0 46 120 0.000000 0.641714 0.766944
-0.177873 -0.066539 -0.413409 0 46 120 0.000000 0.000000 1.000000
-0.215146 0.037805 -0.310747 0 46 120 0.000000 1.000000 0.000000
-0.357439 -0.005735 -0.207069 0 46 120 0.970911 0.000000 0.239441
-0.237664 0.037805 -0.064564 0 46 120 0.000000 1.000000 0.000000
-0.355582 -0.091061 -0.121889 0 46 120 0.000000 -1.000000 0.000000
-0.351684 0.037805 -0.081325 0 46 120 0.000000 -1.000000 0.000000
-0.021820 0.037805 -0.223989 0 46 120 0.000000 -1.000000 0.000000
-0.125100 -0.091061 -0.132804 0 46 120 0.000000 -1.000000 0.000000
-0.238885 -0.082904 -0.396608 0 46 120 0.000000 0.780613 -0.625015
-0.210769 -0.091061 -0.208907 0 46 120 0.000000 -1.000000 0.000000
-0.263249 -0.091061 -0.089855 0 46 120 0.000000 1.000000 0.000000
-0.100449 0.037805 -0.210555 0 46 120 0.000000 1.000000 0.000000
-0.070397 0.037805 -0.131961 0 46 120 0.000000 -1.000000 0.000000
-0.069686 -0.091061 -0.314761 0 46 120 0.000000 -1.000000 0.000000
-0.244966 -0.091061 -0.013139 0 46 120 0.000000 1.000000 0.000000
-0.056137 -0.091061 -0.039722 0 46 120 0.000000 1.000000 0.000000
-0.156402 -0.003882 -0.413409 0 46 120 0.000000 0.000000 -1.000000
-0.264051 -0.084879 -0.265743 0 46 120 -0.742959 0.669337 0.000000
-0.085214 0.037805 -0.209763 0 46 120 0.000000 -1.000000 0.000000
-0.121136 -0.100604 -0.262936 0 46 120 -0.970275 -0.242007 0.000000
-0.063695 0.037805 -0.092145 0 46 120 0.000000 1.000000 0.000000
-0.202180 0.037805 -0.067946 0 46 120 0.000000 -1.000000 0.000000
-0.372523 -0.076831 -0.145903 0 46 120 0.970911 0.000000 0.239441
-0.244157 -0.098030 -0.405963 0 46 120 0.000000 -0.242007 0.970275
-0.232077 -0.003571 -0.413409 0 46 120 0.000000 0.000000 -1.000000
-0.309904 -0.091061 -0.125208 0 46 120 0.000000 1.000000 0.000000
-0.248336 0.037805 -0.310970 0 46 120 0.000000 1.000000 0.000000
-0.273726 0.037805 -0.123814 0 46 120 0.000000 1.000000 0.000000
-0.148978 -0.091061 -0.174843 0 46 120 0.000000 -1.000000 0.000000
-0.266123 -0.091061 -0.326654 0 46 120 0.000000 1.000000 0.000000
-0.024137 0.037805 -0.192153 0 46 120 0.000000 -1.000000 0.000000
-0.134090 -0.092877 -0.258199 0 46 120 0.000000 0.395862 0.918310
-0.225876 0.037805 -0.243638 0 46 120 0.000000 1.000000 0.000000
-0.073208 0.037805 -0.017810 0 46 120 0.000000 -1.000000 0.000000
-0.136171 -0.081326 -0.394637 0 46 120 0.000000 0.780613 -0.625015
-0.299455 0.030973 -0.179253 0 46 120 -0.022996 0.991534 0.127798
-0.086467 -0.091061 -0.238644 0 46 120 0.000000 -1.000000 0.000000
-0.115176 0.037805 -0.001287 0 46 120 0.000000 -1.000000 0.000000
-0.074447 -0.091061 -0.054008 0 46 120 0.000000 1.000000 0.000000
-0.229537 -0.050097 -0.353053 0 46 120 0.859383 -0.511332 0.000000
-0.354689 -0.053590 -0.217619 0 46 120 0.943238 0.000000 0.332117
-0.334139 0.006515 -0.275984 0 46 120 0.943238 0.000000 0.332117
-0.152481 0.037805 -0.103853 0 46 120 0.000000 1.000000 0.000000
-0.160457 0.037805 -0.023722 0 46 120 0.000000 1.000000 0.000000
-0.385034 -0.049364 -0.033863 0 46 120 -0.998830 0.000000 -0.048366
-0.117418 0.037805 -0.299588 0 46 120 0.000000 -1.000000 0.000000
-0.126275 -0.088547 -0.321001 0 46 120 0.841999 0.539479 0.000000
-0.212588 -0.031089 -0.354618 0 46 120 0.000000 -0.367726 0.929934
-0.105079 0.037805 -0.236946 0 46 120 0.000000 -1.000000 0.000000
-0.081624 -0.091061 -0.061533 0 46 120 0.000000 -1.000000 0.000000
-0.061609 0.021511 -0.359264 0 46 120 0.380283 0.000000 -0.924870
-0.361248 -0.091061 -0.189820 0 46 120 0.000000 1.000000 0.000000
-0.342475 -0.091061 -0.185122 0 46 120 0.000000 1.000000 0.000000
-0.142486 -0.091061 -0.406503 0 46 120 0.000000 1.000000 0.000000
-0.098514 0.037805 -0.020124 0 46 120 0.000000 -1.000000 0.000000
-0.124823 -0.090813 -0.322591 0 46 120 0.841999 0.539479 0.000000
-0.098384 0.037805 -0.250217 0 46 120 0.000000 1.000000 0.000000
-0.350345 -0.084358 -0.229958 0 46 120 -0.943238 0.000000 -0.332117
-0.199298 -0.004184 -0.348685 0 46 120 0.000000 0.056065 -0.998427
-0.201124 0.037805 -0.249143 0 46 120 0.000000 -1.000000 0.000000
-0.182949 0.037805 -0.107048 0 46 120 0.000000 -1.000000 0.000000
-0.260292 -0.091061 -0.049378 0 46 120 0.000000 1.000000 0.000000
-0.261527 0.037805 -0.408904 0 46 120 0.000000 -1.000000 0.000000
-0.240421 0.037805 -0.291075 0 46 120 0.000000 1.000000 0.000000
-0.167022 -0.044594 -0.321427 0 46 120 0.859383 0.511332 0.000000
-0.168225 -0.058841 -0.292003 0 46 120 0.000000 -0.641714 -0.766944
-0.002136 0.037805 -0.046448 0 46 120 0.000000 1.000000 0.000000
-0.256250 -0.091061 -0.119420 0 46 120 0.000000 -1.000000 0.000000
-0.021800 -0.091061 -0.116754 0 46 120 0.000000 -1.000000 0.000000
-0.179585 0.037805 -0.035642 0 46 120 0.000000 1.000000 0.000000
-0.024889 -0.091061 -0.147134 0 46 120 0.000000 1.000000 0.000000
-0.237579 -0.061042 -0.345718 0 46 120 -0.766944 0.641714 0.000000
-0.269187 0.037805 -0.310596 0 46 120 0.000000 1.000000 0.000000
-0.201014 -0.051089 -0.413409 0 46 120 0.000000 0.000000 -1.000000
-0.018099 -0.091061 -0.138048 0 46 120 0.000000 1.000000 0.000000
-0.368683 0.013833 -0.161472 0 46 120 0.970911 0.000000 0.239441
-0.176220 -0.091061 -0.296779 0 46 120 0.000000 1.000000 0.000000
-0.193997 -0.091061 -0.310898 0 46 120 0.000000 1.000000 0.000000
-0.046657 -0.091061 -0.248130 0 46 120 0.000000 -1.000000 0.000000
-0.298332 0.037805 -0.003391 0 46 120 0.000000 -1.000000 0.000000
-0.216228 0.037805 -0.388164 0 46 120 0.000000 -1.000000 0.000000
-0.120460 -0.019706 -0.396194 0 46 120 0.756833 0.000000 -0.653608
-0.054218 -0.018067 -0.356922 0 46 120 -0.232091 0.000000 0.972694
-0.039829 0.037805 -0.339355 0 46 120 0.000000 -1.000000 0.000000
-0.027827 -0.091061 -0.148183 0 46 120 0.000000 -1.000000 0.000000
-0.141640 0.037805 -0.346435 0 46 120 0.000000 -1.000000 0.000000
-0.337847 0.021750 -0.265452 0 46 120 0.943238 0.000000 0.332117
-0.097937 0.037805 -0.112704 0 46 120 0.000000 -1.000000 0.000000
-0.240012 0.037805 -0.161210 0 46 120 0.000000 -1.000000 0.000000
-0.319109 0.037805 -0.303682 0 46 120 0.000000 -1.000000 0.000000
-0.235173 0.030992 -0.374438 0 46 120 -0.091788 -0.991540 -0.091784
-0.279717 0.037805 -0.005112 0 46 120 0.000000 1.000000 0.000000
-0.133110 -0.081321 -0.325598 0 46 120 -0.625015 -0.780613 0.000000
-0.144507 0.037805 -0.055210 0 46 120 0.000000 1.000000 0.000000
-0.119673 0.037805 -0.284763 0 46 120 0.000000 -1.000000 0.000000
-0.255407 0.037805 -0.285569 0 46 120 0.000000 -1.000000 0.000000
-0.262007 -0.081015 -0.413409 0 46 120 0.000000 0.000000 1.000000
-0.283397 -0.041933 -0.379581 0 46 120 -0.861791 0.000000 -0.507264
-0.356366 0.037805 -0.059473 0 46 120 0.000000 -1.000000 0.000000
-0.195851 0.037805 -0.074068 0 46 120 0.000000 -1.000000 0.000000
-0.267900 -0.089936 -0.299205 0 46 120 -0.841914 0.539612 0.000000
-0.229145 -0.065815 -0.413409 0 46 120 0.000000 0.000000 -1.000000
-0.024282 0.012168 -0.351466 0 46 120 -0.077924 0.000000 0.996959
-0.329057 0.037805 -0.224713 0 46 120 0.000000 -1.000000 0.000000
-0.380190 -0.028122 -0.093630 0 46 120 -0.989491 0.000000 -0.144592
-0.326917 -0.091061 -0.275437 0 46 120 0.000000 -1.000000 0.000000
-0.345814 -0.084122 -0.242827 0 46 120 -0.943238 0.000000 -0.332117
-0.122921 -0.094785 -0.336232 0 46 120 0.918174 0.396178 0.000000
-0.188397 0.037805 -0.033237 0 46 120 0.000000 1.000000 0.000000
-0.240462 0.033497 -0.313150 0 46 120 -0.560708 -0.609298 0.560680
-0.138850 -0.076987 -0.349721 0 46 120 -0.592108 -0.805859 0.000000
-0.121704 0.037805 -0.038190 0 46 120 0.000000 -1.000000 0.000000
-0.152780 0.037805 -0.113890 0 46 120 0.000000 1.000000 0.000000
-0.182536 0.037805 -0.413290 0 46 120 0.000000 -1.000000 0.000000
-0.206016 0.042048 -0.399502 0 46 120 -0.561224 -0.608288 0.561260
-0.141003 -0.091061 -0.385892 0 46 120 0.000000 -1.000000 0.000000
-0.324987 -0.022112 -0.297809 0 46 120 -0.906753 0.000000 -0.421663
-0.338100 0.037805 -0.141203 0 46 120 0.000000 1.000000 0.000000
-0.126909 -0.091061 -0.324460 0 46 120 0.000000 -1.000000 0.000000
-0.253711 0.037805 -0.072667 0 46 120 0.000000 1.000000 0.000000
-0.228379 -0.049121 -0.298785 0 46 120 0.000000 0.511241 0.859438
-0.381043 0.014060 -0.087793 0 46 120 -0.989491 0.000000 -0.144592
-0.230770 -0.052018 -0.320581 0 46 120 0.815648 -0.578548 0.000000
-0.185849 -0.067378 -0.413409 0 46 120 0.000000 0.000000 -1.000000
-0.191906 0.037805 -0.401726 0 46 120 0.000000 1.000000 0.000000
-0.030561 -0.001174 -0.351957 0 46 120 -0.077924 0.000000 0.996959
-0.123566 -0.091061 -0.222108 0 46 120 0.000000 1.000000 0.000000
-0.339969 -0.032958 -0.259427 0 46 120 -0.943238 0.000000 -0.332117
-0.281939 0.037805 -0.296048 0 46 120 0.000000 1.000000 0.000000
-0.222227 -0.096077 -0.405377 0 46 120 0.000000 -0.396020 0.918242
-0.162938 0.036812 -0.358365 0 46 120 -0.701010 0.131030 0.701010
-0.148010 -0.091061 -0.021911 0 46 120 0.000000 -1.000000 0.000000
-0.020260 0.037805 -0.106665 0 46 120 0.000000 1.000000 0.000000
-0.041987 -0.091061 -0.088989 0 46 120 0.000000 1.000000 0.000000
-0.218755 0.031789 -0.294091 0 46 120 -0.430698 -0.793106 0.430676
-0.055510 -0.005423 -0.357230 0 46 120 -0.232091 0.000000 0.972694
-0.306714 0.037805 -0.123566 0 46 120 0.000000 -1.000000 0.000000
-0.378800 -0.091061 -0.079001 0 46 120 0.000000 1.000000 0.000000
-0.147764 0.037805 -0.273437 0 46 120 0.000000 1.000000 0.000000
-0.197991 -0.091061 -0.321301 0 46 120 0.000000 -1.000000 0.000000
-0.219321 -0.045649 -0.300850 0 46 120 0.000000 0.511241 0.859438
-0.191799 -0.083758 -0.413409 0 46 120 0.000000 0.000000 -1.000000
-0.265507 0.037805 -0.020316 0 46 120 0.000000 -1.000000 0.000000
-0.133114 -0.091061 -0.287111 0 46 120 0.000000 1.000000 0.000000
-0.336959 -0.007886 -0.267975 0 46 120 -0.943238 0.000000 -0.332117
-0.277830 -0.001288 -0.389038 0 46 120 0.861791 0.000000 0.507264
-0.243719 0.030782 -0.329292 0 46 120 0.000000 -1.000000 0.000000
-0.242766 0.037805 -0.319525 0 46 120 0.000000 -1.000000 0.000000
-0.065151 -0.091061 -0.183406 0 46 120 0.000000 1.000000 0.000000
-0.349579 0.037805 -0.150423 0 46 120 0.000000 1.000000 0.000000
-0.206028 -0.091061 -0.089793 0 46 120 0.000000 1.000000 0.000000
-0.226920 -0.091061 -0.124300 0 46 120 0.000000 -1.000000 0.000000
-0.310636 -0.011444 -0.328670 0 46 120 -0.906753 0.000000 -0.421663
-0.232864 -0.073111 -0.413409 0 46 120 0.000000 0.000000 1.000000
-0.031128 0.037805 -0.023072 0 46 120 0.000000 1.000000 0.000000
-0.309405 0.030782 -0.153088 0 46 120 0.000000 1.000000 0.000000
-0.252937 -0.091061 -0.205113 0 46 120 0.000000 -1.000000 0.000000
-0.009610 -0.069707 -0.350499 0 46 120 -0.077924 0.000000 -0.996959
-0.241596 0.037805 -0.247327 0 46 120 0.000000 1.000000 0.000000
-0.149040 0.037805 -0.228819 0 46 120 0.000000 1.000000 0.000000
-0.179892 0.037805 -0.026238 0 46 120 0.000000 1.000000 0.000000
-0.359987 -0.091061 -0.188785 0 46 120 0.000000 -1.000000 0.000000
-0.105849 -0.091061 -0.283808 0 46 120 0.000000 1.000000 0.000000
-0.107958 -0.091061 -0.367423 0 46 120 0.000000 -1.000000 0.000000
-0.129750 0.037805 -0.406573 0 46 120 0.000000 -1.000000 0.000000
-0.121777 0.036947 -0.397719 0 46 120 0.756833 0.000000 -0.653608
-0.285609 0.037805 -0.113466 0 46 120 0.000000 1.000000 0.000000
-0.253379 0.037805 -0.008632 0 46 120 0.000000 -1.000000 0.000000
-0.049737 -0.091061 -0.085927 0 46 120 0.000000 -1.000000 0.000000
-0.247143 0.033525 -0.087527 0 46 120 -0.781428 0.607947 -0.140611
-0.067322 -0.091061 -0.125340 0 46 120 0.000000 1.000000 0.000000
-0.002645 0.037805 -0.081063 0 46 120 0.000000 1.000000 0.000000
-0.300640 -0.005970 -0.350165 0 46 120 -0.906753 0.000000 -0.421663
-0.275328 -0.091061 -0.308826 0 46 120 0.000000 -1.000000 0.000000
-0.136536 0.037805 -0.213193 0 46 120 0.000000 1.000000 0.000000
-0.375504 0.015307 -0.125698 0 46 120 0.989491 0.000000 0.144592
-0.204295 -0.003426 -0.313553 0 46 120 0.000000 -0.055819 -0.998441
-0.374818 0.037805 -0.109815 0 46 120 0.000000 1.000000 0.000000
-0.141428 0.037805 -0.051776 0 46 120 0.000000 1.000000 0.000000
-0.279547 -0.089689 -0.386122 0 46 120 0.861791 0.000000 0.507264
-0.259482 -0.028628 -0.413409 0 46 120 0.000000 0.000000 -1.000000
-0.334749 0.037805 -0.023293 0 46 120 0.000000 -1.000000 0.000000
-0.333347 0.037805 -0.110360 0 46 120 0.000000 1.000000 0.000000
-0.246366 -0.082225 -0.395760 0 46 120 0.000000 0.780613 -0.625015
-0.162535 -0.078855 -0.270764 0 46 120 0.000000 -0.805902 -0.592049
-0.031578 0.037805 -0.079993 0 46 120 0.000000 -1.000000 0.000000
-0.117201 0.037805 -0.272568 0 46 120 0.000000 -1.000000 0.000000
-0.351090 -0.091061 -0.167125 0 46 120 0.000000 1.000000 0.000000
-0.365702 0.032309 -0.173563 0 46 120 0.970911 0.000000 0.239441
-0.226301 -0.091061 -0.368985 0 46 120 0.000000 1.000000 0.000000
-0.350245 -0.091061 -0.112390 0 46 120 0.000000 1.000000 0.000000
-0.286548 0.036858 -0.182458 0 46 120 0.175559 -0.130166 -0.975826
-0.275266 0.037805 -0.313264 0 46 120 0.000000 -1.000000 0.000000
-0.098601 0.037805 -0.238402 0 46 120 0.000000 -1.000000 0.000000
-0.192415 0.037805 -0.067251 0 46 120 0.000000 1.000000 0.000000
-0.274472 -0.091061 -0.282279 0 46 120 0.000000 -1.000000 0.000000
-0.301170 0.030782 -0.123823 0 46 120 0.000000 1.000000 0.000000
-0.080787 0.037805 -0.289757 0 46 120 0.000000 1.000000 0.000000
-0.255207 0.037805 -0.017777 0 46 120 0.000000 -1.000000 0.000000
-0.023640 -0.091061 -0.335591 0 46 120 0.000000 -1.000000 0.000000
-0.189789 -0.018079 -0.413409 0 46 120 0.000000 0.000000 -1.000000
-0.065531 0.037805 -0.154397 0 46 120 0.000000 1.000000 0.000000
-0.386493 0.014112 0.001649 0 46 120 -0.998830 0.000000 0.048368
-0.154881 -0.091061 -0.252432 0 46 120 0.000000 -1.000000 0.000000
-0.276070 -0.091061 -0.305167 0 46 120 0.000000 -1.000000 0.000000
-0.190740 0.002286 -0.339267 0 46 120 0.000000 1.000000 0.000000
-0.288548 -0.082642 -0.370830 0 46 120 0.861791 0.000000 0.507264
-0.298580 -0.042075 -0.353787 0 46 120 0.861791 0.000000 0.507264
-0.370972 -0.027233 -0.152192 0 46 120 0.970911 0.000000 0.239441
-0.235521 0.037805 -0.037979 0 46 120 0.000000 -1.000000 0.000000
-0.195178 0.037805 -0.318050 0 46 120 0.000000 -1.000000 0.000000
-0.138198 0.037805 -0.138075 0 46 120 0.000000 -1.000000 0.000000
-0.343498 -0.082140 -0.249403 0 46 120 -0.943238 0.000000 -0.332117
-0.070747 -0.091061 -0.178211 0 46 120 0.000000 1.000000 0.000000
-0.150088 0.037805 -0.361206 0 46 120 0.000000 -1.000000 0.000000
-0.067334 -0.091061 -0.057246 0 46 120 0.000000 -1.000000 0.000000
-0.027246 0.037805 -0.266874 0 46 120 0.000000 -1.000000 0.000000
-0.289243 -0.091061 -0.226873 0 46 120 0.000000 1.000000 0.000000
-0.276990 0.037805 -0.306167 0 46 120 0.000000 -1.000000 0.000000
-0.307768 0.037805 -0.202484 0 46 120 0.000000 1.000000 0.000000
-0.123177 -0.091061 -0.332842 0 46 120 0.000000 1.000000 0.000000
-0.172154 -0.091061 -0.372337 0 46 120 0.000000 1.000000 0.000000
-0.254617 0.037805 -0.028952 0 46 120 0.000000 -1.000000 0.000000
-0.261056 0.037805 -0.319868 0 46 120 0.000000 1.000000 0.000000
-0.367937 -0.080607 -0.164500 0 46 120 -0.970911 0.000000 -0.239441
-0.170446 0.037805 -0.108358 0 46 120 0.000000 -1.000000 0.000000
-0.094666 0.037805 -0.118816 0 46 120 0.000000 -1.000000 0.000000
-0.132677 0.037805 -0.379011 0 46 120 0.000000 -1.000000 0.000000
-0.011298 -0.091061 -0.052954 0 46 120 0.000000 -1.000000 0.000000
-0.095204 0.037805 -0.372684 0 46 120 0.000000 1.000000 0.000000
-0.185986 -0.091061 -0.384459 0 46 120 0.000000 -1.000000 0.000000
-0.124564 -0.091216 -0.307306 0 46 120 -0.841999 -0.539479 0.000000
-0.163919 0.037805 -0.137767 0 46 120 0.000000 -1.000000 0.000000
-0.126956 -0.087484 -0.346871 0 46 120 0.841999 0.539479 0.000000
-0.385531 -0.085837 -0.023592 0 46 120 -0.998830 0.000000 -0.048366
-0.070577 -0.091061 -0.005049 0 46 120 0.000000 -1.000000 0.000000
-0.096612 -0.091061 -0.329325 0 46 120 0.000000 1.000000 0.000000
-0.250244 0.037805 -0.277318 0 46 120 0.000000 1.000000 0.000000
-0.001469 -0.091061 -0.229580 0 46 120 0.000000 -1.000000 0.000000
-0.160525 -0.091061 -0.303269 0 46 120 0.000000 1.000000 0.000000
-0.158491 -0.091061 -0.364981 0 46 120 0.000000 -1.000000 0.000000
-0.096378 0.037328 -0.376677 0 46 120 0.519615 0.000000 -0.854400
-0.339698 -0.091061 -0.244093 0 46 120 0.000000 -1.000000 0.000000
-0.177607 -0.091061 -0.059826 0 46 120 0.000000 1.000000 0.000000
-0.373346 0.028202 -0.140465 0 46 120 -0.989491 0.000000 -0.144592
-0.199866 0.037805 -0.328878 0 46 120 0.000000 1.000000 0.000000
-0.074617 -0.091061 -0.242957 0 46 120 0.000000 1.000000 0.000000
-0.325534 -0.022306 -0.296631 0 46 120 0.906753 0.000000 0.421663
-0.185228 -0.033869 -0.355717 0 46 120 0.000000 0.367726 -0.929934
-0.148989 0.037805 -0.295446 0 46 120 0.000000 1.000000 0.000000
-0.087504 0.037805 0.000341 0 46 120 0.000000 1.000000 0.000000
-0.284610 -0.091061 -0.355359 0 46 120 0.000000 -1.000000 0.000000
-0.304268 -0.091061 -0.313652 0 46 120 0.000000 -1.000000 0.000000
-0.306051 0.030782 -0.104444 0 46 120 0.000000 -1.000000 0.000000
-0.274115 -0.091061 -0.036412 0 46 120 0.000000 -1.000000 0.000000
-0.127973 -0.091061 -0.292026 0 46 120 0.000000 -1.000000 0.000000
-0.285023 -0.091061 -0.032907 0 46 120 0.000000 1.000000 0.000000
-0.096446 0.037805 -0.188116 0 46 120 0.000000 1.000000 0.000000
-0.373071 -0.091061 -0.104429 0 46 120 0.000000 1.000000 0.000000
-0.273697 -0.091061 -0.096680 0 46 120 0.000000 -1.000000 0.000000
-0.383822 0.002292 -0.058886 0 46 120 0.998830 0.000000 0.048366
-0.208708 -0.066626 -0.285111 0 46 120 0.000000 0.701155 0.713009
-0.263025 -0.091061 -0.025833 0 46 120 0.000000 -1.000000 0.000000
-0.385118 -0.025056 -0.032125 0 46 120 -0.998830 0.000000 -0.048366
-0.187763 -0.021419 -0.413409 0 46 120 0.000000 0.000000 1.000000
-0.372886 -0.068458 -0.143614 0 46 120 0.989491 0.000000 0.144592
-0.299860 0.037805 -0.287857 0 46 120 0.000000 1.000000 0.000000
-0.139516 -0.051120 -0.413409 0 46 120 0.000000 0.000000 1.000000
-0.147206 -0.089019 -0.401769 0 46 120 0.000000 -0.539612 0.841914
-0.132711 0.037805 -0.059634 0 46 120 0.000000 -1.000000 0.000000
-0.080476 0.037805 -0.065954 0 46 120 0.000000 1.000000 0.000000
-0.208250 -0.091061 -0.094797 0 46 120 0.000000 1.000000 0.000000
-0.324187 -0.091061 -0.005228 0 46 120 0.000000 -1.000000 0.000000
-0.242256 0.037805 -0.137269 0 46 120 0.000000 1.000000 0.000000
-0.149848 0.037805 -0.138361 0 46 120 0.000000 1.000000 0.000000
-0.234071 0.030782 -0.369135 0 46 120 0.000000 -1.000000 0.000000
-0.179605 0.037805 -0.294808 0 46 120 0.000000 -1.000000 0.000000
-0.239955 -0.091061 -0.258560 0 46 120 0.000000 -1.000000 0.000000
-0.217658 -0.091061 -0.115131 0 46 120 0.000000 1.000000 0.000000
-0.363864 -0.091061 -0.131138 0 46 120 0.000000 -1.000000 0.000000
-0.084963 -0.091061 -0.329285 0 46 120 0.000000 1.000000 0.000000
-0.256183 0.037805 -0.017565 0 46 120 0.000000 -1.000000 0.000000
-0.057153 -0.091061 -0.206213 0 46 120 0.000000 -1.000000 0.000000
-0.045947 -0.091061 -0.276108 0 46 120 0.000000 -1.000000 0.000000
-0.068823 0.037805 -0.352706 0 46 120 0.000000 -1.000000 0.000000
-0.147956 -0.091061 -0.412431 0 46 120 0.000000 -1.000000 0.000000
-0.038380 0.037805 -0.166903 0 46 120 0.000000 1.000000 0.000000
