ply
format ascii 1.0
element vertex 718
property float x
property float y
property float z
property uchar red
property uchar green
property uchar blue
property float nx
property float ny
property float nz
end_header
0.442703 -0.111111 -0.515759 91 80 172 0.000000 -1.000000 0.000000
0.492160 -0.111111 -0.633899 91 80 172 0.000000 -1.000000 0.000000
0.468269 -0.111111 -0.079238 91 80 172 0.000000 -1.000000 0.000000
0.567674 -0.076014 -0.378560 91 80 172 1.000000 0.000000 0.000000
0.246413 -0.065379 -0.690908 91 80 172 0.000000 0.000000 -1.000000
0.133030 -0.070100 -0.690908 91 80 172 0.000000 0.000000 -1.000000
0.025687 -0.038383 -0.587240 91 80 172 0.000000 1.000000 0.000000
0.031343 -0.038383 -0.444518 91 80 172 0.000000 1.000000 0.000000
0.063334 -0.111111 -0.207387 91 80 172 0.000000 -1.000000 0.000000
0.391169 -0.038383 -0.277650 91 80 172 0.000000 1.000000 0.000000
0.423150 -0.038383 -0.327811 91 80 172 0.000000 1.000000 0.000000
0.039824 -0.111111 -0.258985 91 80 172 0.000000 -1.000000 0.000000
0.445375 -0.038383 -0.396925 91 80 172 0.000000 1.000000 0.000000
0.264612 -0.067983 -0.690908 91 80 172 0.000000 0.000000 -1.000000
0.091583 -0.066938 -0.690908 91 80 172 0.000000 0.000000 -1.000000
0.445828 -0.038383 -0.594635 91 80 172 0.000000 1.000000 0.000000
0.465619 -0.111111 -0.524617 91 80 172 0.000000 -1.000000 0.000000
0.183300 -0.038383 -0.516937 91 80 172 0.000000 1.000000 0.000000
0.235739 -0.111111 -0.675831 91 80 172 0.000000 -1.000000 0.000000
0.504650 -0.038383 -0.606501 91 80 172 0.000000 1.000000 0.000000
0.139094 -0.111111 -0.600786 91 80 172 0.000000 -1.000000 0.000000
0.124496 -0.038383 -0.450687 91 80 172 0.000000 1.000000 0.000000
0.033617 -0.038383 -0.540762 91 80 172 0.000000 1.000000 0.000000
0.558677 -0.038383 -0.526585 91 80 172 0.000000 1.000000 0.000000
0.024929 -0.038383 -0.514128 91 80 172 0.000000 1.000000 0.000000
0.421811 -0.111111 -0.152103 91 80 172 0.000000 -1.000000 0.000000
0.420845 -0.038383 -0.607808 91 80 172 0.000000 1.000000 0.000000
0.297317 -0.038383 -0.638057 91 80 172 0.000000 1.000000 0.000000
0.029557 -0.038383 -0.646337 91 80 172 0.000000 1.000000 0.000000
0.220032 -0.038383 -0.649144 91 80 172 0.000000 1.000000 0.000000
0.547759 -0.111111 -0.187252 91 80 172 0.000000 -1.000000 0.000000
0.167789 -0.038383 -0.635168 91 80 172 0.000000 1.000000 0.000000
0.513784 -0.099244 -0.690908 91 80 172 0.000000 0.000000 -1.000000
0.041108 -0.038383 -0.160398 91 80 172 0.000000 1.000000 0.000000
0.021072 -0.111111 -0.489293 91 80 172 0.000000 -1.000000 0.000000
0.031812 -0.038383 -0.211840 91 80 172 0.000000 1.000000 0.000000
0.050113 -0.038383 -0.085686 91 80 172 0.000000 1.000000 0.000000
0.305780 -0.111111 -0.502308 91 80 172 0.000000 -1.000000 0.000000
0.404576 -0.038383 -0.232372 91 80 172 0.000000 1.000000 0.000000
0.398559 -0.111111 -0.123647 91 80 172 0.000000 -1.000000 0.000000
0.496153 -0.111111 -0.484093 91 80 172 0.000000 -1.000000 0.000000
0.092107 -0.111111 -0.683803 91 80 172 0.000000 -1.000000 0.000000
0.350657 -0.111111 -0.402044 91 80 172 0.000000 -1.000000 0.000000
0.202459 -0.111111 -0.418943 91 80 172 0.000000 -1.000000 0.000000
0.201590 -0.111111 -0.470097 91 80 172 0.000000 -1.000000 0.000000
0.100228 -0.111111 -0.239610 91 80 172 0.000000 -1.000000 0.000000
0.302796 -0.038383 -0.496255 91 80 172 0.000000 1.000000 0.000000
0.294948 -0.038383 -0.576371 91 80 172 0.000000 1.000000 0.000000
0.163392 -0.038383 -0.591762 91 80 172 0.000000 1.000000 0.000000
0.541075 -0.111111 -0.130093 91 80 172 0.000000 -1.000000 0.000000
0.025675 -0.038383 -0.010831 91 80 172 0.000000 1.000000 0.000000
0.475588 -0.111111 -0.264089 91 80 172 0.000000 -1.000000 0.000000
0.187844 -0.038383 -0.547778 91 80 172 0.000000 1.000000 0.000000
0.005245 -0.078531 -0.690908 91 80 172 0.000000 0.000000 -1.000000
0.567674 -0.075199 -0.682818 91 80 172 1.000000 0.000000 0.000000
0.067646 -0.111111 -0.161568 91 80 172 0.000000 -1.000000 0.000000
0.114592 -0.111111 -0.168513 91 80 172 0.000000 -1.000000 0.000000
0.176428 -0.111111 -0.087738 91 80 172 0.000000 -1.000000 0.000000
0.387949 -0.038383 -0.083407 91 80 172 0.000000 1.000000 0.000000
0.033531 -0.111111 -0.088915 91 80 172 0.000000 -1.000000 0.000000
0.518114 -0.038383 -0.351718 91 80 172 0.000000 1.000000 0.000000
0.293613 -0.111111 -0.581486 91 80 172 0.000000 -1.000000 0.000000
0.318865 -0.038383 -0.484202 91 80 172 0.000000 1.000000 0.000000
0.063097 -0.038383 -0.212887 91 80 172 0.000000 1.000000 0.000000
0.163197 -0.049886 -0.688704 91 80 172 0.000000 0.529395 -0.848375
0.314374 -0.038383 -0.089603 91 80 172 0.000000 1.000000 0.000000
0.083474 -0.111111 -0.648870 91 80 172 0.000000 -1.000000 0.000000
0.083258 -0.111111 -0.071541 91 80 172 0.000000 -1.000000 0.000000
0.137974 -0.052284 -0.690201 91 80 172 0.000000 0.529395 -0.848375
0.258372 -0.038383 -0.087213 91 80 172 0.000000 1.000000 0.000000
0.367169 -0.038383 -0.626265 91 80 172 0.000000 1.000000 0.000000
0.009843 -0.038383 -0.366044 91 80 172 0.000000 1.000000 0.000000
0.230729 -0.038383 -0.618438 91 80 172 0.000000 1.000000 0.000000
0.146456 -0.111111 -0.207636 91 80 172 0.000000 -1.000000 0.000000
0.567674 -0.072055 -0.371988 91 80 172 1.000000 0.000000 0.000000
0.363333 -0.038383 -0.117890 91 80 172 0.000000 1.000000 0.000000
0.563406 -0.038383 -0.629495 91 80 172 0.000000 1.000000 0.000000
0.409170 -0.111111 -0.599262 91 80 172 0.000000 -1.000000 0.000000
0.101057 -0.038383 -0.059281 91 80 172 0.000000 1.000000 0.000000
0.522412 -0.038383 -0.543161 91 80 172 0.000000 1.000000 0.000000
0.408472 -0.038383 -0.038287 91 80 172 0.000000 1.000000 0.000000
0.447273 -0.038383 -0.654616 91 80 172 0.000000 1.000000 0.000000
0.567674 -0.042162 -0.331137 91 80 172 1.000000 0.000000 0.000000
0.108300 -0.065558 -0.690908 91 80 172 0.000000 0.000000 -1.000000
0.567674 -0.095219 -0.147867 91 80 172 1.000000 0.000000 0.000000
0.335759 -0.038383 -0.516282 91 80 172 0.000000 1.000000 0.000000
0.247528 -0.111111 -0.161260 91 80 172 0.000000 -1.000000 0.000000
0.519303 -0.038383 -0.059347 91 80 172 0.000000 1.000000 0.000000
0.506811 -0.089955 -0.690908 91 80 172 0.000000 0.000000 -1.000000
0.243888 -0.111111 -0.665701 91 80 172 0.000000 -1.000000 0.000000
0.334731 -0.111111 -0.169911 91 80 172 0.000000 -1.000000 0.000000
0.337615 -0.113865 -0.651424 91 80 172 -0.818990 -0.573808 0.000000
0.537504 -0.111398 -0.672948 91 80 172 0.819056 -0.573713 0.000000
0.027441 -0.111111 -0.199802 91 80 172 0.000000 -1.000000 0.000000
0.427283 -0.038383 -0.490906 91 80 172 0.000000 1.000000 0.000000
0.219631 -0.038383 -0.249702 91 80 172 0.000000 1.000000 0.000000
0.122962 -0.038383 -0.217016 91 80 172 0.000000 1.000000 0.000000
0.083689 -0.111111 -0.261657 91 80 172 0.000000 -1.000000 0.000000
0.116649 -0.038383 -0.413129 91 80 172 0.000000 1.000000 0.000000
0.289997 -0.111111 -0.227978 91 80 172 0.000000 -1.000000 0.000000
0.274680 -0.038383 -0.561849 91 80 172 0.000000 1.000000 0.000000
0.486822 -0.038383 -0.187372 91 80 172 0.000000 1.000000 0.000000
0.079070 -0.038383 -0.283279 91 80 172 0.000000 1.000000 0.000000
0.199985 -0.111111 -0.473113 91 80 172 0.000000 -1.000000 0.000000
0.518771 -0.038383 -0.456238 91 80 172 0.000000 1.000000 0.000000
0.398650 -0.038383 -0.337388 91 80 172 0.000000 1.000000 0.000000
0.269816 -0.111111 -0.310131 91 80 172 0.000000 -1.000000 0.000000
0.543595 -0.111111 -0.351317 91 80 172 0.000000 -1.000000 0.000000
0.382425 -0.088968 -0.690908 91 80 172 0.000000 0.000000 -1.000000
0.323573 -0.111111 -0.126599 91 80 172 0.000000 -1.000000 0.000000
0.564793 -0.111111 -0.075195 91 80 172 0.000000 -1.000000 0.000000
0.414861 -0.082327 -0.690908 91 80 172 0.000000 0.000000 -1.000000
0.271908 -0.038383 -0.519386 91 80 172 0.000000 1.000000 0.000000
0.356572 -0.111111 -0.659950 91 80 172 0.000000 -1.000000 0.000000
0.173936 -0.060610 -0.690908 91 80 172 0.000000 0.000000 -1.000000
0.133790 -0.111111 -0.205958 91 80 172 0.000000 -1.000000 0.000000
0.336947 -0.112911 -0.648190 91 80 172 -0.818990 -0.573808 0.000000
0.446618 -0.111111 -0.427028 91 80 172 0.000000 -1.000000 0.000000
0.507154 -0.111111 -0.385300 91 80 172 0.000000 -1.000000 0.000000
0.458484 -0.111111 -0.516967 91 80 172 0.000000 -1.000000 0.000000
0.538821 -0.107123 -0.690908 91 80 172 0.000000 0.000000 -1.000000
0.567674 -0.049012 -0.661766 91 80 172 1.000000 0.000000 0.000000
0.549186 -0.049725 -0.688604 91 80 172 0.000000 0.529395 -0.848375
0.323869 -0.111111 -0.152142 91 80 172 0.000000 -1.000000 0.000000
0.288353 -0.111111 -0.578635 91 80 172 0.000000 -1.000000 0.000000
0.140811 -0.111111 -0.066908 91 80 172 0.000000 -1.000000 0.000000
0.101434 -0.038383 -0.302122 91 80 172 0.000000 1.000000 0.000000
0.223351 -0.111111 -0.414745 91 80 172 0.000000 -1.000000 0.000000
0.021110 -0.038383 -0.099028 91 80 172 0.000000 1.000000 0.000000
0.116888 -0.038383 -0.638437 91 80 172 0.000000 1.000000 0.000000
0.135352 -0.111111 -0.296766 91 80 172 0.000000 -1.000000 0.000000
0.206574 -0.038383 -0.612765 91 80 172 0.000000 1.000000 0.000000
0.291908 -0.111111 -0.105769 91 80 172 0.000000 -1.000000 0.000000
0.281071 -0.111111 -0.339220 91 80 172 0.000000 -1.000000 0.000000
0.070167 -0.038383 -0.658075 91 80 172 0.000000 1.000000 0.000000
0.119906 -0.111111 -0.093946 91 80 172 0.000000 -1.000000 0.000000
0.565103 -0.111111 -0.403300 91 80 172 0.000000 -1.000000 0.000000
0.493350 -0.111111 -0.577541 91 80 172 0.000000 -1.000000 0.000000
0.501976 -0.038383 -0.609318 91 80 172 0.000000 1.000000 0.000000
0.538168 -0.038383 -0.186896 91 80 172 0.000000 1.000000 0.000000
0.326663 -0.038383 -0.129880 91 80 172 0.000000 1.000000 0.000000
0.462808 -0.111111 -0.492515 91 80 172 0.000000 -1.000000 0.000000
0.279425 -0.111111 -0.211589 91 80 172 0.000000 -1.000000 0.000000
0.127240 -0.038383 -0.319109 91 80 172 0.000000 1.000000 0.000000
0.257200 -0.038383 -0.390388 91 80 172 0.000000 1.000000 0.000000
0.567674 -0.102755 -0.679228 91 80 172 1.000000 0.000000 0.000000
0.371395 -0.111111 -0.558874 91 80 172 0.000000 -1.000000 0.000000
0.214841 -0.111111 -0.453785 91 80 172 0.000000 -1.000000 0.000000
0.413311 -0.111111 -0.499610 91 80 172 0.000000 -1.000000 0.000000
0.396359 -0.038383 -0.196576 91 80 172 0.000000 1.000000 0.000000
0.531976 -0.111111 -0.610652 91 80 172 0.000000 -1.000000 0.000000
0.131798 -0.038383 -0.157075 91 80 172 0.000000 1.000000 0.000000
0.023035 -0.111111 -0.631537 91 80 172 0.000000 -1.000000 0.000000
0.015934 -0.111111 -0.299858 91 80 172 0.000000 -1.000000 0.000000
0.187926 -0.111111 -0.376701 91 80 172 0.000000 -1.000000 0.000000
0.393806 -0.111111 -0.410596 91 80 172 0.000000 -1.000000 0.000000
0.191337 -0.038383 -0.126940 91 80 172 0.000000 1.000000 0.000000
0.116166 -0.111111 -0.035544 91 80 172 0.000000 -1.000000 0.000000
0.272333 -0.038383 -0.089264 91 80 172 0.000000 1.000000 0.000000
0.567674 -0.055861 -0.485106 91 80 172 1.000000 0.000000 0.000000
0.376723 -0.038383 -0.262681 91 80 172 0.000000 1.000000 0.000000
0.319629 -0.111111 -0.539669 91 80 172 0.000000 -1.000000 0.000000
0.229945 -0.111111 -0.155328 91 80 172 0.000000 -1.000000 0.000000
0.520080 -0.111111 -0.495812 91 80 172 0.000000 -1.000000 0.000000
0.063204 -0.038383 -0.652076 91 80 172 0.000000 1.000000 0.000000
0.174619 -0.038383 -0.369561 91 80 172 0.000000 1.000000 0.000000
0.430034 -0.038383 -0.624806 91 80 172 0.000000 1.000000 0.000000
0.057222 -0.038383 -0.314567 91 80 172 0.000000 1.000000 0.000000
0.264074 -0.111111 -0.202262 91 80 172 0.000000 -1.000000 0.000000
0.074626 -0.038383 -0.365499 91 80 172 0.000000 1.000000 0.000000
0.421263 -0.111111 -0.546728 91 80 172 0.000000 -1.000000 0.000000
0.201833 -0.111111 -0.631344 91 80 172 0.000000 -1.000000 0.000000
0.329379 -0.038383 -0.557876 91 80 172 0.000000 1.000000 0.000000
0.380247 -0.111111 -0.435028 91 80 172 0.000000 -1.000000 0.000000
0.153922 -0.038383 -0.459119 91 80 172 0.000000 1.000000 0.000000
0.525196 -0.111111 -0.149137 91 80 172 0.000000 -1.000000 0.000000
0.419472 -0.111111 -0.242591 91 80 172 0.000000 -1.000000 0.000000
0.012753 -0.038383 -0.488111 91 80 172 0.000000 1.000000 0.000000
0.567674 -0.097937 -0.571172 91 80 172 1.000000 0.000000 0.000000
0.507463 -0.038383 -0.236619 91 80 172 0.000000 1.000000 0.000000
0.200207 -0.038383 -0.036805 91 80 172 0.000000 1.000000 0.000000
0.264683 -0.111111 -0.066251 91 80 172 0.000000 -1.000000 0.000000
0.232862 -0.038383 -0.599166 91 80 172 0.000000 1.000000 0.000000
0.292831 -0.111111 -0.197656 91 80 172 0.000000 -1.000000 0.000000
0.078557 -0.111111 -0.051712 91 80 172 0.000000 -1.000000 0.000000
0.381123 -0.111111 -0.248879 91 80 172 0.000000 -1.000000 0.000000
0.340473 -0.111111 -0.411027 91 80 172 0.000000 -1.000000 0.000000
0.416997 -0.038383 -0.367649 91 80 172 0.000000 1.000000 0.000000
0.287763 -0.111111 -0.342257 91 80 172 0.000000 -1.000000 0.000000
0.096176 -0.038383 -0.441380 91 80 172 0.000000 1.000000 0.000000
0.077236 -0.038383 -0.525758 91 80 172 0.000000 1.000000 0.000000
0.283536 -0.092188 -0.690908 91 80 172 0.000000 0.000000 -1.000000
0.455060 -0.111111 -0.517955 91 80 172 0.000000 -1.000000 0.000000
0.266532 -0.038383 -0.055619 91 80 172 0.000000 1.000000 0.000000
0.464999 -0.038383 -0.212157 91 80 172 0.000000 1.000000 0.000000
0.436758 -0.111111 -0.240434 91 80 172 0.000000 -1.000000 0.000000
0.068562 -0.100551 -0.690908 91 80 172 0.000000 0.000000 -1.000000
0.172713 -0.038383 -0.503333 91 80 172 0.000000 1.000000 0.000000
0.193860 -0.038383 -0.313676 91 80 172 0.000000 1.000000 0.000000
0.011315 -0.038383 -0.401129 91 80 172 0.000000 1.000000 0.000000
0.207236 -0.111111 -0.368424 91 80 172 0.000000 -1.000000 0.000000
0.380041 -0.111111 -0.645373 91 80 172 0.000000 -1.000000 0.000000
0.456222 -0.111111 -0.517288 91 80 172 0.000000 -1.000000 0.000000
0.180302 -0.038383 -0.517205 91 80 172 0.000000 1.000000 0.000000
0.321549 -0.111111 -0.025842 91 80 172 0.000000 -1.000000 0.000000
0.558453 -0.038383 -0.402428 91 80 172 0.000000 1.000000 0.000000
0.057973 -0.111111 -0.566451 91 80 172 0.000000 -1.000000 0.000000
0.396012 -0.111111 -0.002825 91 80 172 0.000000 -1.000000 0.000000
0.156425 -0.111111 -0.490061 91 80 172 0.000000 -1.000000 0.000000
0.051756 -0.038383 -0.149380 91 80 172 0.000000 1.000000 0.000000
0.368256 -0.111111 -0.074409 91 80 172 0.000000 -1.000000 0.000000
0.562809 -0.111111 -0.214826 91 80 172 0.000000 -1.000000 0.000000
0.295713 -0.111111 -0.344696 91 80 172 0.000000 -1.000000 0.000000
0.567006 -0.111111 -0.330142 91 80 172 0.000000 -1.000000 0.000000
0.415201 -0.111111 -0.116623 91 80 172 0.000000 -1.000000 0.000000
0.320041 -0.038383 -0.301169 91 80 172 0.000000 1.000000 0.000000
0.375826 -0.111111 -0.665703 91 80 172 0.000000 -1.000000 0.000000
0.520183 -0.111111 -0.631844 91 80 172 0.000000 -1.000000 0.000000
0.165940 -0.038383 -0.126788 91 80 172 0.000000 1.000000 0.000000
0.223401 -0.038383 -0.344487 91 80 172 0.000000 1.000000 0.000000
0.350293 -0.111111 -0.620746 91 80 172 0.000000 -1.000000 0.000000
0.567674 -0.042323 -0.409460 91 80 172 1.000000 0.000000 0.000000
0.415855 -0.111111 -0.067853 91 80 172 0.000000 -1.000000 0.000000
0.305048 -0.111111 -0.113327 91 80 172 0.000000 -1.000000 0.000000
0.434368 -0.038383 -0.253529 91 80 172 0.000000 1.000000 0.000000
0.232599 -0.038383 -0.098686 91 80 172 0.000000 1.000000 0.000000
0.348947 -0.111111 -0.158352 91 80 172 0.000000 -1.000000 0.000000
0.384902 -0.038383 -0.119063 91 80 172 0.000000 1.000000 0.000000
0.329805 -0.038383 -0.676674 91 80 172 0.000000 1.000000 0.000000
0.464159 -0.038383 -0.615943 91 80 172 0.000000 1.000000 0.000000
0.256928 -0.038383 -0.605355 91 80 172 0.000000 1.000000 0.000000
0.010979 -0.038383 -0.410862 91 80 172 0.000000 1.000000 0.000000
0.495542 -0.038383 -0.650638 91 80 172 0.000000 1.000000 0.000000
0.567674 -0.097231 -0.397832 91 80 172 1.000000 0.000000 0.000000
0.056291 -0.038383 -0.300170 91 80 172 0.000000 1.000000 0.000000
0.217648 -0.111111 -0.080202 91 80 172 0.000000 -1.000000 0.000000
0.520495 -0.038383 -0.513638 91 80 172 0.000000 1.000000 0.000000
0.188635 -0.111111 -0.130132 91 80 172 0.000000 -1.000000 0.000000
0.541745 -0.111111 -0.454476 91 80 172 0.000000 -1.000000 0.000000
0.551226 -0.038383 -0.294205 91 80 172 0.000000 1.000000 0.000000
0.443818 -0.038383 -0.492387 91 80 172 0.000000 1.000000 0.000000
0.567674 -0.067704 -0.231665 91 80 172 1.000000 0.000000 0.000000
0.127551 -0.038383 -0.106690 91 80 172 0.000000 1.000000 0.000000
0.194483 -0.111111 -0.235600 91 80 172 0.000000 -1.000000 0.000000
0.473957 -0.111111 -0.538671 91 80 172 0.000000 -1.000000 0.000000
0.407216 -0.038383 -0.133363 91 80 172 0.000000 1.000000 0.000000
0.124646 -0.111111 -0.587160 91 80 172 0.000000 -1.000000 0.000000
0.081637 -0.111111 -0.406850 91 80 172 0.000000 -1.000000 0.000000
0.511753 -0.038383 -0.465617 91 80 172 0.000000 1.000000 0.000000
0.567674 -0.049151 -0.392357 91 80 172 1.000000 0.000000 0.000000
0.001305 -0.111111 -0.015387 91 80 172 0.000000 -1.000000 0.000000
0.255494 -0.111111 -0.359577 91 80 172 0.000000 -1.000000 0.000000
0.251887 -0.038383 -0.015383 91 80 172 0.000000 1.000000 0.000000
0.429227 -0.111111 -0.436381 91 80 172 0.000000 -1.000000 0.000000
0.292589 -0.038383 -0.472675 91 80 172 0.000000 1.000000 0.000000
0.032456 -0.038383 -0.382850 91 80 172 0.000000 1.000000 0.000000
0.213127 -0.111111 -0.198838 91 80 172 0.000000 -1.000000 0.000000
0.377384 -0.038383 -0.508837 91 80 172 0.000000 1.000000 0.000000
0.195477 -0.038383 -0.518928 91 80 172 0.000000 1.000000 0.000000
0.377707 -0.038383 -0.641539 91 80 172 0.000000 1.000000 0.000000
0.463377 -0.038383 -0.650544 91 80 172 0.000000 1.000000 0.000000
0.567674 -0.082386 -0.636564 91 80 172 1.000000 0.000000 0.000000
0.346937 -0.111111 -0.242315 91 80 172 0.000000 -1.000000 0.000000
0.405873 -0.038383 -0.088596 91 80 172 0.000000 1.000000 0.000000
0.529531 -0.122781 -0.492321 91 80 172 0.819056 -0.573713 0.000000
0.528647 -0.111111 -0.605373 91 80 172 0.000000 -1.000000 0.000000
0.112245 -0.111111 -0.623431 91 80 172 0.000000 -1.000000 0.000000
0.405759 -0.111111 -0.510527 91 80 172 0.000000 -1.000000 0.000000
0.058744 -0.038383 -0.142406 91 80 172 0.000000 1.000000 0.000000
0.039088 -0.111111 -0.626680 91 80 172 0.000000 -1.000000 0.000000
0.321886 -0.038383 -0.213093 91 80 172 0.000000 1.000000 0.000000
0.475212 -0.038383 -0.664124 91 80 172 0.000000 1.000000 0.000000
0.185904 -0.111111 -0.282961 91 80 172 0.000000 -1.000000 0.000000
0.544583 -0.102739 -0.690908 91 80 172 0.000000 0.000000 -1.000000
0.350895 -0.111111 -0.188628 91 80 172 0.000000 -1.000000 0.000000
0.245323 -0.111111 -0.592372 91 80 172 0.000000 -1.000000 0.000000
0.494692 -0.111111 -0.486922 91 80 172 0.000000 -1.000000 0.000000
0.008691 -0.111111 -0.623337 91 80 172 0.000000 -1.000000 0.000000
0.035851 -0.111111 -0.025043 91 80 172 0.000000 -1.000000 0.000000
0.347199 -0.038383 -0.210615 91 80 172 0.000000 1.000000 0.000000
0.457517 -0.038383 -0.217814 91 80 172 0.000000 1.000000 0.000000
0.118643 -0.038383 -0.338153 91 80 172 0.000000 1.000000 0.000000
0.090134 -0.038383 -0.297109 91 80 172 0.000000 1.000000 0.000000
0.254156 -0.111111 -0.089837 91 80 172 0.000000 -1.000000 0.000000
0.317201 -0.111111 -0.124404 91 80 172 0.000000 -1.000000 0.000000
0.551734 -0.111111 -0.340070 91 80 172 0.000000 -1.000000 0.000000
0.510224 -0.111111 -0.561326 91 80 172 0.000000 -1.000000 0.000000
0.567402 -0.038383 -0.162593 91 80 172 0.000000 1.000000 0.000000
0.217953 -0.111111 -0.530120 91 80 172 0.000000 -1.000000 0.000000
0.535958 -0.038383 -0.324750 91 80 172 0.000000 1.000000 0.000000
0.483974 -0.111111 -0.607206 91 80 172 0.000000 -1.000000 0.000000
0.368979 -0.111111 -0.600992 91 80 172 0.000000 -1.000000 0.000000
0.458770 -0.038383 -0.061908 91 80 172 0.000000 1.000000 0.000000
0.131158 -0.111111 -0.285780 91 80 172 0.000000 -1.000000 0.000000
0.544035 -0.038383 -0.329432 91 80 172 0.000000 1.000000 0.000000
0.008467 -0.111111 -0.043711 91 80 172 0.000000 -1.000000 0.000000
0.003568 -0.111111 -0.132172 91 80 172 0.000000 -1.000000 0.000000
0.567674 -0.083526 -0.455576 91 80 172 1.000000 0.000000 0.000000
0.567674 -0.040637 -0.406688 91 80 172 1.000000 0.000000 0.000000
0.439034 -0.111111 -0.669751 91 80 172 0.000000 -1.000000 0.000000
0.544634 -0.038383 -0.115323 91 80 172 0.000000 1.000000 0.000000
0.295713 -0.038383 -0.515945 91 80 172 0.000000 1.000000 0.000000
0.138114 -0.111111 -0.221506 91 80 172 0.000000 -1.000000 0.000000
0.169925 -0.111111 -0.471473 91 80 172 0.000000 -1.000000 0.000000
0.004264 -0.111111 -0.555039 91 80 172 0.000000 -1.000000 0.000000
0.326258 -0.111111 -0.035177 91 80 172 0.000000 -1.000000 0.000000
0.346226 -0.111111 -0.513934 91 80 172 0.000000 -1.000000 0.000000
0.306867 -0.111111 -0.302014 91 80 172 0.000000 -1.000000 0.000000
0.346998 -0.111111 -0.320647 91 80 172 0.000000 -1.000000 0.000000
0.447081 -0.038383 -0.141147 91 80 172 0.000000 1.000000 0.000000
0.102562 -0.111111 -0.199133 91 80 172 0.000000 -1.000000 0.000000
0.315977 -0.038383 -0.374464 91 80 172 0.000000 1.000000 0.000000
0.219462 -0.111111 -0.562343 91 80 172 0.000000 -1.000000 0.000000
0.101359 -0.038383 -0.456272 91 80 172 0.000000 1.000000 0.000000
0.467884 -0.111111 -0.526823 91 80 172 0.000000 -1.000000 0.000000
0.404751 -0.111111 -0.545817 91 80 172 0.000000 -1.000000 0.000000
0.083692 -0.038383 -0.117126 91 80 172 0.000000 1.000000 0.000000
0.229762 -0.038383 -0.214064 91 80 172 0.000000 1.000000 0.000000
0.013092 -0.111111 -0.152830 91 80 172 0.000000 -1.000000 0.000000
0.501513 -0.038383 -0.177466 91 80 172 0.000000 1.000000 0.000000
0.069927 -0.038383 -0.131217 91 80 172 0.000000 1.000000 0.000000
0.567674 -0.076811 -0.009306 91 80 172 1.000000 0.000000 0.000000
0.192110 -0.038383 -0.672189 91 80 172 0.000000 1.000000 0.000000
0.204390 -0.111111 -0.659673 91 80 172 0.000000 -1.000000 0.000000
0.125881 -0.111111 -0.621734 91 80 172 0.000000 -1.000000 0.000000
0.466686 -0.038383 -0.327685 91 80 172 0.000000 1.000000 0.000000
0.375135 -0.038383 -0.274219 91 80 172 0.000000 1.000000 0.000000
0.104541 -0.111111 -0.169002 91 80 172 0.000000 -1.000000 0.000000
0.390075 -0.111111 -0.148460 91 80 172 0.000000 -1.000000 0.000000
0.349545 -0.111111 -0.142969 91 80 172 0.000000 -1.000000 0.000000
0.042756 -0.038383 -0.672993 91 80 172 0.000000 1.000000 0.000000
0.165690 -0.111111 -0.064901 91 80 172 0.000000 -1.000000 0.000000
0.548176 -0.111111 -0.119744 91 80 172 0.000000 -1.000000 0.000000
0.160287 -0.111111 -0.505284 91 80 172 0.000000 -1.000000 0.000000
0.339633 -0.111111 -0.589072 91 80 172 0.000000 -1.000000 0.000000
0.132172 -0.111111 -0.674526 91 80 172 0.000000 -1.000000 0.000000
0.247043 -0.038383 -0.676845 91 80 172 0.000000 1.000000 0.000000
0.134690 -0.057527 -0.690908 91 80 172 0.000000 0.000000 -1.000000
0.113201 -0.038383 -0.601910 91 80 172 0.000000 1.000000 0.000000
0.105356 -0.111111 -0.461851 91 80 172 0.000000 -1.000000 0.000000
0.556538 -0.111111 -0.215724 91 80 172 0.000000 -1.000000 0.000000
0.252960 -0.038602 -0.681663 91 80 172 0.000000 0.529395 -0.848375
0.491417 -0.111111 -0.100797 91 80 172 0.000000 -1.000000 0.000000
0.054898 -0.038383 -0.141909 91 80 172 0.000000 1.000000 0.000000
0.528017 -0.038383 -0.263722 91 80 172 0.000000 1.000000 0.000000
0.069568 -0.111111 -0.618537 91 80 172 0.000000 -1.000000 0.000000
0.409551 -0.038383 -0.425747 91 80 172 0.000000 1.000000 0.000000
0.260961 -0.111111 -0.242868 91 80 172 0.000000 -1.000000 0.000000
0.091942 -0.038383 -0.292895 91 80 172 0.000000 1.000000 0.000000
0.231600 -0.038383 -0.232330 91 80 172 0.000000 1.000000 0.000000
0.457851 -0.049758 -0.688624 91 80 172 0.000000 0.529395 -0.848375
0.315725 -0.038383 -0.417731 91 80 172 0.000000 1.000000 0.000000
0.301806 -0.038383 -0.664630 91 80 172 0.000000 1.000000 0.000000
0.438969 -0.111111 -0.075282 91 80 172 0.000000 -1.000000 0.000000
0.503207 -0.038383 -0.460411 91 80 172 0.000000 1.000000 0.000000
0.286979 -0.111111 -0.250697 91 80 172 0.000000 -1.000000 0.000000
0.124036 -0.111111 -0.362418 91 80 172 0.000000 -1.000000 0.000000
0.169539 -0.111111 -0.605334 91 80 172 0.000000 -1.000000 0.000000
0.502639 -0.111111 -0.248101 91 80 172 0.000000 -1.000000 0.000000
0.388995 -0.038383 -0.102221 91 80 172 0.000000 1.000000 0.000000
0.438247 -0.111111 -0.684850 91 80 172 0.000000 -1.000000 0.000000
0.397271 -0.111111 -0.326808 91 80 172 0.000000 -1.000000 0.000000
0.037816 -0.077626 -0.690908 91 80 172 0.000000 0.000000 -1.000000
0.375759 -0.070835 -0.690908 91 80 172 0.000000 0.000000 -1.000000
0.363679 -0.111111 -0.356593 91 80 172 0.000000 -1.000000 0.000000
0.491621 -0.038383 -0.569792 91 80 172 0.000000 1.000000 0.000000
0.511805 -0.038383 -0.633206 91 80 172 0.000000 1.000000 0.000000
0.493254 -0.038383 -0.029427 91 80 172 0.000000 1.000000 0.000000
0.405310 -0.111111 -0.379476 91 80 172 0.000000 -1.000000 0.000000
0.525966 -0.111111 -0.179369 91 80 172 0.000000 -1.000000 0.000000
0.062041 -0.111111 -0.608800 91 80 172 0.000000 -1.000000 0.000000
0.411397 -0.038383 -0.173338 91 80 172 0.000000 1.000000 0.000000
0.402774 -0.111111 -0.140754 91 80 172 0.000000 -1.000000 0.000000
0.536824 -0.111111 -0.485430 91 80 172 0.000000 -1.000000 0.000000
0.374236 -0.111111 -0.368766 91 80 172 0.000000 -1.000000 0.000000
0.415614 -0.038383 -0.183773 91 80 172 0.000000 1.000000 0.000000
0.229157 -0.111111 -0.248189 91 80 172 0.000000 -1.000000 0.000000
0.274021 -0.111111 -0.389143 91 80 172 0.000000 -1.000000 0.000000
0.550096 -0.111111 -0.590646 91 80 172 0.000000 -1.000000 0.000000
0.409036 -0.111111 -0.637264 91 80 172 0.000000 -1.000000 0.000000
0.254526 -0.038383 -0.585290 91 80 172 0.000000 1.000000 0.000000
0.032624 -0.111111 -0.443431 91 80 172 0.000000 -1.000000 0.000000
0.276586 -0.111111 -0.384456 91 80 172 0.000000 -1.000000 0.000000
0.132817 -0.099462 -0.690908 91 80 172 0.000000 0.000000 -1.000000
0.436981 -0.111111 -0.618578 91 80 172 0.000000 -1.000000 0.000000
0.108644 -0.111111 -0.379728 91 80 172 0.000000 -1.000000 0.000000
0.020209 -0.111111 -0.221120 91 80 172 0.000000 -1.000000 0.000000
0.542180 -0.038383 -0.086626 91 80 172 0.000000 1.000000 0.000000
0.132030 -0.111111 -0.327664 91 80 172 0.000000 -1.000000 0.000000
0.145420 -0.111111 -0.134498 91 80 172 0.000000 -1.000000 0.000000
0.303636 -0.041796 -0.683656 91 80 172 0.000000 0.529395 -0.848375
0.017735 -0.038383 -0.597785 91 80 172 0.000000 1.000000 0.000000
0.345447 -0.038383 -0.656469 91 80 172 0.000000 1.000000 0.000000
0.038340 -0.111111 -0.242206 91 80 172 0.000000 -1.000000 0.000000
0.339227 -0.038383 -0.472881 91 80 172 0.000000 1.000000 0.000000
0.112760 -0.111111 -0.440129 91 80 172 0.000000 -1.000000 0.000000
0.284986 -0.111111 -0.559605 91 80 172 0.000000 -1.000000 0.000000
0.343279 -0.111111 -0.185791 91 80 172 0.000000 -1.000000 0.000000
0.420994 -0.111111 -0.293755 91 80 172 0.000000 -1.000000 0.000000
0.182285 -0.111111 -0.563306 91 80 172 0.000000 -1.000000 0.000000
0.337328 -0.038383 -0.357397 91 80 172 0.000000 1.000000 0.000000
0.230826 -0.038383 -0.618655 91 80 172 0.000000 1.000000 0.000000
0.347968 -0.111111 -0.686208 91 80 172 0.000000 -1.000000 0.000000
0.423536 -0.111111 -0.126565 91 80 172 0.000000 -1.000000 0.000000
0.511491 -0.038383 -0.308530 91 80 172 0.000000 1.000000 0.000000
0.557919 -0.038383 -0.365338 91 80 172 0.000000 1.000000 0.000000
0.560225 -0.038383 -0.528413 91 80 172 0.000000 1.000000 0.000000
0.369662 -0.111111 -0.651769 91 80 172 0.000000 -1.000000 0.000000
0.546337 -0.111111 -0.464516 91 80 172 0.000000 -1.000000 0.000000
0.346569 -0.038383 -0.040025 91 80 172 0.000000 1.000000 0.000000
0.373085 -0.038383 -0.006876 91 80 172 0.000000 1.000000 0.000000
0.337940 -0.111111 -0.094496 91 80 172 0.000000 -1.000000 0.000000
0.336057 -0.111111 -0.004281 91 80 172 0.000000 -1.000000 0.000000
0.422608 -0.111111 -0.665460 91 80 172 0.000000 -1.000000 0.000000
0.093201 -0.111111 -0.475519 91 80 172 0.000000 -1.000000 0.000000
0.225522 -0.038383 -0.324499 91 80 172 0.000000 1.000000 0.000000
0.399243 -0.111111 -0.558826 91 80 172 0.000000 -1.000000 0.000000
0.399594 -0.038383 -0.546575 91 80 172 0.000000 1.000000 0.000000
0.260082 -0.038383 -0.502265 91 80 172 0.000000 1.000000 0.000000
0.319110 -0.038383 -0.607839 91 80 172 0.000000 1.000000 0.000000
0.248081 -0.038383 -0.305883 91 80 172 0.000000 1.000000 0.000000
0.357442 -0.038383 -0.449072 91 80 172 0.000000 1.000000 0.000000
0.211840 -0.111111 -0.226369 91 80 172 0.000000 -1.000000 0.000000
0.155299 -0.111111 -0.047629 91 80 172 0.000000 -1.000000 0.000000
0.319830 -0.038383 -0.526571 91 80 172 0.000000 1.000000 0.000000
0.256918 -0.111111 -0.615147 91 80 172 0.000000 -1.000000 0.000000
0.069160 -0.111111 -0.148396 91 80 172 0.000000 -1.000000 0.000000
0.163342 -0.038383 -0.346600 91 80 172 0.000000 1.000000 0.000000
0.549810 -0.111111 -0.106220 91 80 172 0.000000 -1.000000 0.000000
0.049972 -0.111111 -0.444315 91 80 172 0.000000 -1.000000 0.000000
0.224344 -0.111111 -0.686342 91 80 172 0.000000 -1.000000 0.000000
0.377253 -0.111111 -0.063752 91 80 172 0.000000 -1.000000 0.000000
0.415444 -0.038383 -0.580444 91 80 172 0.000000 1.000000 0.000000
0.481130 -0.038383 -0.494858 91 80 172 0.000000 1.000000 0.000000
0.168429 -0.038383 -0.646666 91 80 172 0.000000 1.000000 0.000000
0.104315 -0.038383 -0.594853 91 80 172 0.000000 1.000000 0.000000
0.299115 -0.038383 -0.576326 91 80 172 0.000000 1.000000 0.000000
0.377238 -0.111111 -0.120695 91 80 172 0.000000 -1.000000 0.000000
0.516396 -0.111111 -0.141005 91 80 172 0.000000 -1.000000 0.000000
0.415665 -0.038383 -0.295351 91 80 172 0.000000 1.000000 0.000000
0.406836 -0.111111 -0.260797 91 80 172 0.000000 -1.000000 0.000000
0.148868 -0.085357 -0.690908 91 80 172 0.000000 0.000000 -1.000000
0.141193 -0.038383 -0.067077 91 80 172 0.000000 1.000000 0.000000
0.085060 -0.038383 -0.219478 91 80 172 0.000000 1.000000 0.000000
0.258591 -0.111111 -0.273390 91 80 172 0.000000 -1.000000 0.000000
0.065602 -0.111111 -0.244085 91 80 172 0.000000 -1.000000 0.000000
0.380809 -0.111111 -0.623941 91 80 172 0.000000 -1.000000 0.000000
0.525489 -0.111111 -0.191451 91 80 172 0.000000 -1.000000 0.000000
0.335481 -0.038383 -0.636899 91 80 172 0.000000 1.000000 0.000000
0.362812 -0.038383 -0.062609 91 80 172 0.000000 1.000000 0.000000
0.417825 -0.038383 -0.425020 91 80 172 0.000000 1.000000 0.000000
0.100034 -0.111111 -0.668533 91 80 172 0.000000 -1.000000 0.000000
0.282963 -0.038383 -0.662350 91 80 172 0.000000 1.000000 0.000000
0.191792 -0.111111 -0.562415 91 80 172 0.000000 -1.000000 0.000000
0.567674 -0.050727 -0.179863 91 80 172 1.000000 0.000000 0.000000
0.147590 -0.111111 -0.465173 91 80 172 0.000000 -1.000000 0.000000
0.524284 -0.111111 -0.626153 91 80 172 0.000000 -1.000000 0.000000
0.496639 -0.038383 -0.420843 91 80 172 0.000000 1.000000 0.000000
0.020718 -0.038383 -0.592456 91 80 172 0.000000 1.000000 0.000000
0.242312 -0.111111 -0.576850 91 80 172 0.000000 -1.000000 0.000000
0.567674 -0.046031 -0.649751 91 80 172 1.000000 0.000000 0.000000
0.096651 -0.111111 -0.453503 91 80 172 0.000000 -1.000000 0.000000
0.299355 -0.038383 -0.239709 91 80 172 0.000000 1.000000 0.000000
0.178140 -0.111111 -0.314658 91 80 172 0.000000 -1.000000 0.000000
0.024271 -0.038383 -0.295016 91 80 172 0.000000 1.000000 0.000000
0.116760 -0.038383 -0.607053 91 80 172 0.000000 1.000000 0.000000
0.005290 -0.043723 -0.684858 91 80 172 0.000000 0.529395 -0.848375
0.312393 -0.038383 -0.353663 91 80 172 0.000000 1.000000 0.000000
0.421639 -0.038383 -0.185515 91 80 172 0.000000 1.000000 0.000000
0.382428 -0.111111 -0.500585 91 80 172 0.000000 -1.000000 0.000000
0.411581 -0.085033 -0.690908 91 80 172 0.000000 0.000000 -1.000000
0.415878 -0.038383 -0.638256 91 80 172 0.000000 1.000000 0.000000
0.567426 -0.111111 -0.126896 91 80 172 0.000000 -1.000000 0.000000
0.207624 -0.111111 -0.162995 91 80 172 0.000000 -1.000000 0.000000
0.022505 -0.038383 -0.063236 91 80 172 0.000000 1.000000 0.000000
0.370128 -0.111111 -0.504883 91 80 172 0.000000 -1.000000 0.000000
0.413804 -0.038383 -0.011995 91 80 172 0.000000 1.000000 0.000000
0.519408 -0.111111 -0.586556 91 80 172 0.000000 -1.000000 0.000000
0.351216 -0.038383 -0.094854 91 80 172 0.000000 1.000000 0.000000
0.125578 -0.111111 -0.371113 91 80 172 0.000000 -1.000000 0.000000
0.191085 -0.038383 -0.407382 91 80 172 0.000000 1.000000 0.000000
0.524825 -0.038383 -0.263448 91 80 172 0.000000 1.000000 0.000000
0.400581 -0.038383 -0.396040 91 80 172 0.000000 1.000000 0.000000
0.561605 -0.038383 -0.539801 91 80 172 0.000000 1.000000 0.000000
0.510082 -0.111111 -0.537727 91 80 172 0.000000 -1.000000 0.000000
0.543311 -0.111111 -0.655451 91 80 172 0.000000 -1.000000 0.000000
0.555461 -0.038383 -0.584225 91 80 172 0.000000 1.000000 0.000000
0.091686 -0.046393 -0.686525 91 80 172 0.000000 0.529395 -0.848375
0.520991 -0.038383 -0.079263 91 80 172 0.000000 1.000000 0.000000
0.258629 -0.038383 -0.351409 91 80 172 0.000000 1.000000 0.000000
0.567674 -0.110854 -0.401214 91 80 172 1.000000 0.000000 0.000000
0.134185 -0.038383 -0.295416 91 80 172 0.000000 1.000000 0.000000
0.423091 -0.038383 -0.339887 91 80 172 0.000000 1.000000 0.000000
0.291083 -0.111111 -0.417447 91 80 172 0.000000 -1.000000 0.000000
0.497668 -0.111111 -0.608476 91 80 172 0.000000 -1.000000 0.000000
0.458229 -0.111111 -0.648677 91 80 172 0.000000 -1.000000 0.000000
0.000046 -0.111111 -0.411586 91 80 172 0.000000 -1.000000 0.000000
0.444480 -0.038383 -0.178132 91 80 172 0.000000 1.000000 0.000000
0.342817 -0.038383 -0.637832 91 80 172 0.000000 1.000000 0.000000
0.203901 -0.111111 -0.150001 91 80 172 0.000000 -1.000000 0.000000
0.551529 -0.038383 -0.436206 91 80 172 0.000000 1.000000 0.000000
0.421252 -0.111111 -0.008667 91 80 172 0.000000 -1.000000 0.000000
0.072411 -0.111111 -0.137647 91 80 172 0.000000 -1.000000 0.000000
0.074592 -0.111111 -0.360219 91 80 172 0.000000 -1.000000 0.000000
0.211137 -0.086052 -0.690908 91 80 172 0.000000 0.000000 -1.000000
0.120107 -0.111111 -0.344943 91 80 172 0.000000 -1.000000 0.000000
0.468636 -0.076794 -0.690908 91 80 172 0.000000 0.000000 -1.000000
0.488550 -0.038383 -0.442124 91 80 172 0.000000 1.000000 0.000000
0.366658 -0.044516 -0.685353 91 80 172 0.000000 0.529395 -0.848375
0.456998 -0.111111 -0.324091 91 80 172 0.000000 -1.000000 0.000000
0.011014 -0.038383 -0.464979 91 80 172 0.000000 1.000000 0.000000
0.378454 -0.100478 -0.690908 91 80 172 0.000000 0.000000 -1.000000
0.402127 -0.111111 -0.241120 91 80 172 0.000000 -1.000000 0.000000
0.567674 -0.105165 -0.679167 91 80 172 1.000000 0.000000 0.000000
0.496649 -0.111111 -0.562918 91 80 172 0.000000 -1.000000 0.000000
0.451679 -0.038383 -0.545590 91 80 172 0.000000 1.000000 0.000000
0.144072 -0.038383 -0.349010 91 80 172 0.000000 1.000000 0.000000
0.567674 -0.109193 -0.283097 91 80 172 1.000000 0.000000 0.000000
0.567674 -0.057497 -0.233027 91 80 172 1.000000 0.000000 0.000000
0.404136 -0.111111 -0.118075 91 80 172 0.000000 -1.000000 0.000000
0.523936 -0.111111 -0.512028 91 80 172 0.000000 -1.000000 0.000000
0.494909 -0.038383 -0.668702 91 80 172 0.000000 1.000000 0.000000
0.253065 -0.038383 -0.275365 91 80 172 0.000000 1.000000 0.000000
0.322421 -0.038383 -0.356701 91 80 172 0.000000 1.000000 0.000000
0.334824 -0.077475 -0.690908 91 80 172 0.000000 0.000000 -1.000000
0.069580 -0.038383 -0.438120 91 80 172 0.000000 1.000000 0.000000
0.087878 -0.038383 -0.243236 91 80 172 0.000000 1.000000 0.000000
0.539750 -0.038383 -0.458539 91 80 172 0.000000 1.000000 0.000000
0.565669 -0.038383 -0.248711 91 80 172 0.000000 1.000000 0.000000
0.124682 -0.111111 -0.385872 91 80 172 0.000000 -1.000000 0.000000
0.482308 -0.111111 -0.304491 91 80 172 0.000000 -1.000000 0.000000
0.567674 -0.076659 -0.277107 91 80 172 1.000000 0.000000 0.000000
0.437920 -0.111111 -0.634188 91 80 172 0.000000 -1.000000 0.000000
0.129038 -0.038383 -0.288466 91 80 172 0.000000 1.000000 0.000000
0.194024 -0.111111 -0.138834 91 80 172 0.000000 -1.000000 0.000000
0.121134 -0.038383 -0.635096 91 80 172 0.000000 1.000000 0.000000
0.114375 -0.111111 -0.594131 91 80 172 0.000000 -1.000000 0.000000
0.031933 -0.111111 -0.563176 91 80 172 0.000000 -1.000000 0.000000
0.235710 -0.038383 -0.356108 91 80 172 0.000000 1.000000 0.000000
0.394457 -0.111111 -0.265999 91 80 172 0.000000 -1.000000 0.000000
0.256796 -0.038383 -0.401623 91 80 172 0.000000 1.000000 0.000000
0.225485 -0.038383 -0.113188 91 80 172 0.000000 1.000000 0.000000
0.361546 -0.111111 -0.597605 91 80 172 0.000000 -1.000000 0.000000
0.168587 -0.038383 -0.660307 91 80 172 0.000000 1.000000 0.000000
0.060828 -0.111111 -0.045332 91 80 172 0.000000 -1.000000 0.000000
0.174940 -0.038383 -0.432575 91 80 172 0.000000 1.000000 0.000000
0.544986 -0.111111 -0.245076 91 80 172 0.000000 -1.000000 0.000000
0.330778 -0.038383 -0.670833 91 80 172 0.000000 1.000000 0.000000
0.436718 -0.111111 -0.436258 91 80 172 0.000000 -1.000000 0.000000
0.515720 -0.038383 -0.578351 91 80 172 0.000000 1.000000 0.000000
0.189287 -0.039425 -0.682176 91 80 172 0.000000 0.529395 -0.848375
0.098217 -0.111111 -0.100483 91 80 172 0.000000 -1.000000 0.000000
0.308647 -0.111111 -0.376497 91 80 172 0.000000 -1.000000 0.000000
0.328104 -0.038383 -0.258667 91 80 172 0.000000 1.000000 0.000000
0.567674 -0.044229 -0.498020 91 80 172 1.000000 0.000000 0.000000
0.226722 -0.038383 -0.659215 91 80 172 0.000000 1.000000 0.000000
0.074738 -0.111111 -0.282464 91 80 172 0.000000 -1.000000 0.000000
0.567674 -0.053523 -0.019803 91 80 172 1.000000 0.000000 0.000000
0.467937 -0.111111 -0.100087 91 80 172 0.000000 -1.000000 0.000000
0.079572 -0.038383 -0.215264 91 80 172 0.000000 1.000000 0.000000
0.071298 -0.111111 -0.124450 91 80 172 0.000000 -1.000000 0.000000
0.567674 -0.104953 -0.481360 91 80 172 1.000000 0.000000 0.000000
0.410862 -0.111111 -0.554827 91 80 172 0.000000 -1.000000 0.000000
0.368526 -0.111111 -0.631385 91 80 172 0.000000 -1.000000 0.000000
0.486814 -0.111111 -0.260191 91 80 172 0.000000 -1.000000 0.000000
0.145966 -0.111111 -0.134243 91 80 172 0.000000 -1.000000 0.000000
0.353811 -0.038383 -0.024333 91 80 172 0.000000 1.000000 0.000000
0.424072 -0.111111 -0.246699 91 80 172 0.000000 -1.000000 0.000000
0.452281 -0.038383 -0.609574 91 80 172 0.000000 1.000000 0.000000
0.224731 -0.038383 -0.066952 91 80 172 0.000000 1.000000 0.000000
0.163933 -0.111111 -0.191042 91 80 172 0.000000 -1.000000 0.000000
0.541646 -0.111111 -0.297398 91 80 172 0.000000 -1.000000 0.000000
0.268925 -0.038383 -0.073145 91 80 172 0.000000 1.000000 0.000000
0.453025 -0.038383 -0.456940 91 80 172 0.000000 1.000000 0.000000
0.105008 -0.038383 -0.253310 91 80 172 0.000000 1.000000 0.000000
0.515072 -0.038383 -0.645033 91 80 172 0.000000 1.000000 0.000000
0.239917 -0.111111 -0.074102 91 80 172 0.000000 -1.000000 0.000000
0.282129 -0.111111 -0.134489 91 80 172 0.000000 -1.000000 0.000000
0.003206 -0.111111 -0.636243 91 80 172 0.000000 -1.000000 0.000000
0.189884 -0.111111 -0.216046 91 80 172 0.000000 -1.000000 0.000000
0.457302 -0.111111 -0.580427 91 80 172 0.000000 -1.000000 0.000000
0.510264 -0.038383 -0.173819 91 80 172 0.000000 1.000000 0.000000
0.204872 -0.038383 -0.302720 91 80 172 0.000000 1.000000 0.000000
0.430866 -0.111111 -0.661360 91 80 172 0.000000 -1.000000 0.000000
0.067442 -0.038383 -0.161803 91 80 172 0.000000 1.000000 0.000000
0.564400 -0.088221 -0.690908 91 80 172 0.000000 0.000000 -1.000000
0.081473 -0.111111 -0.208364 91 80 172 0.000000 -1.000000 0.000000
0.160484 -0.038383 -0.565116 91 80 172 0.000000 1.000000 0.000000
0.210497 -0.111111 -0.378207 91 80 172 0.000000 -1.000000 0.000000
0.526443 -0.038383 -0.669211 91 80 172 0.000000 1.000000 0.000000
0.060121 -0.038383 -0.190875 91 80 172 0.000000 1.000000 0.000000
0.567674 -0.051472 -0.070638 91 80 172 1.000000 0.000000 0.000000
0.478693 -0.058592 -0.690908 91 80 172 0.000000 0.000000 -1.000000
0.123126 -0.111111 -0.401068 91 80 172 0.000000 -1.000000 0.000000
0.155316 -0.038383 -0.202106 91 80 172 0.000000 1.000000 0.000000
0.001214 -0.111111 -0.534865 91 80 172 0.000000 -1.000000 0.000000
0.434531 -0.038383 -0.424727 91 80 172 0.000000 1.000000 0.000000
0.142558 -0.038383 -0.254799 91 80 172 0.000000 1.000000 0.000000
0.200538 -0.111111 -0.078513 91 80 172 0.000000 -1.000000 0.000000
0.149007 -0.038383 -0.305918 91 80 172 0.000000 1.000000 0.000000
0.091807 -0.111111 -0.403321 91 80 172 0.000000 -1.000000 0.000000
0.351720 -0.111111 -0.402206 91 80 172 0.000000 -1.000000 0.000000
0.548689 -0.111111 -0.511731 91 80 172 0.000000 -1.000000 0.000000
0.330422 -0.093339 -0.690908 91 80 172 0.000000 0.000000 -1.000000
0.029285 -0.038383 -0.637302 91 80 172 0.000000 1.000000 0.000000
0.255998 -0.111111 -0.455098 91 80 172 0.000000 -1.000000 0.000000
0.474668 -0.038383 -0.496738 91 80 172 0.000000 1.000000 0.000000
0.143369 -0.038383 -0.205526 91 80 172 0.000000 1.000000 0.000000
0.463586 -0.111111 -0.675084 91 80 172 0.000000 -1.000000 0.000000
0.033558 -0.111111 -0.128687 91 80 172 0.000000 -1.000000 0.000000
0.323459 -0.038383 -0.645292 91 80 172 0.000000 1.000000 0.000000
0.019296 -0.038383 -0.342010 91 80 172 0.000000 1.000000 0.000000
0.320069 -0.111111 -0.272543 91 80 172 0.000000 -1.000000 0.000000
0.399306 -0.111111 -0.367509 91 80 172 0.000000 -1.000000 0.000000
0.383784 -0.111111 -0.296871 91 80 172 0.000000 -1.000000 0.000000
0.057235 -0.111111 -0.528793 91 80 172 0.000000 -1.000000 0.000000
0.473432 -0.111111 -0.651400 91 80 172 0.000000 -1.000000 0.000000
0.054920 -0.111111 -0.558524 91 80 172 0.000000 -1.000000 0.000000
0.559645 -0.111111 -0.509514 91 80 172 0.000000 -1.000000 0.000000
0.567674 -0.085843 -0.159935 91 80 172 1.000000 0.000000 0.000000
0.567674 -0.082566 -0.006338 91 80 172 1.000000 0.000000 0.000000
0.544018 -0.111111 -0.400295 91 80 172 0.000000 -1.000000 0.000000
0.086909 -0.038383 -0.281173 91 80 172 0.000000 1.000000 0.000000
0.036786 -0.111111 -0.136796 91 80 172 0.000000 -1.000000 0.000000
0.291551 -0.038383 -0.304083 91 80 172 0.000000 1.000000 0.000000
0.355518 -0.038383 -0.474594 91 80 172 0.000000 1.000000 0.000000
0.358172 -0.111111 -0.533645 91 80 172 0.000000 -1.000000 0.000000
0.459289 -0.111111 -0.410106 91 80 172 0.000000 -1.000000 0.000000
0.342734 -0.038383 -0.517937 91 80 172 0.000000 1.000000 0.000000
0.562601 -0.111111 -0.683709 91 80 172 0.000000 -1.000000 0.000000
0.101891 -0.111111 -0.002172 91 80 172 0.000000 -1.000000 0.000000
0.412431 -0.111111 -0.509726 91 80 172 0.000000 -1.000000 0.000000
0.381023 -0.111111 -0.526277 91 80 172 0.000000 -1.000000 0.000000
0.042193 -0.111111 -0.402243 91 80 172 0.000000 -1.000000 0.000000
0.283109 -0.111111 -0.587768 91 80 172 0.000000 -1.000000 0.000000
0.441068 -0.038383 -0.018226 91 80 172 0.000000 1.000000 0.000000
0.303688 -0.038383 -0.097584 91 80 172 0.000000 1.000000 0.000000
0.117704 -0.047094 -0.686962 91 80 172 0.000000 0.529395 -0.848375
0.202225 -0.038383 -0.004953 91 80 172 0.000000 1.000000 0.000000
0.223374 -0.038383 -0.111244 91 80 172 0.000000 1.000000 0.000000
0.336235 -0.111111 -0.311631 91 80 172 0.000000 -1.000000 0.000000
0.283231 -0.111111 -0.217683 91 80 172 0.000000 -1.000000 0.000000
0.203873 -0.038383 -0.670388 91 80 172 0.000000 1.000000 0.000000
0.266011 -0.111111 -0.289609 91 80 172 0.000000 -1.000000 0.000000
0.288880 -0.111111 -0.060088 91 80 172 0.000000 -1.000000 0.000000
0.567674 -0.076789 -0.644088 91 80 172 1.000000 0.000000 0.000000
0.161565 -0.038383 -0.254965 91 80 172 0.000000 1.000000 0.000000
0.162764 -0.111111 -0.020160 91 80 172 0.000000 -1.000000 0.000000
0.530867 -0.038383 -0.056419 91 80 172 0.000000 1.000000 0.000000
0.006494 -0.038383 -0.586035 91 80 172 0.000000 1.000000 0.000000
0.519884 -0.111111 -0.628605 91 80 172 0.000000 -1.000000 0.000000
0.408801 -0.050939 -0.689361 91 80 172 0.000000 0.529395 -0.848375
0.178648 -0.038383 -0.418071 91 80 172 0.000000 1.000000 0.000000
0.019381 -0.038383 -0.186482 91 80 172 0.000000 1.000000 0.000000
0.567674 -0.091990 -0.252794 91 80 172 1.000000 0.000000 0.000000
0.491099 -0.111111 -0.481375 91 80 172 0.000000 -1.000000 0.000000
0.187229 -0.038383 -0.468346 91 80 172 0.000000 1.000000 0.000000
0.385523 -0.111111 -0.447888 91 80 172 0.000000 -1.000000 0.000000
0.567674 -0.058262 -0.514308 91 80 172 1.000000 0.000000 0.000000
0.151103 -0.111111 -0.331078 91 80 172 0.000000 -1.000000 0.000000
0.466281 -0.111111 -0.532133 91 80 172 0.000000 -1.000000 0.000000
0.387556 -0.038383 -0.262738 91 80 172 0.000000 1.000000 0.000000
0.285050 -0.038383 -0.605730 91 80 172 0.000000 1.000000 0.000000
0.401802 -0.038383 -0.389438 91 80 172 0.000000 1.000000 0.000000
0.248581 -0.111111 -0.635708 91 80 172 0.000000 -1.000000 0.000000
0.077310 -0.038383 -0.630554 91 80 172 0.000000 1.000000 0.000000
0.231524 -0.111111 -0.544998 91 80 172 0.000000 -1.000000 0.000000
0.263607 -0.038383 -0.644193 91 80 172 0.000000 1.000000 0.000000
0.268010 -0.038383 -0.291945 91 80 172 0.000000 1.000000 0.000000
0.087114 -0.038383 -0.672481 91 80 172 0.000000 1.000000 0.000000
0.095675 -0.038383 -0.535078 91 80 172 0.000000 1.000000 0.000000
0.069773 -0.038383 -0.457094 91 80 172 0.000000 1.000000 0.000000
0.364678 -0.038383 -0.551872 91 80 172 0.000000 1.000000 0.000000
0.322269 -0.038383 -0.231508 91 80 172 0.000000 1.000000 0.000000
0.216646 -0.038383 -0.139007 91 80 172 0.000000 1.000000 0.000000
0.136247 -0.038383 -0.096198 91 80 172 0.000000 1.000000 0.000000
0.355370 -0.111111 -0.589580 91 80 172 0.000000 -1.000000 0.000000
0.515681 -0.038383 -0.103541 91 80 172 0.000000 1.000000 0.000000
0.244071 -0.111111 -0.422938 91 80 172 0.000000 -1.000000 0.000000
0.307752 -0.111111 -0.361602 91 80 172 0.000000 -1.000000 0.000000
0.182148 -0.111111 -0.563392 91 80 172 0.000000 -1.000000 0.000000
0.547691 -0.111111 -0.288219 91 80 172 0.000000 -1.000000 0.000000
0.120092 -0.038383 -0.067155 91 80 172 0.000000 1.000000 0.000000
0.353229 -0.038383 -0.545509 91 80 172 0.000000 1.000000 0.000000
0.040535 -0.111111 -0.562052 91 80 172 0.000000 -1.000000 0.000000
0.314848 -0.111111 -0.154791 91 80 172 0.000000 -1.000000 0.000000
0.492276 -0.111111 -0.471065 91 80 172 0.000000 -1.000000 0.000000
0.009072 -0.111111 -0.082586 91 80 172 0.000000 -1.000000 0.000000
0.527345 -0.038383 -0.447712 91 80 172 0.000000 1.000000 0.000000
0.383221 -0.111111 -0.076350 91 80 172 0.000000 -1.000000 0.000000
0.329266 -0.038383 -0.160895 91 80 172 0.000000 1.000000 0.000000
0.319387 -0.038383 -0.453898 91 80 172 0.000000 1.000000 0.000000
0.564056 -0.038383 -0.185871 91 80 172 0.000000 1.000000 0.000000
0.496976 -0.038383 -0.396361 91 80 172 0.000000 1.000000 0.000000
0.115723 -0.038383 -0.207729 91 80 172 0.000000 1.000000 0.000000
0.492527 -0.111111 -0.171480 91 80 172 0.000000 -1.000000 0.000000
0.445764 -0.038383 -0.297564 91 80 172 0.000000 1.000000 0.000000
0.357145 -0.111111 -0.549158 91 80 172 0.000000 -1.000000 0.000000
0.183281 -0.111111 -0.239334 91 80 172 0.000000 -1.000000 0.000000
0.567674 -0.086018 -0.006929 91 80 172 1.000000 0.000000 0.000000
0.388565 -0.038383 -0.345348 91 80 172 0.000000 1.000000 0.000000
0.121958 -0.111111 -0.238701 91 80 172 0.000000 -1.000000 0.000000
0.567674 -0.066999 -0.365267 91 80 172 1.000000 0.000000 0.000000
0.489784 -0.111111 -0.665883 91 80 172 0.000000 -1.000000 0.000000
0.097772 -0.111111 -0.199674 91 80 172 0.000000 -1.000000 0.000000
0.367331 -0.038383 -0.426332 91 80 172 0.000000 1.000000 0.000000
0.254256 -0.111111 -0.442083 91 80 172 0.000000 -1.000000 0.000000
0.371375 -0.111111 -0.485814 91 80 172 0.000000 -1.000000 0.000000
0.134955 -0.111111 -0.451882 91 80 172 0.000000 -1.000000 0.000000
0.134405 -0.111111 -0.467179 91 80 172 0.000000 -1.000000 0.000000
0.312996 -0.038383 -0.063844 91 80 172 0.000000 1.000000 0.000000
0.449478 -0.111111 -0.140692 91 80 172 0.000000 -1.000000 0.000000
0.182308 -0.111111 -0.349779 91 80 172 0.000000 -1.000000 0.000000
0.118424 -0.038383 -0.035430 91 80 172 0.000000 1.000000 0.000000
0.158461 -0.111111 -0.080685 91 80 172 0.000000 -1.000000 0.000000
0.497054 -0.111111 -0.388866 91 80 172 0.000000 -1.000000 0.000000
0.179069 -0.111111 -0.634696 91 80 172 0.000000 -1.000000 0.000000
0.447239 -0.111111 -0.100447 91 80 172 0.000000 -1.000000 0.000000
