ply
format ascii 1.0
element vertex 691
property float x
property float y
property float z
property uchar red
property uchar green
property uchar blue
property float nx
property float ny
property float nz
end_header
-0.432403 -0.913763 -0.488749 123 97 89 -0.028283 -0.290055 0.956592
-0.505406 -0.903803 -0.534663 123 97 89 -0.694679 0.657441 -0.291877
-0.506864 -0.965982 -0.506295 123 97 89 0.125819 -0.456976 0.880536
-0.478328 -0.767843 -0.478422 100 136 240 0.500344 0.080231 0.862101
-0.406724 -0.816953 -0.515714 100 136 240 0.998735 0.021238 -0.045569
-0.417262 -0.853329 -0.555417 100 136 240 -0.086539 0.085100 -0.992607
-0.426120 -0.772898 -0.479280 100 136 240 -0.005493 0.068114 0.997662
-0.483134 -0.827910 -0.491029 100 136 240 -0.971144 -0.003248 0.238471
-0.413711 -0.831215 -0.553855 100 136 240 -0.039955 0.000868 -0.999201
-0.417205 -0.799081 -0.554376 100 136 240 0.185498 -0.096124 -0.977932
-0.429570 -0.843831 -0.556828 100 136 240 0.177852 0.012702 -0.983975
-0.492536 -0.758530 -0.517655 100 136 240 -0.991770 -0.122418 -0.037506
-0.456546 -0.797025 -0.478917 100 136 240 -0.042804 0.048735 0.997894
-0.422972 -0.798128 -0.477643 100 136 240 -0.031561 0.049843 0.998258
-0.458333 -0.872406 -0.564116 100 136 240 -0.522434 0.616335 -0.589231
-0.415610 -0.765214 -0.481139 100 136 240 0.218437 0.087322 0.971936
-0.423403 -0.766177 -0.479724 100 136 240 -0.005493 0.068114 0.997662
-0.487944 -0.813595 -0.529457 100 136 240 -0.859812 0.040218 -0.509024
-0.406501 -0.804750 -0.502395 100 136 240 0.999178 0.021604 -0.034297
-0.421246 -0.858544 -0.478149 100 136 240 -0.085574 -0.119197 0.989176
-0.409239 -0.762242 -0.511143 100 136 240 0.996670 0.081515 -0.002262
-0.482655 -0.807912 -0.487219 100 136 240 -0.984252 -0.015966 0.176051
-0.409037 -0.764574 -0.505858 100 136 240 0.996670 0.081515 -0.002262
-0.488275 -0.789759 -0.508171 100 136 240 -0.982567 -0.091129 0.162042
-0.406135 -0.837153 -0.505186 100 136 240 0.998026 -0.031175 -0.054527
-0.474537 -0.777224 -0.478916 100 136 240 0.152412 0.048057 0.987148
-0.446286 -0.862832 -0.480557 100 136 240 -0.071979 -0.134582 0.988285
-0.423733 -0.851153 -0.556155 100 136 240 0.141696 0.079504 -0.986712
-0.484832 -0.783230 -0.487842 100 136 240 -0.978405 -0.101003 0.180341
-0.407367 -0.806681 -0.525017 100 136 240 0.998735 0.021238 -0.045569
-0.448708 -0.785112 -0.479163 100 136 240 -0.042804 0.048735 0.997894
-0.406743 -0.856672 -0.499972 100 136 240 0.988861 -0.127432 -0.076906
-0.485733 -0.869521 -0.547774 100 136 240 -0.923321 0.350884 -0.156074
-0.488722 -0.855409 -0.526030 100 136 240 -0.857090 0.269178 -0.439250
-0.464833 -0.784097 -0.479739 100 136 240 -0.017190 0.036134 0.999199
-0.488074 -0.873976 -0.543817 100 136 240 -0.866842 0.388203 -0.312864
-0.480128 -0.772416 -0.548630 100 136 240 -0.794994 -0.131764 -0.592134
-0.413560 -0.813941 -0.477798 100 136 240 0.179095 0.037061 0.983134
-0.424725 -0.863596 -0.558810 100 136 240 0.224935 0.213633 -0.950666
-0.486486 -0.800855 -0.531276 100 136 240 -0.898785 -0.132819 -0.417785
-0.472297 -0.796406 -0.551339 100 136 240 -0.610584 -0.123266 -0.782300
-0.490368 -0.781413 -0.521317 100 136 240 -0.995336 -0.096286 0.005881
-0.406238 -0.817943 -0.503354 100 136 240 0.997842 0.036575 -0.054539
-0.465221 -0.826096 -0.479130 100 136 240 0.133524 0.005725 0.991029
-0.467647 -0.860769 -0.555925 100 136 240 -0.199652 0.308430 -0.930059
-0.474020 -0.768304 -0.479462 100 136 240 0.172093 0.054336 0.983581
-0.426775 -0.780000 -0.558398 100 136 240 0.210658 -0.092231 -0.973199
-0.407997 -0.871478 -0.494014 100 136 240 0.989584 -0.111881 -0.090588
-0.428595 -0.876554 -0.480955 100 136 240 -0.085574 -0.119197 0.989176
-0.433571 -0.864638 -0.479877 100 136 240 -0.071979 -0.134582 0.988285
-0.412022 -0.765095 -0.557874 100 136 240 -0.029913 -0.093141 -0.995203
-0.407146 -0.860548 -0.498732 100 136 240 0.988861 -0.127432 -0.076906
-0.407702 -0.796489 -0.525585 100 136 240 0.997249 0.058446 -0.045584
-0.420975 -0.781902 -0.556830 100 136 240 0.240033 -0.102562 -0.965332
-0.488518 -0.852005 -0.524344 100 136 240 -0.857090 0.269178 -0.439250
-0.405665 -0.829380 -0.500534 100 136 240 0.997842 0.036575 -0.054539
-0.496508 -0.691362 -0.484587 29 220 77 -0.662812 -0.070261 0.745482
-0.509287 -0.656415 -0.523647 29 220 77 -0.980439 -0.189320 0.053825
-0.490100 -0.724365 -0.547407 29 220 77 -0.795508 -0.155472 -0.585659
-0.417130 -0.669116 -0.498486 29 220 77 0.971545 0.072107 0.225612
-0.413399 -0.680309 -0.564680 29 220 77 0.924649 0.158768 0.346145
-0.473951 -0.653222 -0.579163 29 220 77 -0.310138 -0.233332 -0.921613
-0.424879 -0.716526 -0.565400 29 220 77 0.194723 -0.162159 -0.967361
-0.490179 -0.698224 -0.556488 29 220 77 -0.789678 -0.214218 -0.574908
-0.417605 -0.685171 -0.491309 29 220 77 0.971545 0.072107 0.225612
-0.437412 -0.747597 -0.481194 29 220 77 -0.005503 0.078572 0.996893
-0.417735 -0.653226 -0.539048 29 220 77 0.998287 0.057295 -0.011851
-0.413854 -0.704969 -0.522242 29 220 77 0.996498 0.081688 0.017853
-0.419127 -0.648737 -0.576815 29 220 77 0.716820 -0.067350 -0.693998
-0.475337 -0.740853 -0.558624 29 220 77 -0.585821 -0.154519 -0.795574
-0.417767 -0.647958 -0.501198 29 220 77 0.983051 0.051770 0.175870
-0.454458 -0.707337 -0.570252 29 220 77 -0.067934 -0.174044 -0.982392
-0.441311 -0.693399 -0.485094 29 220 77 0.006193 0.070525 0.997491
-0.411964 -0.727493 -0.526459 29 220 77 0.996642 0.081001 0.011999
-0.460531 -0.738754 -0.565289 29 220 77 -0.037551 -0.117894 -0.992316
-0.411801 -0.731008 -0.561544 29 220 77 0.720694 -0.052818 -0.691238
-0.511380 -0.640715 -0.512701 29 220 77 -0.972184 -0.178694 0.151413
-0.460485 -0.694200 -0.572041 29 220 77 -0.088629 -0.167529 -0.981875
-0.479744 -0.748457 -0.553857 29 220 77 -0.590015 -0.156318 -0.792116
-0.412974 -0.717408 -0.514405 29 220 77 0.996498 0.081688 0.017853
-0.436707 -0.652006 -0.487375 29 220 77 -0.026210 0.036227 0.999000
-0.472260 -0.692790 -0.569712 29 220 77 -0.333384 -0.193941 -0.922628
-0.494129 -0.666407 -0.486153 29 220 77 0.134599 0.119631 0.983652
-0.443665 -0.646933 -0.580757 29 220 77 0.151609 -0.172240 -0.973318
-0.409299 -0.750769 -0.547714 29 220 77 0.980960 0.085783 0.174240
-0.493995 -0.681761 -0.558086 29 220 77 -0.780084 -0.261868 -0.568238
-0.437341 -0.747846 -0.481174 29 220 77 -0.005503 0.078572 0.996893
-0.487733 -0.650919 -0.574698 29 220 77 -0.568525 -0.260649 -0.780283
-0.478424 -0.729288 -0.481639 29 220 77 0.178984 0.079944 0.980599
-0.417052 -0.658456 -0.561795 29 220 77 0.984396 0.104013 0.141936
-0.487668 -0.648605 -0.575518 29 220 77 -0.568525 -0.260649 -0.780283
-0.505772 -0.657961 -0.494028 29 220 77 -0.981092 -0.192046 -0.024033
-0.420333 -0.713197 -0.485330 29 220 77 0.229922 0.084182 0.969561
-0.502040 -0.677736 -0.497766 29 220 77 -0.967725 -0.192349 0.162820
-0.417206 -0.662280 -0.538273 29 220 77 0.998287 0.057295 -0.011851
-0.432042 -0.688101 -0.485483 29 220 77 0.006133 0.053235 0.998563
-0.487129 -0.711174 -0.555851 29 220 77 -0.789678 -0.214218 -0.574908
-0.479635 -0.662502 -0.487591 29 220 77 -0.021711 0.050089 0.998509
-0.497334 -0.717637 -0.512846 29 220 77 -0.983141 -0.158223 0.091653
-0.417349 -0.657857 -0.517935 29 220 77 0.998286 0.058521 -0.000454
-0.419427 -0.632395 -0.554352 29 220 77 0.997270 0.068595 -0.027353
-0.492224 -0.731415 -0.493942 29 220 77 -0.972153 -0.128734 0.195824
-0.432136 -0.643430 -0.487575 29 220 77 0.168118 0.046518 0.984669
-0.482812 -0.741975 -0.552574 29 220 77 -0.791994 -0.157265 -0.589926
-0.418211 -0.644263 -0.535784 29 220 77 0.998287 0.057295 -0.011851
-0.495944 -0.666960 -0.485573 29 220 77 0.404448 0.171688 0.898301
-0.422879 -0.657120 -0.488673 29 220 77 0.192570 0.038356 0.980533
-0.510860 -0.632435 -0.500026 29 220 77 -0.972034 -0.175938 0.155548
-0.416523 -0.671493 -0.537130 29 220 77 0.997241 0.073291 -0.011776
-0.493300 -0.646504 -0.572154 29 220 77 -0.561215 -0.262033 -0.785097
-0.466388 -0.645079 -0.488178 29 220 77 -0.021711 0.050089 0.998509
-0.410460 -0.748682 -0.509320 29 220 77 0.995742 0.092161 -0.002274
-0.514300 -0.587938 -0.575243 125 46 80 -0.792322 -0.291554 -0.535932
-0.525098 -0.517609 -0.491854 125 46 80 -0.733797 -0.170117 0.657725
-0.421975 -0.541580 -0.575838 125 46 80 0.996235 -0.039531 0.077152
-0.426774 -0.562476 -0.591672 125 46 80 -0.140647 -0.132756 -0.981119
-0.419502 -0.629105 -0.549273 125 46 80 0.998150 0.054274 -0.027394
-0.471353 -0.567128 -0.595245 125 46 80 -0.041037 -0.149090 -0.987972
-0.484754 -0.586487 -0.491303 125 46 80 -0.049892 0.018593 0.998582
-0.518392 -0.586155 -0.504414 125 46 80 -0.982125 -0.107069 0.154815
-0.429325 -0.557905 -0.591784 125 46 80 -0.139085 -0.096772 -0.985541
-0.485978 -0.622465 -0.582903 125 46 80 -0.310138 -0.233332 -0.921613
-0.522552 -0.582572 -0.554965 125 46 80 -0.984649 -0.172659 0.025612
-0.516841 -0.617615 -0.539402 125 46 80 -0.982392 -0.181379 -0.044811
-0.430603 -0.625478 -0.488616 125 46 80 0.168197 0.031582 0.985247
-0.422492 -0.544056 -0.590561 125 46 80 0.873951 -0.083482 -0.478791
-0.514802 -0.545488 -0.491230 125 46 80 0.296342 -0.013626 0.954985
-0.421746 -0.572805 -0.550124 125 46 80 0.998057 0.034859 -0.051644
-0.520178 -0.595354 -0.554492 125 46 80 -0.929459 -0.259956 -0.261782
-0.440592 -0.623250 -0.584248 125 46 80 0.156405 -0.145216 -0.976959
-0.451710 -0.620912 -0.488783 125 46 80 -0.026241 0.023736 0.999374
-0.531412 -0.509729 -0.572097 125 46 80 -0.992120 -0.052227 -0.113891
-0.419782 -0.517774 -0.587060 125 46 80 0.988105 -0.140287 0.062993
-0.495689 -0.515067 -0.602648 125 46 80 -0.105699 -0.050600 -0.993110
-0.518430 -0.605085 -0.551804 125 46 80 -0.974570 -0.206533 -0.086934
-0.421540 -0.569649 -0.543921 125 46 80 0.998836 0.025518 -0.040935
-0.473191 -0.563715 -0.491185 125 46 80 -0.060323 0.027550 0.997799
-0.420609 -0.624301 -0.580717 125 46 80 0.716820 -0.067350 -0.693998
-0.529557 -0.537541 -0.560665 125 46 80 -0.991174 -0.130094 0.025502
-0.421905 -0.566886 -0.549212 125 46 80 0.998057 0.034859 -0.051644
-0.528423 -0.538380 -0.540938 125 46 80 -0.984990 -0.106866 0.135555
-0.482650 -0.515007 -0.602327 125 46 80 0.095027 -0.095896 -0.990845
-0.419794 -0.604798 -0.524268 125 46 80 0.998650 0.041802 -0.030839
-0.420736 -0.567864 -0.522030 125 46 80 0.999011 0.014967 -0.041860
-0.506943 -0.515349 -0.489562 125 46 80 0.047698 -0.149173 0.987660
-0.419615 -0.612984 -0.499715 125 46 80 0.983708 0.036783 0.175968
-0.417127 -0.509662 -0.493818 125 46 80 0.981912 -0.142577 0.124583
-0.508069 -0.557508 -0.593592 125 46 80 -0.491837 -0.203287 -0.846623
-0.512647 -0.621767 -0.497682 125 46 80 -0.982877 -0.183740 0.013858
-0.421073 -0.602338 -0.555553 125 46 80 0.998326 0.040886 -0.040916
-0.504853 -0.611003 -0.576344 125 46 80 -0.557499 -0.284645 -0.779854
-0.421248 -0.585712 -0.546787 125 46 80 0.998836 0.025518 -0.040935
-0.421061 -0.539749 -0.551293 125 46 80 0.997480 -0.049651 -0.050674
-0.420001 -0.593908 -0.581126 125 46 80 0.896000 -0.015599 -0.443780
-0.483962 -0.517986 -0.602165 125 46 80 0.095027 -0.095896 -0.990845
-0.466976 -0.559504 -0.490724 125 46 80 -0.050113 -0.057407 0.997092
-0.519913 -0.596749 -0.523799 125 46 80 -0.983427 -0.167358 0.069726
-0.469030 -0.527875 -0.599490 125 46 80 0.168249 -0.106060 -0.980022
-0.526053 -0.559000 -0.564154 125 46 80 -0.975479 -0.141637 -0.168463
-0.445225 -0.551348 -0.593495 125 46 80 0.156558 -0.089134 -0.983639
-0.421634 -0.546633 -0.583543 125 46 80 0.997244 -0.036709 0.064471
-0.422628 -0.556346 -0.565320 125 46 80 0.997358 -0.050810 -0.051916
-0.418544 -0.510346 -0.554509 125 46 80 0.988955 -0.138393 -0.053061
-0.430507 -0.615277 -0.488959 125 46 80 0.168197 0.031582 0.985247
-0.450731 -0.525636 -0.487958 125 46 80 -0.050113 -0.057407 0.997092
-0.455175 -0.536247 -0.596382 125 46 80 0.130175 -0.089207 -0.987470
-0.419595 -0.619950 -0.579753 125 46 80 0.912157 -0.005130 -0.409808
-0.527167 -0.513254 -0.493616 125 46 80 -0.980098 -0.074717 -0.183918
-0.447337 -0.547175 -0.489023 125 46 80 -0.050710 -0.056849 0.997094
-0.444899 -0.516094 -0.596760 125 46 80 0.151693 -0.107538 -0.982560
-0.420802 -0.609116 -0.557052 125 46 80 0.998150 0.054274 -0.027394
-0.482032 -0.549575 -0.598254 125 46 80 0.042453 -0.136289 -0.989759
-0.527784 -0.514966 -0.517541 125 46 80 -0.983614 -0.115877 0.138114
-0.509004 -0.560598 -0.492277 125 46 80 0.070342 -0.045984 0.996462
-0.514438 -0.584992 -0.576640 125 46 80 -0.792322 -0.291554 -0.535932
-0.432867 -0.577373 -0.489376 125 46 80 0.129426 0.013243 0.991501
-0.420181 -0.601966 -0.532920 125 46 80 0.998650 0.041802 -0.030839
-0.509030 -0.559516 -0.492224 125 46 80 0.070342 -0.045984 0.996462
-0.448698 -0.586586 -0.489677 125 46 80 -0.039916 0.019344 0.999016
-0.419142 -0.612693 -0.510253 125 46 80 0.999399 0.030283 -0.016883
-0.416310 -0.509683 -0.506288 125 46 80 0.991442 -0.127606 -0.027541
-0.521618 -0.579102 -0.520232 125 46 80 -0.983544 -0.104916 0.147082
-0.456644 -0.620560 -0.488944 125 46 80 -0.039890 0.034819 0.998597
-0.399460 -0.415308 -0.476238 173 104 92 0.914022 -0.364967 0.177096
-0.506189 -0.386013 -0.589291 173 104 92 -0.440648 0.285326 -0.851128
-0.527095 -0.497399 -0.488855 173 104 92 -0.733797 -0.170117 0.657725
-0.502582 -0.417930 -0.468743 173 104 92 -0.015370 -0.380545 0.924635
-0.409024 -0.454487 -0.560684 173 104 92 0.974374 -0.220216 -0.045826
-0.440795 -0.503808 -0.484331 173 104 92 -0.039758 -0.139042 0.989488
-0.456481 -0.394196 -0.601159 173 104 92 0.027994 0.210007 -0.977299
-0.518046 -0.412176 -0.466285 173 104 92 0.058224 -0.371847 0.926466
-0.397519 -0.414039 -0.582498 173 104 92 0.912040 -0.405230 0.063019
-0.435760 -0.473911 -0.599952 173 104 92 0.140622 -0.103362 -0.984653
-0.521505 -0.452910 -0.478077 173 104 92 0.049468 -0.216494 0.975030
-0.419566 -0.440156 -0.473779 173 104 92 0.117311 -0.216036 0.969312
-0.525913 -0.435255 -0.585545 173 104 92 -0.862454 0.099417 -0.496276
-0.476591 -0.408780 -0.604997 173 104 92 0.034914 0.209054 -0.977281
-0.531832 -0.386460 -0.516028 173 104 92 -0.987025 0.160244 0.010127
-0.518061 -0.401522 -0.458958 173 104 92 0.025509 -0.697432 0.716197
-0.447890 -0.402424 -0.602681 173 104 92 0.027994 0.210007 -0.977299
-0.434159 -0.422479 -0.468875 173 104 92 0.016264 -0.226883 0.973786
-0.529683 -0.390748 -0.559253 173 104 92 -0.955872 0.213388 -0.201927
-0.535801 -0.453276 -0.559731 173 104 92 -0.986013 0.028888 -0.164143
-0.403187 -0.427543 -0.480463 173 104 92 0.947299 -0.283001 0.150120
-0.381425 -0.396820 -0.596672 173 104 92 0.644545 -0.762208 0.060012
-0.531282 -0.498885 -0.530554 173 104 92 -0.984973 -0.107030 0.135549
-0.406124 -0.444064 -0.520984 173 104 92 0.979757 -0.199899 -0.010787
-0.486672 -0.481520 -0.483337 173 104 92 -0.051152 -0.156261 0.986390
-0.401681 -0.425024 -0.599009 173 104 92 0.755910 -0.432138 -0.491789
-0.431062 -0.401447 -0.602982 173 104 92 -0.230299 0.216316 -0.948773
-0.478222 -0.506704 -0.602707 173 104 92 0.095027 -0.095896 -0.990845
-0.506342 -0.428101 -0.472818 173 104 92 -0.045993 -0.304726 0.951329
-0.432869 -0.420965 -0.603330 173 104 92 -0.054456 -0.068857 -0.996139
-0.531768 -0.453978 -0.491915 173 104 92 -0.991732 -0.106117 0.072165
-0.484953 -0.473900 -0.481972 173 104 92 -0.056923 -0.222390 0.973295
-0.481557 -0.433328 -0.473157 173 104 92 -0.032084 -0.201634 0.978935
-0.456801 -0.476637 -0.481118 173 104 92 -0.043310 -0.176770 0.983299
-0.419004 -0.394681 -0.603745 173 104 92 -0.085383 0.103276 -0.990981
-0.535734 -0.440016 -0.531684 173 104 92 -0.999865 -0.014013 -0.008611
-0.530432 -0.469626 -0.496554 173 104 92 -0.991685 -0.106594 0.072105
-0.420206 -0.444706 -0.474610 173 104 92 0.120921 -0.191983 0.973920
-0.491136 -0.405888 -0.601841 173 104 92 -0.203274 0.277838 -0.938875
-0.382758 -0.397025 -0.586508 173 104 92 0.675577 -0.732544 0.083517
-0.536063 -0.461751 -0.553579 173 104 92 -0.999213 0.000220 0.039672
-0.464282 -0.425958 -0.470135 173 104 92 -0.036873 -0.305063 0.951618
-0.400760 -0.422645 -0.593837 173 104 92 0.904441 -0.424710 0.040112
-0.408031 -0.445401 -0.599103 173 104 92 0.817038 -0.229153 -0.529092
-0.413656 -0.473202 -0.569223 173 104 92 0.974374 -0.220216 -0.045826
-0.497171 -0.475015 -0.605039 173 104 92 -0.162076 -0.067546 -0.984464
-0.401751 -0.428277 -0.523911 173 104 92 0.940075 -0.339565 -0.030913
-0.455248 -0.395625 -0.601430 173 104 92 0.027994 0.210007 -0.977299
-0.413896 -0.456156 -0.477651 173 104 92 0.120921 -0.191983 0.973920
-0.535870 -0.422755 -0.522631 173 104 92 -0.999446 -0.019695 0.026829
-0.510936 -0.490132 -0.601576 173 104 92 -0.465957 -0.036719 -0.884045
-0.452677 -0.413828 -0.466445 173 104 92 0.002460 -0.322219 0.946662
-0.397526 -0.414013 -0.572815 173 104 92 0.912189 -0.409624 -0.010947
-0.447586 -0.467148 -0.479006 173 104 92 -0.043310 -0.176770 0.983299
-0.472614 -0.450562 -0.476414 173 104 92 -0.032084 -0.201634 0.978935
-0.445332 -0.473273 -0.480008 173 104 92 -0.043310 -0.176770 0.983299
-0.534455 -0.402074 -0.525979 173 104 92 -0.986844 0.161673 -0.000993
-0.486276 -0.448877 -0.606584 173 104 92 0.071354 0.012682 -0.997370
-0.535642 -0.458101 -0.543006 173 104 92 -0.999213 0.000220 0.039672
-0.535644 -0.428138 -0.518164 173 104 92 -0.999446 -0.019695 0.026829
-0.396504 -0.385695 -0.604719 173 104 92 -0.061087 0.096140 -0.993492
-0.413442 -0.483327 -0.525156 173 104 92 0.991442 -0.127606 -0.027541
-0.499497 -0.494817 -0.603297 173 104 92 -0.162076 -0.067546 -0.984464
-0.414269 -0.446286 -0.602701 173 104 92 -0.265545 -0.023358 -0.963816
-0.416116 -0.492934 -0.556038 173 104 92 0.988099 -0.148667 -0.039484
-0.482020 -0.430196 -0.472312 173 104 92 -0.045993 -0.304726 0.951329
-0.387580 -0.399872 -0.518068 173 104 92 0.895943 -0.436940 0.079806
-0.471819 -0.494743 -0.484534 173 104 92 -0.062362 -0.147968 0.987024
-0.406802 -0.446532 -0.536830 173 104 92 0.979757 -0.199899 -0.010787
-0.532504 -0.447378 -0.499794 173 104 92 -0.988699 -0.081864 0.125587
-0.528842 -0.491165 -0.505104 173 104 92 -0.983614 -0.115877 0.138114
-0.472732 -0.416878 -0.605519 173 104 92 0.025152 0.000868 -0.999683
-0.400750 -0.426193 -0.513090 173 104 92 0.963459 -0.267212 0.018551
-0.433937 -0.497537 -0.597298 173 104 92 0.073774 -0.098097 -0.992439
-0.401619 -0.428623 -0.516107 173 104 92 0.940075 -0.339565 -0.030913
-0.430000 -0.415579 -0.467100 173 104 92 0.002460 -0.322219 0.946662
-0.533154 -0.440027 -0.500114 173 104 92 -0.988699 -0.081864 0.125587
-0.506920 -0.458446 -0.603582 173 104 92 -0.219418 0.077639 -0.972537
-0.390730 -0.404522 -0.515674 173 104 92 0.799734 -0.600066 0.018611
-0.534966 -0.461394 -0.528307 173 104 92 -0.988699 -0.081864 0.125587
-0.523213 -0.467788 -0.481276 173 104 92 0.233138 -0.180591 0.955528
-0.409469 -0.453462 -0.581463 173 104 92 0.975279 -0.214521 0.053030
-0.519739 -0.478007 -0.597040 173 104 92 -0.500231 -0.024280 -0.865551
-0.465823 -0.506952 -0.486022 173 104 92 -0.052764 -0.148103 0.987563
-0.407137 -0.442939 -0.576053 173 104 92 0.974374 -0.220216 -0.045826
-0.414420 -0.486607 -0.539573 173 104 92 0.988955 -0.138393 -0.053061
-0.527694 -0.397753 -0.572131 173 104 92 -0.817951 0.261424 -0.512459
-0.482789 -0.409641 -0.464219 173 104 92 -0.063907 -0.708394 0.702918
-0.511902 -0.444573 -0.599272 173 104 92 -0.509526 0.103694 -0.854184
-0.411218 -0.468605 -0.528855 173 104 92 0.979757 -0.199899 -0.010787
-0.394089 -0.409619 -0.535664 173 104 92 0.799734 -0.600066 0.018611
-0.532908 -0.505183 -0.563212 173 104 92 -0.983626 -0.068299 -0.166778
-0.485364 -0.476338 -0.605931 173 104 92 0.067772 -0.082806 -0.994259
-0.531921 -0.484647 -0.523311 173 104 92 -0.986172 -0.110094 0.123875
-0.534293 -0.470560 -0.529676 173 104 92 -0.986172 -0.110094 0.123875
-0.442791 -0.430813 -0.470859 173 104 92 -0.036873 -0.305063 0.951618
-0.536154 -0.395911 -0.473982 173 104 92 -0.998774 -0.049480 0.001259
-0.460302 -0.474951 -0.480970 173 104 92 -0.043310 -0.176770 0.983299
-0.532835 -0.454929 -0.507315 173 104 92 -0.988699 -0.081864 0.125587
-0.493848 -0.433914 -0.604573 173 104 92 -0.219418 0.077639 -0.972537
-0.536008 -0.421450 -0.552893 173 104 92 -0.986013 0.028888 -0.164143
-0.511354 -0.452137 -0.478383 173 104 92 0.043707 -0.215201 0.975591
-0.476164 -0.495075 -0.484859 173 104 92 -0.062362 -0.147968 0.987024
-0.405945 -0.443929 -0.507220 173 104 92 0.979757 -0.199899 -0.010787
-0.410335 -0.439094 -0.474659 173 104 92 0.117311 -0.216036 0.969312
-0.424062 -0.453009 -0.475799 173 104 92 0.109462 -0.195000 0.974676
-0.530612 -0.469862 -0.499390 173 104 92 -0.991685 -0.106594 0.072105
-0.400251 -0.422172 -0.543316 173 104 92 0.939815 -0.339341 -0.039955
-0.392125 -0.407131 -0.550320 173 104 92 0.800660 -0.599095 0.005358
-0.532193 -0.503492 -0.542270 173 104 92 -0.992896 -0.099101 0.065849
-0.434454 -0.414378 -0.603698 173 104 92 -0.054456 -0.068857 -0.996139
-0.482117 -0.390171 -0.599194 173 104 92 -0.215333 0.274299 -0.937226
-0.447350 -0.401586 -0.602485 173 104 92 0.027994 0.210007 -0.977299
-0.397491 -0.415197 -0.537660 173 104 92 0.939815 -0.339341 -0.039955
-0.405384 -0.438996 -0.542373 173 104 92 0.979665 -0.199539 -0.021015
-0.535513 -0.435042 -0.518341 173 104 92 -0.999446 -0.019695 0.026829
-0.533026 -0.452227 -0.575346 173 104 92 -0.975530 0.054792 -0.212932
-0.534946 -0.440097 -0.514267 173 104 92 -0.988699 -0.081864 0.125587
-0.461451 -0.361123 -0.593092 131 113 16 0.007587 0.358452 -0.933517
-0.524034 -0.354397 -0.533096 131 113 16 -0.948971 0.312269 -0.044070
-0.391849 -0.344666 -0.598129 131 113 16 -0.135370 0.233137 -0.962976
-0.517378 -0.338183 -0.543085 131 113 16 -0.940648 0.307964 -0.142616
-0.530985 -0.380991 -0.530396 131 113 16 -0.979681 0.194342 -0.049556
-0.484050 -0.365079 -0.591337 131 113 16 -0.200789 0.407524 -0.890847
-0.483545 -0.366217 -0.591856 131 113 16 -0.215333 0.274299 -0.937226
-0.467865 -0.315351 -0.571561 131 113 16 -0.186605 0.438540 -0.879125
-0.525962 -0.358937 -0.523755 131 113 16 -0.948971 0.312269 -0.044070
-0.395975 -0.346995 -0.598113 131 113 16 -0.135370 0.233137 -0.962976
-0.527504 -0.379442 -0.557503 131 113 16 -0.957824 0.217296 -0.188033
-0.432833 -0.312517 -0.566509 131 113 16 0.385155 0.879012 0.281059
-0.393490 -0.317863 -0.575051 131 113 16 0.045991 -0.736987 0.674341
-0.454626 -0.331865 -0.581709 131 113 16 -0.022037 0.438414 -0.898503
-0.455072 -0.363509 -0.593956 131 113 16 0.007587 0.358452 -0.933517
-0.416578 -0.316487 -0.582246 131 113 16 -0.164270 0.219105 -0.961774
-0.519736 -0.342614 -0.538234 131 113 16 -0.924869 0.336166 -0.177793
-0.405304 -0.344888 -0.596077 131 113 16 -0.224904 0.227736 -0.947393
-0.494942 -0.306210 -0.559473 131 113 16 -0.288854 0.248361 -0.924597
-0.405071 -0.318812 -0.583214 131 113 16 -0.112079 -0.280307 -0.953345
-0.486494 -0.313634 -0.565141 131 113 16 -0.356593 0.367679 -0.858868
-0.491238 -0.379779 -0.594092 131 113 16 -0.203274 0.277838 -0.938875
-0.470473 -0.311699 -0.569368 131 113 16 -0.189984 0.399549 -0.896809
-0.401856 -0.313510 -0.577116 131 113 16 -0.070269 0.269978 -0.960299
-0.494463 -0.356676 -0.584103 131 113 16 -0.366543 0.429471 -0.825349
-0.461850 -0.336652 -0.583337 131 113 16 -0.200789 0.407524 -0.890847
-0.368480 -0.314882 -0.579944 131 113 16 -0.070269 0.269978 -0.960299
-0.513990 -0.382532 -0.584086 131 113 16 -0.440648 0.285326 -0.851128
-0.500602 -0.324470 -0.564604 131 113 16 -0.349446 0.425620 -0.834707
-0.433374 -0.344526 -0.588180 131 113 16 -0.203515 0.309358 -0.928913
-0.477097 -0.304860 -0.564917 131 113 16 -0.189984 0.399549 -0.896809
-0.478868 -0.345395 -0.583542 131 113 16 -0.196575 0.403681 -0.893532
-0.444781 -0.292292 -0.561338 131 113 16 0.788277 0.247454 -0.563371
-0.457448 -0.381441 -0.598464 131 113 16 0.034914 0.209054 -0.977281
-0.515422 -0.378254 -0.581497 131 113 16 -0.810902 0.266935 -0.520753
-0.509375 -0.306526 -0.542043 131 113 16 -0.994484 0.024539 -0.101980
-0.409992 -0.316520 -0.560299 131 113 16 0.000207 1.000000 0.000388
-0.523719 -0.353916 -0.536446 131 113 16 -0.948971 0.312269 -0.044070
-0.387457 -0.334899 -0.596684 131 113 16 -0.161548 0.210129 -0.964234
-0.432430 -0.349979 -0.590203 131 113 16 -0.203515 0.309358 -0.928913
-0.523321 -0.354375 -0.541820 131 113 16 -0.924869 0.336166 -0.177793
-0.361457 -0.316738 -0.594330 131 113 16 -0.012120 0.977693 -0.209690
-0.373820 -0.376121 -0.605129 131 113 16 -0.055124 0.125121 -0.990609
-0.501784 -0.382619 -0.590531 131 113 16 -0.483139 0.311859 -0.818120
-0.443308 -0.261214 -0.514626 131 113 16 0.994773 0.090366 -0.047546
-0.379822 -0.306703 -0.576815 131 113 16 -0.070269 0.269978 -0.960299
-0.418738 -0.326238 -0.586658 131 113 16 -0.196392 0.569506 -0.798181
-0.463662 -0.294189 -0.561989 131 113 16 -0.120439 0.383313 -0.915732
-0.531233 -0.382460 -0.506752 131 113 16 -0.988863 0.148017 -0.015505
0.483577 -0.916259 -0.551704 130 44 134 -0.968214 -0.171358 -0.182202
0.534543 -1.000000 -0.580534 130 44 134 0.000000 -1.000000 0.000000
0.523849 -0.974598 -0.509490 130 44 134 0.014711 -0.415779 0.909347
0.518316 -0.907761 -0.486060 130 44 134 0.192148 -0.137311 0.971712
0.574425 -0.998613 -0.561678 130 44 134 0.922473 -0.355482 -0.150584
0.488724 -0.939191 -0.547161 130 44 134 -0.949170 -0.274111 -0.154724
0.577707 -0.973297 -0.545752 130 44 134 0.994767 -0.102168 -0.000163
0.508636 -0.980056 -0.571097 130 44 134 -0.904959 -0.387944 -0.174784
0.576533 -0.984387 -0.541537 130 44 134 0.979812 -0.141687 0.141041
0.543460 -0.890459 -0.488850 130 44 134 0.216637 -0.118241 0.969065
0.478257 -0.910969 -0.525131 130 44 134 -0.961443 -0.274907 -0.007289
0.512894 -0.944083 -0.590367 130 44 134 -0.033493 -0.081545 -0.996107
0.576889 -0.978135 -0.530628 130 44 134 0.982977 -0.181615 0.027773
0.576639 -0.985655 -0.543546 130 44 134 0.979812 -0.141687 0.141041
0.543774 -0.940708 -0.497166 130 44 134 0.187070 -0.224856 0.956266
0.520892 -0.904996 -0.486178 130 44 134 0.192148 -0.137311 0.971712
0.491880 -0.939259 -0.566558 130 44 134 -0.949957 -0.272030 -0.153561
0.475048 -0.898569 -0.520324 130 44 134 -0.977558 -0.208916 -0.027089
0.486389 -0.923303 -0.559741 130 44 134 -0.963905 -0.211967 -0.161111
0.542274 -0.941607 -0.497084 130 44 134 0.187070 -0.224856 0.956266
0.535838 -0.966817 -0.505870 130 44 134 0.179805 -0.411025 0.893716
0.531146 -0.951386 -0.498556 130 44 134 0.183007 -0.358361 0.915470
0.557878 -0.916376 -0.494806 130 44 134 -0.045471 -0.270128 0.961750
0.544601 -0.920467 -0.584338 130 44 134 0.279999 0.538202 -0.794946
0.559577 -0.902829 -0.555530 130 44 134 0.763120 0.605591 -0.225627
0.568479 -0.931352 -0.498890 130 44 134 -0.158395 -0.347585 0.924173
0.487613 -0.939565 -0.525651 130 44 134 -0.932546 -0.360939 0.008964
0.540799 -0.993950 -0.518896 130 44 134 0.188679 -0.386248 0.902891
0.498289 -0.957502 -0.564935 130 44 134 -0.923205 -0.352909 -0.152143
0.486948 -0.938006 -0.532044 130 44 134 -0.932546 -0.360939 0.008964
0.490989 -0.948355 -0.528389 130 44 134 -0.932546 -0.360939 0.008964
0.520241 -0.965170 -0.505121 130 44 134 0.014711 -0.415779 0.909347
0.551606 -0.983636 -0.585277 130 44 134 0.367116 -0.076801 -0.926999
0.494678 -0.924455 -0.492655 130 44 134 -0.255123 -0.339163 0.905473
0.479611 -0.890884 -0.487233 130 44 134 -0.458749 -0.272416 0.845777
0.492939 -0.950443 -0.518759 130 44 134 -0.902563 -0.400397 0.158309
0.484508 -0.931352 -0.528333 130 44 134 -0.943454 -0.331175 -0.014787
0.550070 -0.982042 -0.585694 130 44 134 0.009446 -0.100667 -0.994875
0.504812 -0.924848 -0.490215 130 44 134 -0.286586 -0.383911 0.877770
0.560865 -0.904303 -0.555129 130 44 134 0.763120 0.605591 -0.225627
0.530884 -0.894434 -0.570473 130 44 134 0.385084 0.521251 -0.761582
0.566953 -0.998507 -0.576798 130 44 134 0.564551 -0.061858 -0.823077
0.508640 -0.978689 -0.575161 130 44 134 -0.924415 -0.360265 0.125168
0.522251 -0.985948 -0.515549 130 44 134 -0.193859 -0.459155 0.866946
0.579685 -0.934360 -0.505012 130 44 134 0.930017 0.367387 0.009794
0.579806 -0.968112 -0.520510 130 44 134 0.952197 -0.104426 -0.287083
0.574617 -0.980402 -0.565578 130 44 134 0.958792 -0.047584 -0.280096
0.574378 -0.928382 -0.571247 130 44 134 0.932530 0.329696 0.147267
0.484169 -0.926080 -0.542440 130 44 134 -0.949170 -0.274111 -0.154724
0.519938 -0.971111 -0.508207 130 44 134 -0.193859 -0.459155 0.866946
0.532901 -0.899145 -0.572678 130 44 134 0.385084 0.521251 -0.761582
0.512589 -0.894670 -0.483145 130 44 134 0.010156 -0.196024 0.980547
0.541191 -0.933084 -0.494868 130 44 134 0.187070 -0.224856 0.956266
0.518299 -0.901250 -0.577205 130 44 134 0.135766 0.578586 -0.804242
0.582153 -0.946748 -0.553773 130 44 134 0.912226 -0.329441 0.243542
0.509551 -0.894679 -0.573955 130 44 134 0.135766 0.578586 -0.804242
0.501182 -0.958195 -0.588442 130 44 134 -0.706834 -0.309022 -0.636311
0.557793 -0.954526 -0.588375 130 44 134 0.534034 -0.274316 -0.799724
0.581229 -0.952772 -0.558457 130 44 134 0.912226 -0.329441 0.243542
0.556980 -0.921409 -0.580358 130 44 134 0.330023 0.662831 -0.672116
0.478912 -0.892141 -0.548072 130 44 134 -0.969563 -0.127337 -0.209123
0.575249 -0.981405 -0.518334 130 44 134 0.369707 -0.394345 0.841314
0.524994 -1.000000 -0.579993 130 44 134 0.000000 -1.000000 0.000000
0.538516 -0.913102 -0.580668 130 44 134 0.205837 0.561686 -0.801336
0.579598 -0.951481 -0.507259 130 44 134 0.572032 -0.284660 0.769252
0.544107 -1.000000 -0.522861 130 44 134 0.000000 -1.000000 0.000000
0.552404 -0.890237 -0.562468 130 44 134 0.575412 0.376257 -0.726176
0.568787 -1.000000 -0.565866 130 44 134 0.000000 -1.000000 0.000000
0.516735 -1.000000 -0.568737 130 44 134 0.000076 -1.000000 0.000015
0.515938 -0.895234 -0.483820 130 44 134 0.192148 -0.137311 0.971712
0.518980 -0.927899 -0.588026 130 44 134 -0.044084 0.336547 -0.940634
0.526199 -0.907070 -0.579604 130 44 134 0.205837 0.561686 -0.801336
0.567931 -0.989760 -0.576735 130 44 134 0.820209 -0.059920 -0.568917
0.529106 -0.934295 -0.590790 130 44 134 -0.044084 0.336547 -0.940634
0.545611 -0.986162 -0.516570 130 44 134 0.188679 -0.386248 0.902891
0.494472 -0.948365 -0.562930 130 44 134 -0.923651 -0.352090 -0.151334
0.577269 -0.976807 -0.558777 130 44 134 0.995177 -0.097656 -0.009239
0.493538 -0.922622 -0.583197 130 44 134 0.331280 0.515168 -0.790478
0.555877 -0.944832 -0.590260 130 44 134 0.210249 0.200345 -0.956900
0.472242 -0.886383 -0.513032 130 158 17 -0.977558 -0.208916 -0.027089
0.467616 -0.810992 -0.518952 130 158 17 -0.985396 -0.000857 -0.170274
0.472823 -0.889034 -0.503752 130 158 17 -0.957676 -0.248067 0.146012
0.548339 -0.855116 -0.524737 130 158 17 0.973643 -0.115573 -0.196625
0.557001 -0.874615 -0.512735 130 158 17 0.934072 0.248339 0.256589
0.467678 -0.802172 -0.494990 130 158 17 -0.971054 0.031902 0.236719
0.532382 -0.778677 -0.554475 130 158 17 0.598431 -0.057973 -0.799074
0.552615 -0.866615 -0.522490 130 158 17 0.901568 0.399499 -0.166060
0.512883 -0.863156 -0.560438 130 158 17 -0.007823 0.394755 -0.918753
0.468471 -0.843288 -0.490782 130 158 17 -0.971406 -0.051087 0.231865
0.505214 -0.864362 -0.560892 130 158 17 -0.007823 0.394755 -0.918753
0.550642 -0.784512 -0.511893 130 158 17 0.985431 -0.067296 0.156194
0.549995 -0.824709 -0.517012 130 158 17 0.991724 -0.002992 0.128357
0.546886 -0.814644 -0.535685 130 158 17 0.866075 0.181213 -0.465914
0.511413 -0.838718 -0.559091 130 158 17 0.438052 0.175664 -0.881619
0.533825 -0.805897 -0.550498 130 158 17 0.594742 -0.092541 -0.798573
0.500283 -0.886546 -0.481394 130 158 17 0.010156 -0.196024 0.980547
0.491030 -0.855152 -0.476776 130 158 17 -0.003525 -0.047467 0.998867
0.538721 -0.826793 -0.480835 130 158 17 -0.327272 -0.037551 0.944184
0.510113 -0.809459 -0.559861 130 158 17 -0.128399 -0.006272 -0.991703
0.544998 -0.877127 -0.486240 130 158 17 -0.085975 -0.160923 0.983215
0.501913 -0.788846 -0.559677 130 158 17 -0.122566 -0.086165 -0.988713
0.548875 -0.843332 -0.526531 130 158 17 0.973388 -0.178166 0.144128
0.555334 -0.874590 -0.526913 130 158 17 0.901568 0.399499 -0.166060
0.471088 -0.840020 -0.484710 130 158 17 -0.870670 -0.052222 0.489088
0.549957 -0.790468 -0.510138 130 158 17 0.985431 -0.067296 0.156194
0.548659 -0.850852 -0.490271 130 158 17 0.972128 0.100646 -0.211749
0.521781 -0.836771 -0.559711 130 158 17 0.477602 -0.103888 -0.872413
0.516722 -0.839148 -0.558773 130 158 17 -0.138906 -0.196923 -0.970529
0.491303 -0.820971 -0.475704 130 158 17 -0.040944 0.027728 0.998777
0.471187 -0.881387 -0.512892 130 158 17 -0.989462 -0.142192 -0.027305
0.472002 -0.830713 -0.540726 130 158 17 -0.975850 -0.054382 -0.211563
0.469651 -0.795399 -0.530399 130 158 17 -0.985221 0.018492 -0.170287
0.475037 -0.844497 -0.557754 130 158 17 -0.757525 0.001510 -0.652805
0.470174 -0.795107 -0.533397 130 158 17 -0.985221 0.018492 -0.170287
0.553969 -0.888822 -0.559069 130 158 17 0.931015 0.343118 -0.124422
0.549169 -0.827887 -0.511677 130 158 17 0.988798 0.010680 0.148877
0.468277 -0.847612 -0.519189 130 158 17 -0.975872 -0.054463 -0.211442
0.491482 -0.878257 -0.564735 130 158 17 -0.218982 0.247232 -0.943887
0.509362 -0.876756 -0.480049 130 158 17 0.192778 -0.109377 0.975127
0.471963 -0.832528 -0.540079 130 158 17 -0.975850 -0.054382 -0.211563
0.550198 -0.843873 -0.521114 130 158 17 0.833005 0.180763 -0.522903
0.496056 -0.819056 -0.475609 130 158 17 -0.023081 0.019255 0.999548
0.494433 -0.791335 -0.476722 130 158 17 -0.040746 0.070415 0.996685
0.472211 -0.846814 -0.548679 130 158 17 -0.924171 -0.049910 0.378703
0.507222 -0.866609 -0.561874 130 158 17 -0.007823 0.394755 -0.918753
0.548335 -0.847911 -0.528543 130 158 17 0.973388 -0.178166 0.144128
0.557192 -0.887780 -0.540109 130 158 17 0.882581 0.370106 -0.289952
0.554510 -0.872636 -0.521617 130 158 17 0.954991 0.290337 0.060807
0.467084 -0.797049 -0.515732 130 158 17 -0.985221 0.018492 -0.170287
0.471184 -0.840060 -0.484543 130 158 17 -0.870670 -0.052222 0.489088
0.550917 -0.824015 -0.521863 130 158 17 0.978852 0.018732 0.203712
0.484150 -0.791805 -0.557250 130 158 17 -0.057280 -0.096751 -0.993659
0.499101 -0.825900 -0.558111 130 158 17 -0.148909 0.007121 -0.988825
0.540428 -0.703546 -0.563497 88 238 131 0.535039 -0.248675 -0.807399
0.539119 -0.720578 -0.483114 88 238 131 0.067163 0.050330 0.996472
0.537825 -0.690261 -0.569751 88 238 131 0.451527 -0.242362 -0.858711
0.552435 -0.765454 -0.514808 88 238 131 0.990985 -0.081993 0.105952
0.484887 -0.750377 -0.481791 88 238 131 -0.236332 0.091391 0.967365
0.559102 -0.703517 -0.541870 88 238 131 0.829783 -0.159543 -0.534795
0.477017 -0.667413 -0.561812 88 238 131 -0.949313 0.129148 0.286575
0.515247 -0.759833 -0.479192 88 238 131 0.110748 0.050579 0.992561
0.484900 -0.723779 -0.484300 88 238 131 -0.236332 0.091391 0.967365
0.503681 -0.708719 -0.570122 88 238 131 -0.034515 -0.235579 -0.971242
0.527747 -0.694579 -0.571292 88 238 131 0.084022 -0.211020 -0.973864
0.522820 -0.768175 -0.561273 88 238 131 0.287845 -0.090009 -0.953438
0.509474 -0.747766 -0.564259 88 238 131 -0.099099 -0.103899 -0.989639
0.471119 -0.744224 -0.527823 88 238 131 -0.997177 0.048508 -0.057307
0.551231 -0.710493 -0.482078 88 238 131 0.337121 0.011267 0.941394
0.529556 -0.693796 -0.484129 88 238 131 0.063354 0.064459 0.995907
0.487834 -0.691711 -0.486393 88 238 131 -0.181566 0.078963 0.980203
0.491149 -0.758293 -0.479513 88 238 131 -0.236332 0.091391 0.967365
0.548642 -0.685249 -0.565478 88 238 131 0.451527 -0.242362 -0.858711
0.555137 -0.724234 -0.501013 88 238 131 0.988989 -0.108134 0.101032
0.475135 -0.679953 -0.517169 88 238 131 -0.996901 0.069294 0.037237
0.491150 -0.683969 -0.486276 88 238 131 -0.181736 0.060291 0.981497
0.521766 -0.739293 -0.480999 88 238 131 0.067163 0.050330 0.996472
0.549256 -0.777891 -0.496670 88 238 131 0.986308 -0.089338 0.138618
0.558034 -0.686567 -0.551637 88 238 131 0.925146 -0.111543 -0.362855
0.492387 -0.743342 -0.480687 88 238 131 -0.216315 0.095975 0.971595
0.539080 -0.756383 -0.553844 88 238 131 0.555847 -0.107864 -0.824257
0.557494 -0.720309 -0.530402 88 238 131 0.981920 -0.185009 -0.040057
0.558202 -0.716078 -0.502477 88 238 131 0.928545 -0.271898 0.252736
0.472052 -0.743933 -0.497050 88 238 131 -0.972144 0.090243 0.216317
0.487129 -0.753238 -0.561136 88 238 131 -0.134149 -0.099787 -0.985924
0.483003 -0.697908 -0.567864 88 238 131 -0.166528 -0.191333 -0.967295
0.513708 -0.705077 -0.570992 88 238 131 0.055721 -0.128289 -0.990170
0.512797 -0.716860 -0.568001 88 238 131 0.122215 -0.150325 -0.981053
0.533159 -0.720503 -0.482717 88 238 131 0.067163 0.050330 0.996472
0.485550 -0.686127 -0.487646 88 238 131 -0.431075 0.069230 0.899656
0.530169 -0.761947 -0.480993 88 238 131 0.127903 0.005526 0.991771
0.503584 -0.713646 -0.568923 88 238 131 -0.034515 -0.235579 -0.971242
0.526485 -0.683709 -0.484587 88 238 131 0.063354 0.064459 0.995907
0.560652 -0.705044 -0.527595 88 238 131 0.982243 -0.171481 -0.076112
0.564840 -0.669532 -0.500034 88 238 131 0.931604 -0.168685 0.321961
0.561097 -0.704903 -0.511840 88 238 131 0.978929 -0.204070 -0.007281
0.544093 -0.765854 -0.544802 88 238 131 0.759688 -0.086528 -0.644506
0.564997 -0.677163 -0.542399 88 238 131 0.974188 -0.202350 -0.100056
0.511903 -0.690553 -0.483605 88 238 131 -0.059461 0.080112 0.995011
0.470071 -0.754272 -0.523978 88 238 131 -0.992203 0.063077 -0.107488
0.555319 -0.748771 -0.528880 88 238 131 0.990985 -0.081993 0.105952
0.562639 -0.696877 -0.520528 88 238 131 0.979419 -0.201434 -0.012731
0.549541 -0.770062 -0.483092 88 238 131 0.994408 -0.069951 0.079113
0.506420 -0.775090 -0.477430 88 238 131 0.110748 0.050579 0.992561
0.489370 -0.755504 -0.480211 88 238 131 -0.236332 0.091391 0.967365
0.498108 -0.720410 -0.481963 88 238 131 -0.054789 0.081996 0.995126
0.513764 -0.714309 -0.568271 88 238 131 0.122215 -0.150325 -0.981053
0.556727 -0.660405 -0.486403 233 246 79 -0.280605 0.129898 0.950993
0.546689 -0.661777 -0.573309 233 246 79 0.439261 -0.261887 -0.859340
0.583847 -0.579004 -0.558440 233 246 79 0.978433 0.029388 -0.204463
0.498969 -0.616700 -0.488405 233 246 79 -0.110129 0.035099 0.993297
0.503104 -0.597488 -0.590404 233 246 79 -0.360886 -0.114551 -0.925548
0.542267 -0.649984 -0.579135 233 246 79 0.600663 -0.214590 -0.770166
0.478900 -0.571141 -0.525913 233 246 79 -0.999555 0.016797 -0.024641
0.540870 -0.588972 -0.592339 233 246 79 -0.161845 -0.354251 -0.921039
0.567524 -0.561328 -0.492833 233 246 79 -0.129399 -0.032507 0.991060
0.562172 -0.603116 -0.581895 233 246 79 0.507627 -0.185668 -0.841334
0.563817 -0.635445 -0.566177 233 246 79 0.814849 -0.271136 -0.512354
0.547167 -0.599840 -0.589264 233 246 79 -0.161845 -0.354251 -0.921039
0.572520 -0.643306 -0.508901 233 246 79 0.954405 -0.154448 0.255453
0.479405 -0.598227 -0.543913 233 246 79 -0.995811 0.031705 -0.085765
0.533108 -0.576025 -0.595127 233 246 79 -0.065768 -0.146332 -0.987047
0.521285 -0.615030 -0.588231 233 246 79 0.059210 -0.155578 -0.986047
0.501673 -0.663399 -0.485947 233 246 79 -0.032079 0.061198 0.997610
0.578515 -0.581103 -0.500486 233 246 79 0.992787 -0.117959 0.021427
0.578374 -0.598337 -0.562570 233 246 79 0.870888 -0.166391 -0.462458
0.482144 -0.622056 -0.582211 233 246 79 -0.687590 -0.079134 -0.721774
0.527335 -0.581293 -0.488894 233 246 79 0.100464 0.015025 0.994827
0.490751 -0.630517 -0.581466 233 246 79 -0.057787 -0.160186 -0.985394
0.565871 -0.635972 -0.488315 233 246 79 0.410756 -0.010726 0.911682
0.547061 -0.630372 -0.489232 233 246 79 0.084047 0.042683 0.995547
0.481932 -0.578722 -0.585892 233 246 79 -0.910388 -0.015643 -0.413459
0.578096 -0.617691 -0.514246 233 246 79 0.954405 -0.154448 0.255453
0.482212 -0.585198 -0.585991 233 246 79 -0.711596 -0.065889 -0.699493
0.584283 -0.579250 -0.546547 233 246 79 0.903499 -0.350197 0.247087
0.495059 -0.580408 -0.489815 233 246 79 -0.093195 0.009440 0.995603
0.532235 -0.640255 -0.581946 233 246 79 -0.240978 -0.422699 -0.873645
0.504290 -0.560609 -0.594227 233 246 79 -0.447103 -0.064865 -0.892127
0.476916 -0.665008 -0.546205 233 246 79 -0.996478 0.056463 -0.061996
0.521491 -0.620534 -0.587748 233 246 79 0.136076 -0.100927 -0.985544
0.577662 -0.594675 -0.565228 233 246 79 0.870888 -0.166391 -0.462458
0.578522 -0.600875 -0.561377 233 246 79 0.870888 -0.166391 -0.462458
0.494189 -0.656369 -0.487512 233 246 79 -0.156427 0.052825 0.986276
0.541303 -0.663067 -0.487054 233 246 79 0.071633 0.072521 0.994791
0.525748 -0.653673 -0.486434 233 246 79 0.084047 0.042683 0.995547
0.492338 -0.617525 -0.489258 233 246 79 -0.131665 0.026614 0.990937
0.565317 -0.626728 -0.568096 233 246 79 0.792189 -0.245725 -0.558620
0.528715 -0.616521 -0.586412 233 246 79 0.273730 -0.042862 -0.960851
0.572216 -0.633975 -0.505522 233 246 79 0.881246 -0.116976 0.457954
0.497961 -0.630345 -0.583847 233 246 79 -0.492782 -0.112110 -0.862900
0.543966 -0.620998 -0.586195 233 246 79 0.500680 -0.257894 -0.826323
0.504623 -0.591141 -0.591783 233 246 79 -0.360886 -0.114551 -0.925548
0.482475 -0.579120 -0.494334 233 246 79 -0.943110 0.021283 0.331800
0.477854 -0.620574 -0.522802 233 246 79 -0.999391 0.034842 0.001957
0.567796 -0.620532 -0.567306 233 246 79 0.792189 -0.245725 -0.558620
0.484274 -0.571174 -0.492984 233 246 79 -0.345996 0.023326 0.937946
0.548607 -0.618941 -0.489738 233 246 79 0.094496 0.040011 0.994721
0.481426 -0.579386 -0.562203 233 246 79 -0.996069 0.022056 -0.085787
0.501711 -0.656277 -0.580869 233 246 79 -0.233285 -0.169130 -0.957587
0.479555 -0.632786 -0.560728 233 246 79 -0.995982 0.053477 -0.071832
0.521714 -0.641896 -0.583137 233 246 79 0.149865 -0.204180 -0.967394
0.478035 -0.615261 -0.525127 233 246 79 -0.999391 0.034842 0.001957
0.563928 -0.558866 -0.492704 233 246 79 0.091742 -0.056035 0.994205
0.481519 -0.598217 -0.568457 233 246 79 -0.995811 0.031705 -0.085765
0.550419 -0.588011 -0.591687 233 246 79 0.449395 -0.230281 -0.863142
0.563098 -0.624179 -0.572364 233 246 79 0.792189 -0.245725 -0.558620
0.576852 -0.625537 -0.514670 233 246 79 0.970410 -0.162648 -0.178465
0.547130 -0.601175 -0.589141 233 246 79 0.201837 -0.076782 -0.976405
0.567888 -0.628085 -0.563598 233 246 79 0.814849 -0.271136 -0.512354
0.572513 -0.569820 -0.491725 233 246 79 -0.214840 0.081636 0.973231
0.580478 -0.572421 -0.508349 233 246 79 0.983896 -0.082192 0.158725
0.478041 -0.612029 -0.514482 233 246 79 -0.995295 0.031288 0.091702
0.582269 -0.593902 -0.539159 233 246 79 0.982185 -0.141601 -0.123537
0.585343 -0.570594 -0.532147 233 246 79 0.975373 -0.152755 0.159100
0.550910 -0.659881 -0.571728 233 246 79 0.439261 -0.261887 -0.859340
0.534871 -0.641600 -0.582022 233 246 79 -0.240978 -0.422699 -0.873645
0.487432 -0.627564 -0.581752 233 246 79 -0.057787 -0.160186 -0.985394
0.587156 -0.532532 -0.531471 233 83 196 0.998592 -0.040595 0.034148
0.497973 -0.524147 -0.487721 233 83 196 -0.076733 -0.121807 0.989583
0.489513 -0.508823 -0.486430 233 83 196 -0.064354 -0.125725 0.989976
0.485045 -0.467116 -0.480772 233 83 196 -0.059574 -0.171418 0.983396
0.556816 -0.450793 -0.603370 233 83 196 0.257084 -0.032389 -0.965846
0.585152 -0.456474 -0.588680 233 83 196 0.838577 0.165063 -0.519176
0.586072 -0.520181 -0.576362 233 83 196 0.975143 -0.021600 -0.220523
0.478083 -0.514912 -0.589965 233 83 196 -0.974969 -0.128229 0.181639
0.570018 -0.462752 -0.596966 233 83 196 0.452100 -0.056765 -0.890159
0.583234 -0.543256 -0.495442 233 83 196 0.774213 -0.106608 0.623882
0.505638 -0.547871 -0.488318 233 83 196 -0.079729 -0.046483 0.995732
0.563693 -0.494403 -0.486423 233 83 196 0.054023 -0.153727 0.986635
0.588356 -0.489465 -0.491595 233 83 196 0.974201 -0.057985 -0.218108
0.574849 -0.468978 -0.593996 233 83 196 0.465504 -0.097282 -0.879683
0.474928 -0.500825 -0.547797 233 83 196 -0.990048 -0.129263 -0.055641
0.573374 -0.486653 -0.595205 233 83 196 0.471285 0.047770 -0.880686
0.496894 -0.483227 -0.599310 233 83 196 -0.114012 -0.108300 -0.987559
0.469867 -0.462609 -0.560315 233 83 196 -0.978659 -0.203142 -0.030989
0.476674 -0.522857 -0.517388 233 83 196 -0.991892 -0.123828 -0.028590
0.590951 -0.462826 -0.507710 233 83 196 0.992269 -0.092770 0.082434
0.528236 -0.502834 -0.484843 233 83 196 0.007669 -0.122078 0.992491
0.489549 -0.478733 -0.599021 233 83 196 -0.086192 -0.108368 -0.990367
0.592908 -0.484966 -0.559862 233 83 196 0.829417 0.278778 -0.484097
0.504150 -0.540131 -0.595606 233 83 196 -0.144186 -0.061305 -0.987650
0.478468 -0.553568 -0.515532 233 83 196 -0.996729 -0.051074 0.062630
0.513047 -0.516142 -0.598372 233 83 196 -0.108212 -0.142558 -0.983853
0.545553 -0.531357 -0.489458 233 83 196 0.091742 -0.056035 0.994205
0.479325 -0.537680 -0.498530 233 83 196 -0.935517 -0.064208 0.347399
0.476503 -0.519330 -0.511382 233 83 196 -0.989988 -0.127947 0.059608
0.466566 -0.453017 -0.527334 233 83 196 -0.984524 -0.175139 -0.006303
0.581606 -0.552686 -0.504405 233 83 196 0.994568 -0.093969 0.044767
0.586818 -0.503279 -0.508553 233 83 196 0.988438 -0.105136 0.109252
0.471601 -0.481823 -0.511989 233 83 196 -0.990138 -0.131448 0.048459
0.548009 -0.499129 -0.485733 233 83 196 0.093497 -0.140695 0.985628
0.479862 -0.498643 -0.597339 233 83 196 -0.579758 -0.157144 -0.799491
0.474455 -0.488327 -0.593688 233 83 196 -0.841240 -0.177072 -0.510844
0.525402 -0.542675 -0.597155 233 83 196 -0.183251 -0.331078 -0.925638
0.544477 -0.537576 -0.597259 233 83 196 0.011528 -0.143845 -0.989533
0.509988 -0.456100 -0.604663 233 83 196 0.025598 -0.047401 -0.998548
0.531736 -0.536350 -0.488392 233 83 196 0.100009 -0.047827 0.993836
0.468470 -0.462564 -0.532621 233 83 196 -0.982483 -0.184721 -0.024616
0.481931 -0.542108 -0.577868 233 83 196 -0.994535 -0.061128 -0.084642
0.587916 -0.516519 -0.569991 233 83 196 0.926373 -0.228023 -0.299730
0.593970 -0.456972 -0.525034 233 83 196 0.998688 -0.042539 -0.028504
0.498174 -0.462719 -0.479201 233 83 196 -0.061261 -0.172510 0.983101
0.588807 -0.483118 -0.507154 233 83 196 0.988438 -0.105136 0.109252
0.487362 -0.450746 -0.477773 233 83 196 -0.061261 -0.172510 0.983101
0.505599 -0.451770 -0.604982 233 83 196 0.025598 -0.047401 -0.998548
0.586839 -0.537677 -0.560108 233 83 196 0.999295 -0.022789 -0.029836
0.500915 -0.508252 -0.597480 233 83 196 -0.147425 -0.080886 -0.985760
0.504064 -0.456599 -0.477887 233 83 196 -0.007564 -0.168277 0.985711
0.575906 -0.483432 -0.593675 233 83 196 0.471285 0.047770 -0.880686
0.471562 -0.459091 -0.482568 233 83 196 -0.285914 -0.201554 0.936819
0.585414 -0.554899 -0.522896 233 83 196 0.996457 -0.067159 0.050623
0.574147 -0.451505 -0.597572 233 83 196 0.377410 0.106471 -0.919905
0.592540 -0.471720 -0.522608 233 83 196 0.906772 -0.307407 0.288559
0.516111 -0.458991 -0.478235 233 83 196 0.013476 -0.179347 0.983694
0.588896 -0.467253 -0.574228 233 83 196 0.981972 -0.071323 -0.175054
0.590832 -0.450109 -0.492378 233 83 196 0.991049 -0.098624 0.089978
0.586384 -0.512649 -0.512202 233 83 196 0.983736 -0.092970 0.153691
0.593772 -0.463610 -0.522066 233 83 196 0.998688 -0.042539 -0.028504
0.590028 -0.446350 -0.575138 233 83 196 0.929002 0.113002 -0.352401
0.588477 -0.485624 -0.492074 233 83 196 0.974201 -0.057985 -0.218108
0.520467 -0.532809 -0.596773 233 83 196 -0.108212 -0.142558 -0.983853
0.499347 -0.537798 -0.594349 233 83 196 -0.194779 -0.103352 -0.975387
0.491812 -0.514532 -0.595479 233 83 196 0.042039 -0.096761 -0.994419
0.570669 -0.446644 -0.477382 233 83 196 0.060358 -0.226385 0.972166
0.526951 -0.457491 -0.602412 233 83 196 -0.026122 -0.030258 -0.999201
0.479104 -0.515485 -0.571834 233 83 196 -0.985696 -0.144750 -0.086321
0.591841 -0.461722 -0.540871 233 83 196 0.998964 -0.043777 -0.012430
0.591469 -0.462442 -0.509357 233 83 196 0.906772 -0.307407 0.288559
0.532352 -0.546625 -0.597116 233 83 196 -0.102283 -0.333645 -0.937134
0.551370 -0.504621 -0.486835 233 83 196 0.093497 -0.140695 0.985628
0.560075 -0.498467 -0.486783 233 83 196 0.093497 -0.140695 0.985628
0.587547 -0.527369 -0.544040 233 83 196 0.999811 -0.019440 0.000745
0.493473 -0.538045 -0.488854 233 83 196 -0.092775 -0.052759 0.994288
0.588051 -0.486763 -0.503730 233 83 196 0.990794 -0.103917 0.086764
0.554619 -0.491807 -0.485314 233 83 196 0.093497 -0.140695 0.985628
0.591958 -0.458116 -0.544173 233 83 196 0.998964 -0.043777 -0.012430
0.594302 -0.417476 -0.542389 229 179 48 0.999907 -0.003610 0.013140
0.588961 -0.406512 -0.577680 229 179 48 0.957995 0.217337 -0.187111
0.547354 -0.382423 -0.598602 229 179 48 0.442397 0.282685 -0.851102
0.576906 -0.445579 -0.595068 229 179 48 0.556155 0.213595 -0.803162
0.585883 -0.442669 -0.583309 229 179 48 0.832118 0.158876 -0.531355
0.496129 -0.418296 -0.605190 229 179 48 -0.031896 -0.056570 -0.997889
