ply
format ascii 1.0
element vertex 710
property float x
property float y
property float z
property uchar red
property uchar green
property uchar blue
property float nx
property float ny
property float nz
end_header
0.325582 -0.246617 -0.206770 183 215 22 0.780242 0.181057 0.598700
0.316967 -0.297902 -0.188763 183 215 22 0.605397 0.102973 0.789235
0.260157 -0.268407 -0.287175 183 215 22 -0.378845 0.141888 -0.914518
0.319517 -0.256053 -0.276958 183 215 22 0.602628 0.141894 -0.785306
0.317116 -0.168836 -0.234573 183 215 22 0.946264 0.298476 0.124481
0.256326 -0.217670 -0.274332 183 215 22 -0.593761 0.220037 -0.773971
0.307890 -0.294003 -0.184124 183 215 22 0.380607 0.102965 0.918987
0.237458 -0.216428 -0.237490 183 215 22 -0.967140 0.220190 -0.127109
0.247040 -0.181915 -0.229616 183 215 22 -0.957564 0.259237 0.125968
0.251140 -0.165313 -0.235508 183 215 22 -0.946278 0.298433 0.124483
0.335320 -0.251096 -0.226682 183 215 22 0.975063 0.180983 0.128439
0.320056 -0.280752 -0.280978 183 215 22 0.605519 0.103029 -0.789134
0.306513 -0.283525 -0.184727 183 215 22 0.380801 0.102850 0.918919
0.283112 -0.261270 -0.291728 183 215 22 -0.129292 0.141934 -0.981396
0.324651 -0.269759 -0.274679 183 215 22 0.785471 0.141862 -0.602421
0.279259 -0.306931 -0.296749 183 215 22 -0.129977 0.102946 -0.986158
0.286494 -0.175129 -0.201800 183 215 22 0.126144 0.259289 0.957526
0.288759 -0.301210 -0.296053 183 215 22 0.130010 0.103002 -0.986148
0.235110 -0.241884 -0.221266 183 215 22 -0.908622 0.180982 0.376366
0.244453 -0.190243 -0.232147 183 215 22 -0.957590 0.259195 0.125854
0.296702 -0.253100 -0.185457 183 215 22 0.128467 0.180948 0.975066
0.224525 -0.308333 -0.228430 183 215 22 -0.989434 0.063945 0.130117
0.332133 -0.265321 -0.211234 183 215 22 0.914496 0.142130 0.378809
0.240661 -0.232773 -0.262061 183 215 22 -0.780203 0.180974 -0.598775
0.284782 -0.256885 -0.183339 183 215 22 0.129301 0.141934 0.981395
0.280031 -0.303978 -0.177810 183 215 22 -0.129854 0.102872 0.986182
0.238088 -0.251514 -0.264372 183 215 22 -0.780248 0.181014 -0.598705
0.243998 -0.191063 -0.233915 183 215 22 -0.957590 0.259195 0.125854
0.239786 -0.221811 -0.220120 183 215 22 -0.901197 0.220085 0.373372
0.233792 -0.276469 -0.210297 183 215 22 -0.914467 0.142131 0.378878
0.294410 -0.159254 -0.265768 183 215 22 0.365128 0.298539 -0.881791
0.279690 -0.298615 -0.295938 183 215 22 -0.129872 0.103004 -0.986166
0.274850 -0.148266 -0.244967 183 215 22 0.000000 1.000000 0.000000
0.325972 -0.200110 -0.235917 183 215 22 0.967166 0.220123 0.127025
0.335494 -0.252179 -0.226471 183 215 22 0.975063 0.180983 0.128439
0.308626 -0.267572 -0.187934 183 215 22 0.378955 0.141949 0.914464
0.276882 -0.167464 -0.269680 183 215 22 -0.124642 0.298529 -0.946227
0.224551 -0.301602 -0.241045 183 215 22 -0.986194 0.102968 -0.129691
0.290491 -0.148266 -0.238241 183 215 22 0.000000 1.000000 0.000000
0.311130 -0.187153 -0.264824 183 215 22 0.587845 0.259352 -0.766273
0.331669 -0.235912 -0.222956 183 215 22 0.908593 0.180980 0.376436
0.269472 -0.178805 -0.270744 183 215 22 -0.369723 0.259157 -0.892268
0.322741 -0.293106 -0.280531 183 215 22 0.605636 0.102950 -0.789054
0.280050 -0.183991 -0.199497 183 215 22 -0.126132 0.259254 0.957537
0.290497 -0.148266 -0.214601 183 215 22 0.000000 1.000000 0.000000
0.283420 -0.292678 -0.178543 183 215 22 -0.129743 0.102934 0.986190
0.260109 -0.254357 -0.189378 183 215 22 -0.378791 0.142039 0.914518
0.298318 -0.161872 -0.209316 183 215 22 0.365269 0.298436 0.881768
0.253650 -0.306434 -0.185104 183 215 22 -0.380674 0.102966 0.918959
0.287906 -0.233860 -0.187869 183 215 22 0.128433 0.180964 0.975068
0.287569 -0.148266 -0.238192 183 215 22 0.000000 1.000000 0.000000
0.252440 -0.190572 -0.212794 183 215 22 -0.766167 0.259302 0.588005
0.342132 -0.292444 -0.236119 183 215 22 0.986190 0.103007 0.129685
0.323660 -0.210407 -0.217612 183 215 22 0.901206 0.220044 0.373375
0.230299 -0.292399 -0.260315 183 215 22 -0.918904 0.102841 -0.380841
0.236665 -0.241864 -0.256828 183 215 22 -0.908621 0.180989 -0.376365
0.239764 -0.233991 -0.260524 183 215 22 -0.908621 0.180989 -0.376365
0.329601 -0.242718 -0.214691 183 215 22 0.908616 0.181016 0.376363
0.237537 -0.219619 -0.230747 183 215 22 -0.967109 0.220183 0.127355
0.300080 -0.229267 -0.191388 183 215 22 0.376383 0.180948 0.908622
0.261055 -0.150931 -0.220711 183 215 22 -0.757408 0.298338 0.580800
0.248538 -0.284922 -0.282541 183 215 22 -0.605519 0.103029 -0.789134
0.255883 -0.206235 -0.203611 183 215 22 -0.593921 0.220035 0.773849
0.335319 -0.464202 0.248373 70 194 52 0.915879 -0.130793 0.379550
0.282020 -0.400461 0.167354 70 194 52 -0.130315 -0.052784 -0.990067
0.343133 -0.422791 0.222620 70 194 52 0.987258 -0.091832 -0.129954
0.338992 -0.444585 0.246250 70 194 52 0.920007 -0.091676 0.381029
0.269426 -0.378821 0.289441 70 194 52 -0.130437 -0.013871 0.991360
0.305252 -0.381617 0.170853 70 194 52 0.382556 -0.013818 -0.923829
0.333181 -0.468279 0.205606 70 194 52 0.915894 -0.130675 -0.379556
0.324413 -0.449212 0.269665 70 194 52 0.603635 -0.130718 0.786472
0.305011 -0.399892 0.286287 70 194 52 0.382165 -0.052755 0.922587
0.223642 -0.350641 0.212097 70 194 52 -0.923594 0.025081 -0.382550
0.326232 -0.344375 0.183800 70 194 52 0.608681 0.025020 -0.793020
0.316972 -0.429229 0.277922 70 194 52 0.606292 -0.091733 0.789934
0.339004 -0.410801 0.253682 70 194 52 0.922502 -0.052919 0.382347
0.253502 -0.359082 0.174180 70 194 52 -0.382424 0.025053 -0.923647
0.299787 -0.441008 0.285092 70 194 52 0.380979 -0.091781 0.920017
0.268594 -0.449246 0.284536 70 194 52 -0.379300 -0.130754 0.915988
0.317935 -0.384089 0.280490 70 194 52 0.608722 -0.013818 0.793263
0.252814 -0.318090 0.281313 70 194 52 -0.607625 0.063932 0.791646
0.224792 -0.311927 0.241411 70 194 52 -0.989435 0.063936 0.130117
0.286332 -0.392117 0.167051 70 194 52 0.130330 -0.052784 -0.990065
0.345070 -0.352891 0.221291 70 194 52 0.991128 0.025114 -0.130513
0.225591 -0.435470 0.237220 70 194 52 -0.987236 -0.091673 0.130235
0.226321 -0.311206 0.210631 70 194 52 -0.921930 0.063938 -0.382042
0.221638 -0.351445 0.225823 70 194 52 -0.991138 0.025114 -0.130442
0.265544 -0.409173 0.170618 70 194 52 -0.382123 -0.052768 -0.922604
0.235159 -0.464740 0.255931 70 194 52 -0.915961 -0.130789 0.379353
0.345558 -0.346200 0.226281 70 194 52 0.991128 0.025114 -0.130513
0.227206 -0.354676 0.203231 70 194 52 -0.923607 0.025100 -0.382519
0.288912 -0.411451 0.168422 70 194 52 0.130323 -0.052780 -0.990066
0.252332 -0.446558 0.277379 70 194 52 -0.603635 -0.130718 0.786472
0.321602 -0.346916 0.277567 70 194 52 0.608516 0.025028 0.793147
0.341613 -0.317019 0.211262 70 194 52 0.921995 0.063940 -0.381887
0.302222 -0.326589 0.287103 70 194 52 0.381857 0.063940 0.922007
0.264448 -0.345643 0.170013 70 194 52 -0.382423 0.025053 -0.923648
0.331819 -0.466579 0.201734 70 194 52 0.915961 -0.130789 -0.379353
0.325041 -0.313053 0.272782 70 194 52 0.607457 0.064052 0.791766
0.342205 -0.313982 0.213248 70 194 52 0.989419 0.063937 -0.130242
0.227254 -0.448529 0.239470 70 194 52 -0.982909 -0.130681 0.129664
0.239941 -0.437202 0.267984 70 194 52 -0.790121 -0.091765 0.606043
0.322218 -0.388177 0.277133 70 194 52 0.608722 -0.013818 0.793263
0.279142 -0.374142 0.166951 70 194 52 -0.130499 -0.013798 -0.991352
0.319299 -0.365517 0.177965 70 194 52 0.608813 -0.013865 -0.793193
0.339810 -0.378580 0.255033 70 194 52 0.923828 -0.013863 0.382556
0.331124 -0.379784 0.268654 70 194 52 0.793240 -0.013896 0.608751
0.231701 -0.443796 0.203026 70 194 52 -0.920004 -0.091704 -0.381028
0.276601 -0.380610 0.290360 70 194 52 -0.130499 -0.013834 0.991352
0.226615 -0.448304 0.234846 70 194 52 -0.982909 -0.130681 0.129664
0.278594 -0.335887 0.167528 70 194 52 -0.130564 0.024970 -0.991125
0.267758 -0.380433 0.168537 70 194 52 -0.130437 -0.013835 -0.991360
0.241662 -0.366440 0.182822 70 194 52 -0.608813 -0.013865 -0.793193
0.340220 -0.320611 0.250432 70 194 52 0.921912 0.063938 0.382087
0.223271 -0.351977 0.244415 70 194 52 -0.991139 0.025072 0.130442
0.340426 -0.419367 0.208873 70 194 52 0.919931 -0.091706 -0.381204
0.275445 -0.337235 0.167909 70 194 52 -0.130564 0.024970 -0.991125
0.293787 -0.442292 0.171694 70 194 52 0.129913 -0.091748 -0.987271
0.222837 -0.328164 0.234526 70 194 52 -0.989418 0.063994 0.130216
0.340003 -0.384207 0.203369 70 194 52 0.923810 -0.013865 -0.382599
0.303389 -0.460700 0.280948 70 194 52 0.379300 -0.130754 0.915988
0.310334 -0.399810 0.284085 70 194 52 0.382165 -0.052755 0.922587
0.268191 -0.441714 0.285315 70 194 52 -0.380979 -0.091781 0.920017
0.263927 -0.429683 0.284750 70 194 52 -0.380979 -0.091781 0.920017
0.237390 -0.341960 0.269832 70 194 52 -0.793139 0.025064 0.608524
0.254086 -0.448109 0.179268 70 194 52 -0.603571 -0.130731 -0.786518
0.297507 -0.416810 0.169839 70 194 52 0.130323 -0.052780 -0.990066
0.246200 -0.460701 0.187411 70 194 52 -0.603508 -0.130772 -0.786560
0.322286 -0.427931 0.273995 70 194 52 0.606231 -0.091774 0.789976
0.334395 -0.455701 0.204204 70 194 52 0.915961 -0.130789 -0.379353
0.336506 -0.372600 0.195931 70 194 52 0.793217 -0.013869 -0.608781
0.258066 -0.383655 0.172520 70 194 52 -0.382599 -0.013832 -0.923811
0.249109 -0.424419 0.277569 70 194 52 -0.606231 -0.091774 0.789976
0.327575 -0.365896 0.273413 70 194 52 0.608582 -0.013922 0.793369
0.243542 -0.321198 0.183284 70 194 52 -0.607574 0.064024 -0.791678
0.320644 -0.459309 0.186855 70 194 52 0.603508 -0.130772 -0.786560
0.232923 -0.373147 0.193130 70 194 52 -0.793199 -0.013927 -0.608804
0.224708 -0.324437 0.212307 70 194 52 -0.921930 0.063938 -0.382042
0.263036 -0.370322 0.287473 70 194 52 -0.382716 -0.013858 0.923762
0.318614 -0.359510 0.280257 70 194 52 0.608449 0.025077 0.793196
0.249938 -0.469385 0.271748 70 194 52 -0.603569 -0.130760 0.786515
0.338283 -0.323874 0.255655 70 194 52 0.921987 0.064063 0.381884
0.247079 -0.447745 0.184583 70 194 52 -0.603508 -0.130772 -0.786560
0.314286 -0.310122 0.176934 70 194 52 0.607623 0.063990 -0.791644
0.342423 -0.360235 0.249170 70 194 52 0.923607 0.025100 0.382519
0.333457 -0.418020 0.262897 70 194 52 0.790127 -0.091679 0.606048
0.306956 -0.367102 0.286393 70 194 52 0.382716 -0.013816 0.923763
0.337366 -0.427842 0.254203 70 194 52 0.920007 -0.091676 0.381029
0.344987 -0.341881 0.222783 70 194 52 0.991139 0.025072 -0.130442
0.333619 -0.352883 0.265408 70 194 52 0.793094 0.025064 0.608583
0.330057 -0.456949 0.197095 70 194 52 0.786630 -0.130776 -0.603416
0.226372 -0.450922 0.230363 70 194 52 -0.982925 -0.130820 0.129403
0.295423 -0.454878 0.173487 70 194 52 0.129342 -0.130796 -0.982936
0.257628 -0.315242 0.283242 70 194 52 -0.381926 0.063898 0.921981
0.245880 -0.438414 0.273466 70 194 52 -0.606292 -0.091733 0.789934
0.284352 -0.420730 0.168449 70 194 52 0.129913 -0.091748 -0.987271
0.329500 -0.373732 0.186827 70 194 52 0.793200 -0.013852 -0.608804
0.335462 -0.380484 0.262986 70 194 52 0.793267 -0.013869 0.608716
0.334214 -0.345722 0.193400 70 194 52 0.793026 0.025107 -0.608671
0.340685 -0.441957 0.240174 70 194 52 0.987238 -0.091839 0.130105
0.345790 -0.387671 0.227622 70 194 52 0.991360 -0.013943 -0.130423
0.245726 -0.358894 0.179743 70 194 52 -0.608681 0.025020 -0.793020
0.323615 -0.318271 0.183435 70 194 52 0.607574 0.064024 -0.791678
0.245315 -0.369681 0.277658 70 194 52 -0.608582 -0.013922 0.793369
0.260701 -0.450114 0.281143 70 194 52 -0.379309 -0.130749 0.915985
0.274379 -0.378594 0.167640 70 194 52 -0.130499 -0.013798 -0.991352
0.333885 -0.323309 0.263098 70 194 52 0.791779 0.064065 0.607439
0.299865 -0.410545 0.169926 70 194 52 0.382122 -0.052782 -0.922603
0.310174 -0.312403 0.174910 70 194 52 0.381747 0.064008 -0.922048
0.286581 -0.388351 0.290790 70 194 52 0.130499 -0.013867 0.991351
0.236168 -0.371770 0.188870 70 194 52 -0.793277 -0.013852 -0.608704
0.238940 -0.377884 0.272339 70 194 52 -0.793267 -0.013896 0.608715
0.236654 -0.318358 0.266837 70 194 52 -0.791780 0.064045 0.607440
0.222080 -0.358671 0.236659 70 194 52 -0.991128 0.025114 0.130513
0.228163 -0.328355 0.203314 70 194 52 -0.921989 0.064036 -0.381885
0.299370 -0.337261 0.288833 70 194 52 0.130417 0.025098 0.991142
0.238312 -0.435785 0.266075 70 194 52 -0.790032 -0.091677 0.606172
0.268996 -0.348806 0.168466 70 194 52 -0.130409 0.025062 -0.991143
0.242002 -0.447551 0.188814 70 194 52 -0.786632 -0.130757 -0.603418
0.227427 -0.452580 0.236695 70 194 52 -0.982909 -0.130681 0.129664
0.344645 -0.392189 0.237647 70 194 52 0.990076 -0.052713 0.130270
0.237521 -0.401465 0.269213 70 194 52 -0.792270 -0.052773 0.607884
0.300277 -0.446122 0.173414 70 194 52 0.379478 -0.130719 -0.915920
0.337939 -0.437169 0.250577 70 194 52 0.920007 -0.091676 0.381029
0.291170 -0.443650 0.171476 70 194 52 0.129913 -0.091748 -0.987271
0.301877 -0.342648 0.288032 70 194 52 0.382528 0.025087 0.923603
0.344680 -0.355463 0.217841 70 194 52 0.991128 0.025114 -0.130513
0.250231 -0.454934 0.274374 70 194 52 -0.603635 -0.130718 0.786472
0.258675 -0.376202 0.285577 70 194 52 -0.382716 -0.013858 0.923762
0.327293 -0.395726 0.272821 70 194 52 0.607932 -0.052774 0.792234
0.224471 -0.418770 0.217224 70 194 52 -0.987273 -0.091676 -0.129955
0.247699 -0.471121 0.269741 70 194 52 -0.603569 -0.130760 0.786515
0.252853 -0.441371 0.179261 70 194 52 -0.606167 -0.091763 -0.790026
0.246542 -0.409444 0.180789 70 194 52 -0.607992 -0.052750 -0.792189
0.233956 -0.444549 0.259071 70 194 52 -0.790032 -0.091677 0.606172
0.340615 -0.313256 0.209482 70 194 52 0.921924 0.064037 -0.382040
0.285063 -0.356178 0.291195 70 194 52 0.130450 0.025078 0.991138
0.333546 -0.366830 0.191942 70 194 52 0.793200 -0.013852 -0.608804
0.239659 -0.412854 0.271011 70 194 52 -0.792270 -0.052773 0.607884
0.248626 -0.344518 0.279761 70 194 52 -0.608516 0.025028 0.793147
0.256925 -0.435508 0.281269 70 194 52 -0.381042 -0.091743 0.919995
0.237966 -0.339386 0.270476 70 194 52 -0.793139 0.025064 0.608524
0.293008 -0.417320 0.169274 70 194 52 0.130323 -0.052780 -0.990066
0.346029 -0.369005 0.227445 70 194 52 0.991360 -0.013943 -0.130423
0.266845 -0.459893 0.175441 70 194 52 -0.379297 -0.130821 -0.915980
0.252619 -0.379506 0.174713 70 194 52 -0.382507 -0.013891 -0.923848
0.339291 -0.435238 0.247779 70 194 52 0.919894 -0.091825 0.381266
0.253097 -0.447909 0.179994 70 194 52 -0.603508 -0.130772 -0.786560
0.263939 -0.327917 0.170999 70 194 52 -0.381759 0.064001 -0.922043
0.289862 -0.415950 0.168787 70 194 52 0.130323 -0.052780 -0.990066
0.233632 -0.453267 0.201534 70 194 52 -0.915879 -0.130793 -0.379550
0.222817 -0.346168 0.239846 70 194 52 -0.991139 0.025072 0.130442
0.302164 -0.422985 0.171829 70 194 52 0.381041 -0.091777 -0.919992
0.222186 -0.372176 0.237139 70 194 52 -0.991346 -0.013881 0.130542
0.318255 -0.322605 0.178971 70 194 52 0.607623 0.063990 -0.791644
0.228076 -0.363058 0.200647 70 194 52 -0.923809 -0.013865 -0.382603
0.227083 -0.448360 0.219395 70 194 52 -0.982891 -0.130816 -0.129662
0.320078 -0.437562 0.183163 70 194 52 0.606167 -0.091763 -0.790026
0.226584 -0.324848 0.207713 70 194 52 -0.921930 0.063938 -0.382042
0.249101 -0.312165 0.277986 70 194 52 -0.607625 0.063932 0.791646
0.253958 -0.397301 0.282995 70 194 52 -0.382209 -0.052714 0.922571
0.342786 -0.404866 0.245372 70 194 52 0.922632 -0.052735 0.382060
0.286005 -0.448805 0.171440 70 194 52 0.129342 -0.130796 -0.982936
0.222216 -0.339816 0.234058 70 194 52 -0.991139 0.025072 0.130442
0.343561 -0.314221 0.223436 70 194 52 0.989419 0.063937 -0.130242
0.312495 -0.456055 0.180060 70 194 52 0.603571 -0.130731 -0.786518
0.260798 -0.421692 0.173484 70 194 52 -0.381041 -0.091777 -0.919992
0.257747 -0.342148 0.172882 70 194 52 -0.382423 0.025053 -0.923648
0.280123 -0.365756 0.166705 70 194 52 -0.130437 -0.013835 -0.991360
0.241518 -0.412455 0.184845 70 194 52 -0.607959 -0.052774 -0.792213
0.263137 -0.391182 0.287148 70 194 52 -0.382209 -0.052714 0.922571
0.322057 -0.375582 0.277476 70 194 52 0.608582 -0.013922 0.793369
0.344781 -0.381865 0.219345 70 194 52 0.991360 -0.013943 -0.130423
0.323865 -0.459336 0.189539 70 194 52 0.786610 -0.130758 -0.603446
0.223112 -0.326234 0.235668 70 194 52 -0.989418 0.063994 0.130216
0.228260 -0.342658 0.256261 70 194 52 -0.923594 0.025100 0.382550
0.222555 -0.404214 0.232259 70 194 52 -0.990072 -0.052676 0.130316
0.337836 -0.446462 0.248409 70 194 52 0.915975 -0.130679 0.379359
0.340325 -0.437906 0.244642 70 194 52 0.919894 -0.091825 0.381266
0.320685 -0.377029 0.179230 70 194 52 0.608838 -0.013847 -0.793174
0.262870 -0.370502 0.170334 70 194 52 -0.382507 -0.013891 -0.923848
0.259874 -0.431781 0.282862 70 194 52 -0.381042 -0.091743 0.919995
0.317559 -0.318506 0.278965 70 194 52 0.607625 0.063932 0.791646
0.225064 -0.426162 0.239795 70 194 52 -0.987259 -0.091837 0.129945
0.299846 -0.359516 0.289331 70 194 52 0.382528 0.025087 0.923603
0.231237 -0.376166 0.195396 70 194 52 -0.793199 -0.013927 -0.608804
0.281429 -0.379976 0.166731 70 194 52 -0.130499 -0.013798 -0.991352
0.236568 -0.418744 0.266381 70 194 52 -0.790121 -0.091765 0.606043
0.266058 -0.334633 0.288079 70 194 52 -0.381866 0.063935 0.922004
0.343787 -0.323866 0.237312 70 194 52 0.989422 0.063937 0.130216
0.295183 -0.382937 0.168002 70 194 52 0.130499 -0.013798 -0.991352
0.264450 -0.351670 0.287887 70 194 52 -0.382528 0.025087 0.923603
0.331404 -0.353018 0.189437 70 194 52 0.793026 0.025107 -0.608671
0.318663 -0.323329 0.278507 70 194 52 0.607625 0.063932 0.791646
0.225718 -0.343629 0.207546 70 194 52 -0.923594 0.025081 -0.382550
0.229631 -0.341076 0.259467 70 194 52 -0.923594 0.025100 0.382550
0.344340 -0.362309 0.243798 70 194 52 0.991130 0.025072 0.130513
0.316751 -0.378677 0.281492 70 194 52 0.608722 -0.013818 0.793263
0.319508 -0.441756 0.274521 70 194 52 0.606292 -0.091733 0.789934
0.237261 -0.466616 0.199126 70 194 52 -0.786608 -0.130776 -0.603444
0.342734 -0.341072 0.210570 70 194 52 0.923607 0.025081 -0.382519
0.325500 -0.385992 0.274652 70 194 52 0.608722 -0.013818 0.793263
0.226076 -0.378490 0.251698 70 194 52 -0.923784 -0.013893 0.382661
0.302881 -0.461820 0.280999 70 194 52 0.379300 -0.130754 0.915988
0.332268 -0.438194 0.196338 70 194 52 0.790078 -0.091722 -0.606106
0.242867 -0.362681 0.181832 70 194 52 -0.608813 -0.013865 -0.793193
0.299291 -0.342040 0.288965 70 194 52 0.130417 0.025098 0.991142
0.222145 -0.375496 0.236474 70 194 52 -0.991366 -0.013979 0.130378
0.226402 -0.411603 0.208659 70 194 52 -0.922534 -0.052823 -0.382283
0.342160 -0.345966 0.248869 70 194 52 0.923594 0.025081 0.382550
0.289625 -0.459545 0.173345 70 194 52 0.129432 -0.130748 -0.982930
0.257400 -0.366990 0.285187 70 194 52 -0.382716 -0.013858 0.923762
0.331676 -0.460459 0.199966 70 194 52 0.786630 -0.130776 -0.603416
0.323872 -0.341042 0.182094 70 194 52 0.608632 0.025056 -0.793057
0.230138 -0.271461 0.245045 67 241 127 -0.914539 0.141986 0.378760
0.266199 -0.237659 0.181817 67 241 127 -0.376367 0.181020 -0.908614
0.237208 -0.225518 0.241883 67 241 127 -0.901219 0.220087 0.373317
0.315110 -0.308295 0.177715 67 241 127 0.607623 0.063990 -0.791644
0.299226 -0.175990 0.196708 67 241 127 0.369351 0.259303 -0.892380
0.269474 -0.304890 0.170797 67 241 127 -0.129977 0.102946 -0.986158
0.340450 -0.288327 0.239441 67 241 127 0.986181 0.102934 0.129816
0.324417 -0.292547 0.270865 67 241 127 0.605638 0.102921 0.789057
0.277226 -0.184522 0.191417 67 241 127 -0.126021 0.259328 -0.957532
0.229711 -0.265476 0.218953 67 241 127 -0.981408 0.141934 -0.129204
0.282405 -0.166317 0.195999 67 241 127 -0.124257 0.298441 -0.946305
0.248847 -0.173560 0.232877 67 241 127 -0.946283 0.298434 0.124443
0.257223 -0.222587 0.189624 67 241 127 -0.593802 0.220095 -0.773924
0.269814 -0.224646 0.274746 67 241 127 -0.373178 0.220038 0.901289
0.251981 -0.222606 0.193642 67 241 127 -0.593802 0.220095 -0.773924
0.227925 -0.304688 0.249596 67 241 127 -0.918892 0.102964 0.380836
0.335656 -0.248551 0.224506 67 241 127 0.975048 0.181070 -0.128437
0.239748 -0.229732 0.250128 67 241 127 -0.908610 0.181017 0.376379
0.276137 -0.273429 0.173475 67 241 127 -0.129244 0.141967 -0.981398
0.306687 -0.151973 0.212485 67 241 127 0.757191 0.298431 -0.581035
0.249513 -0.257833 0.187410 67 241 127 -0.602642 0.141939 -0.785287
0.330635 -0.226137 0.239705 67 241 127 0.967157 0.220046 0.127227
0.315589 -0.252481 0.186747 67 241 127 0.598751 0.180995 -0.780216
0.246134 -0.264200 0.268881 67 241 127 -0.602550 0.141971 0.785352
0.272255 -0.213610 0.184788 67 241 127 -0.127359 0.220050 -0.967139
0.255109 -0.293868 0.280136 67 241 127 -0.380671 0.103033 0.918953
0.251227 -0.168237 0.219963 67 241 127 -0.881708 0.298472 -0.365384
0.336606 -0.287464 0.251551 67 241 127 0.918968 0.102933 0.380661
0.316998 -0.206215 0.200861 67 241 127 0.773884 0.220077 -0.593860
0.343408 -0.304610 0.229882 67 241 127 0.986190 0.103007 0.129685
0.333062 -0.250708 0.210896 67 241 127 0.908622 0.180982 -0.376366
0.272965 -0.279865 0.172962 67 241 127 -0.129244 0.141967 -0.981398
0.259853 -0.295713 0.175426 67 241 127 -0.380566 0.102964 -0.919004
0.310716 -0.282382 0.178287 67 241 127 0.380572 0.102920 -0.919006
0.335770 -0.249902 0.234262 67 241 127 0.975061 0.180983 0.128457
0.269222 -0.278959 0.284148 67 241 127 -0.129244 0.141967 0.981398
0.328582 -0.235704 0.207296 67 241 127 0.908587 0.181018 -0.376433
0.235231 -0.237820 0.214621 67 241 127 -0.908593 0.180980 -0.376436
0.242524 -0.273093 0.190699 67 241 127 -0.785338 0.142025 -0.602555
0.251368 -0.204023 0.257490 67 241 127 -0.773892 0.220035 0.593866
0.276430 -0.235845 0.179579 67 241 127 -0.128402 0.181000 -0.975065
0.235775 -0.225904 0.232778 67 241 127 -0.967107 0.220183 0.127375
0.238241 -0.293540 0.192342 67 241 127 -0.789153 0.102869 -0.605521
0.235639 -0.289027 0.261235 67 241 127 -0.789204 0.102821 0.605463
0.322195 -0.256475 0.191292 67 241 127 0.785324 0.141918 -0.602599
0.267471 -0.238438 0.181135 67 241 127 -0.376367 0.181020 -0.908614
0.304557 -0.159063 0.206504 67 241 127 0.581231 0.298440 -0.757036
0.238581 -0.292742 0.265701 67 241 127 -0.789094 0.102914 0.605590
0.242540 -0.260190 0.193721 67 241 127 -0.785413 0.141916 -0.602483
0.266593 -0.262080 0.177185 67 241 127 -0.378629 0.142000 -0.914591
0.321845 -0.294885 0.273143 67 241 127 0.605638 0.102921 0.789057
0.243074 -0.196048 0.222374 67 241 127 -0.957580 0.259233 -0.125853
0.250228 -0.234373 0.265671 67 241 127 -0.598745 0.181052 0.780208
0.243963 -0.307432 0.184075 67 241 127 -0.605641 0.102864 -0.789061
0.341790 -0.296902 0.221681 67 241 127 0.986173 0.103005 -0.129815
0.255743 -0.204467 0.195913 67 241 127 -0.593743 0.220124 -0.773961
0.304518 -0.241918 0.182396 67 241 127 0.376348 0.181030 -0.908620
0.327780 -0.212708 0.238184 67 241 127 0.967157 0.220046 0.127227
0.285880 -0.297729 0.169974 67 241 127 0.130010 0.103002 -0.986148
0.316460 -0.166427 0.230684 67 241 127 0.946262 0.298428 0.124617
0.230327 -0.305117 0.202225 67 241 127 -0.918920 0.102868 -0.380795
0.306506 -0.148266 0.234223 67 241 127 0.000000 1.000000 0.000000
0.240038 -0.298141 0.268516 67 241 127 -0.789094 0.102914 0.605590
0.305983 -0.270195 0.279611 67 241 127 0.378846 0.141881 0.914519
0.242075 -0.267451 0.265119 67 241 127 -0.785408 0.141959 0.602479
0.308745 -0.247128 0.183109 67 241 127 0.376348 0.181030 -0.908620
0.243385 -0.270868 0.190101 67 241 127 -0.785338 0.142025 -0.602555
0.333578 -0.284742 0.199767 67 241 127 0.789151 0.102886 -0.605520
0.311748 -0.296498 0.280601 67 241 127 0.380604 0.103032 0.918981
0.275302 -0.271127 0.283816 67 241 127 -0.129244 0.141967 0.981398
0.293697 -0.148266 0.246629 67 241 127 0.000000 1.000000 0.000000
0.301226 -0.236971 0.275715 67 241 127 0.376170 0.181150 0.908670
0.313547 -0.162051 0.238741 67 241 127 0.881613 0.298462 0.365622
0.224489 -0.297774 0.229224 67 241 127 -0.986197 0.102935 0.129691
0.230761 -0.261694 0.215131 67 241 127 -0.981408 0.141934 -0.129204
0.338436 -0.266867 0.233645 67 241 127 0.981408 0.141934 0.129204
0.277996 -0.202820 0.186488 67 241 127 -0.127286 0.220081 -0.967142
0.231526 -0.246060 0.228679 67 241 127 -0.975065 0.181000 -0.128402
0.228808 -0.287581 0.247103 67 241 127 -0.918892 0.102964 0.380836
0.296851 -0.148266 0.234776 67 241 127 0.000000 1.000000 0.000000
0.235380 -0.289852 0.196697 67 241 127 -0.789170 0.102886 -0.605496
0.258501 -0.156224 0.244719 67 241 127 -0.757096 0.298508 0.581118
0.282672 -0.221922 0.181525 67 241 127 -0.127286 0.220081 -0.967142
0.331894 -0.297008 0.195488 67 241 127 0.789151 0.102886 -0.605520
0.263748 -0.299443 0.173396 67 241 127 -0.380566 0.102964 -0.919004
0.247289 -0.202302 0.206196 67 241 127 -0.773888 0.220058 -0.593862
0.249467 -0.209324 0.200756 67 241 127 -0.773910 0.220076 -0.593827
0.329874 -0.221486 0.220292 67 241 127 0.967144 0.220118 -0.127205
0.321046 -0.227133 0.259291 67 241 127 0.780197 0.181017 0.598770
0.256841 -0.214212 0.192299 67 241 127 -0.593743 0.220124 -0.773961
0.225472 -0.307077 0.213651 67 241 127 -0.986194 0.102968 -0.129691
0.264027 -0.206240 0.189880 67 241 127 -0.373301 0.220140 -0.901213
0.243594 -0.241893 0.260330 67 241 127 -0.780247 0.181019 0.598704
0.310503 -0.149963 0.221523 67 241 127 0.881729 0.298474 -0.365331
0.273101 -0.155914 0.201306 67 241 127 -0.365542 0.298335 -0.881689
0.246270 -0.244714 0.264672 67 241 127 -0.780191 0.181059 0.598765
0.337026 -0.259203 0.221798 67 241 127 0.981423 0.141829 -0.129206
0.320532 -0.243178 0.192920 67 241 127 0.780255 0.181013 -0.598695
0.263771 -0.148266 0.239960 67 241 127 0.000000 1.000000 0.000000
0.255984 -0.252047 0.274189 67 241 127 -0.598745 0.181052 0.780208
0.258105 -0.154077 0.242802 67 241 127 -0.881594 0.298526 0.365614
0.334111 -0.262360 0.248923 67 241 127 0.914450 0.142030 0.378957
0.251468 -0.286769 0.181012 67 241 127 -0.605480 0.102972 -0.789171
0.300614 -0.294331 0.172765 67 241 127 0.380572 0.102920 -0.919006
0.338508 -0.275901 0.214698 67 241 127 0.981391 0.142050 -0.129202
0.242239 -0.266993 0.192509 67 241 127 -0.785338 0.142025 -0.602555
0.311941 -0.164104 0.213442 67 241 127 0.881703 0.298491 -0.365382
0.240850 -0.210322 0.241715 67 241 127 -0.901219 0.220087 0.373317
0.280832 -0.151836 0.256960 67 241 127 -0.124782 0.298455 0.946231
0.266661 -0.222699 0.272965 67 241 127 -0.373178 0.220038 0.901289
0.302201 -0.214205 0.187503 67 241 127 0.373247 0.220138 -0.901236
0.328254 -0.284320 0.264835 67 241 127 0.789102 0.102818 0.605596
0.278427 -0.207142 0.185447 67 241 127 -0.127286 0.220081 -0.967142
0.246428 -0.295981 0.183676 67 241 127 -0.605641 0.102864 -0.789061
0.266316 -0.194744 0.191976 67 241 127 -0.369810 0.259155 -0.892233
0.228841 -0.274569 0.215561 67 241 127 -0.981410 0.141996 -0.129122
0.338647 -0.283871 0.245653 67 241 127 0.918968 0.102933 0.380661
0.276210 -0.148266 0.214787 67 241 127 0.000000 1.000000 0.000000
0.251814 -0.209513 0.197629 67 241 127 -0.773910 0.220076 -0.593827
0.267987 -0.149895 0.206068 67 241 127 -0.580823 0.298522 -0.757317
0.290453 -0.148266 0.254954 67 241 127 0.000000 1.000000 0.000000
0.245427 -0.197830 0.245176 67 241 127 -0.892327 0.259200 0.369551
0.245608 -0.298267 0.184008 67 241 127 -0.605641 0.102864 -0.789061
0.252825 -0.204707 0.259642 67 241 127 -0.773892 0.220035 0.593866
0.279966 -0.148266 0.205332 67 241 127 0.000000 1.000000 0.000000
0.310782 -0.237495 0.271199 67 241 127 0.598768 0.181039 0.780194
0.232540 -0.247380 0.219120 67 241 127 -0.975063 0.180983 -0.128439
0.244300 -0.207361 0.248300 67 241 127 -0.901255 0.220054 0.373249
0.338641 -0.292489 0.209738 67 241 127 0.918914 0.102931 -0.380792
0.288021 -0.176150 0.264319 67 241 127 0.125944 0.259145 0.957592
0.253756 -0.226876 0.266639 67 241 127 -0.598768 0.181039 0.780194
0.321933 -0.202897 0.209563 67 241 127 0.901198 0.220058 -0.373386
0.311025 -0.160475 0.214195 67 241 127 0.881703 0.298491 -0.365382
0.336117 -0.302534 0.200932 67 241 127 0.918965 0.102866 -0.380687
0.311434 -0.197387 0.197990 67 241 127 0.587854 0.259297 -0.766285
0.239441 -0.274188 0.194460 67 241 127 -0.785338 0.142025 -0.602555
0.304027 -0.209541 0.189399 67 241 127 0.373247 0.220138 -0.901236
0.289300 -0.165312 0.260835 67 241 127 0.124455 0.298468 0.946271
0.248746 -0.267033 0.271397 67 241 127 -0.602654 0.141877 0.785289
0.329469 -0.239714 0.207509 67 241 127 0.908587 0.181018 -0.376433
0.237238 -0.256284 0.256184 67 241 127 -0.785440 0.141680 0.602504
0.272819 -0.291864 0.171716 67 241 127 -0.129977 0.102946 -0.986158
0.245669 -0.248346 0.192749 67 241 127 -0.780248 0.181014 -0.598705
0.290190 -0.281627 0.172224 67 241 127 0.129882 0.102930 -0.986172
0.329511 -0.304355 0.266600 67 241 127 0.789196 0.102911 0.605458
0.282255 -0.251914 0.175829 67 241 127 -0.128317 0.181041 -0.975069
0.313925 -0.227741 0.266524 67 241 127 0.598768 0.181039 0.780194
0.238197 -0.306754 0.267580 67 241 127 -0.789204 0.102821 0.605463
0.260416 -0.180214 0.200286 67 241 127 -0.588177 0.259159 -0.766084
0.275056 -0.616459 -0.290720 82 137 141 -0.130543 0.000000 -0.991443
0.312610 -0.634043 -0.283268 82 137 141 0.608708 0.000000 -0.793394
0.233016 -0.612717 -0.217732 82 137 141 -0.923846 0.000000 0.382764
0.329095 -0.621169 -0.266974 82 137 141 0.793496 0.000000 -0.608576
0.229461 -0.606298 -0.240983 82 137 141 -0.991445 0.000000 -0.130525
0.292189 -0.601121 -0.290724 82 137 141 0.130552 0.000000 -0.991441
0.292394 -0.621514 -0.290697 82 137 141 0.130552 0.000000 -0.991441
0.230415 -0.605970 -0.226124 82 137 141 -0.991443 0.000000 0.130543
0.315457 -0.617172 -0.193267 82 137 141 0.608796 0.000000 0.793327
0.242498 -0.616932 -0.272611 82 137 141 -0.793496 0.000000 -0.608576
0.337714 -0.614794 -0.232654 82 137 141 0.991443 0.000000 0.130543
0.234814 -0.603678 -0.260958 82 137 141 -0.923815 0.000000 -0.382839
0.327866 -0.616753 -0.205775 82 137 141 0.793418 0.000000 0.608677
0.273434 -0.613153 -0.290507 82 137 141 -0.130543 0.000000 -0.991443
0.336758 -0.614916 -0.248954 82 137 141 0.991445 0.000000 -0.130525
0.333486 -0.627278 -0.258470 82 137 141 0.923815 0.000000 -0.382839
0.336776 -0.620358 -0.225535 82 137 141 0.991443 0.000000 0.130543
0.232119 -0.620429 -0.219897 82 137 141 -0.923846 0.000000 0.382764
0.338126 -0.598658 -0.238566 82 137 141 0.991445 0.000000 -0.130525
0.229776 -0.623564 -0.230976 82 137 141 -0.991443 0.000000 0.130543
0.290504 -0.631054 -0.183405 82 137 141 0.130552 0.000000 0.991441
0.237834 -0.599042 -0.266531 82 137 141 -0.793496 0.000000 -0.608576
0.323736 -0.600575 -0.200392 82 137 141 0.793418 0.000000 0.608677
0.294355 -0.605793 -0.183912 82 137 141 0.130552 0.000000 0.991441
0.313193 -0.598544 -0.282821 82 137 141 0.608708 0.000000 -0.793394
0.240016 -0.627616 -0.204976 82 137 141 -0.793418 0.000000 0.608677
0.230150 -0.615400 -0.246215 82 137 141 -0.991445 0.000000 -0.130525
0.279013 -0.607914 -0.183109 82 137 141 -0.130543 0.000000 0.991443
0.336705 -0.620202 -0.249356 82 137 141 0.991445 0.000000 -0.130525
0.296386 -0.603912 -0.290171 82 137 141 0.130552 0.000000 -0.991441
0.333532 -0.606410 -0.215992 82 137 141 0.923846 0.000000 0.382764
0.253831 -0.602476 -0.282633 82 137 141 -0.608708 0.000000 -0.793394
0.266016 -0.595654 -0.288550 82 137 141 -0.382585 0.000000 -0.923920
0.230573 -0.628784 -0.224928 82 137 141 -0.991443 0.000000 0.130543
0.336521 -0.599600 -0.250759 82 137 141 0.991445 0.000000 -0.130525
0.322168 -0.633137 -0.198417 82 137 141 0.608796 0.000000 0.793327
0.231139 -0.599899 -0.252089 82 137 141 -0.923815 0.000000 -0.382839
0.332153 -0.617597 -0.261687 82 137 141 0.923815 0.000000 -0.382839
0.255715 -0.610040 -0.190272 82 137 141 -0.608796 0.000000 0.793327
0.271250 -0.602241 -0.290219 82 137 141 -0.130543 0.000000 -0.991443
0.335777 -0.618566 -0.221411 82 137 141 0.923846 0.000000 0.382764
0.241043 -0.604372 -0.203637 82 137 141 -0.793418 0.000000 0.608677
0.235931 -0.614713 0.255345 175 126 115 -0.923815 0.000000 0.382839
0.311089 -0.604228 0.276127 175 126 115 0.608796 0.000000 0.793327
0.230575 -0.617975 0.241137 175 126 115 -0.991445 0.000000 0.130525
0.331029 -0.593752 0.201643 175 126 115 0.923815 0.000000 -0.382839
0.241725 -0.629048 0.194441 175 126 115 -0.793444 0.000000 -0.608643
0.333804 -0.604654 0.208339 175 126 115 0.923815 0.000000 -0.382839
0.291511 -0.607678 0.282504 175 126 115 0.130621 0.000000 0.991432
0.319792 -0.610168 0.188286 175 126 115 0.608796 0.000000 -0.793327
0.283485 -0.607477 0.283522 175 126 115 -0.130612 0.000000 0.991434
0.328625 -0.629107 0.259277 175 126 115 0.793444 0.000000 0.608643
0.232642 -0.615669 0.247408 175 126 115 -0.923815 0.000000 0.382839
0.328619 -0.632845 0.198449 175 126 115 0.793444 0.000000 -0.608643
0.309000 -0.631264 0.180701 175 126 115 0.382585 0.000000 -0.923920
0.280297 -0.605975 0.283102 175 126 115 -0.130612 0.000000 0.991434
0.229678 -0.616697 0.223416 175 126 115 -0.991445 0.000000 -0.130525
0.336492 -0.627055 0.215063 175 126 115 0.991445 0.000000 -0.130525
0.334484 -0.634253 0.209980 175 126 115 0.923815 0.000000 -0.382839
0.331580 -0.629067 0.202973 175 126 115 0.923815 0.000000 -0.382839
0.230631 -0.609280 0.216178 175 126 115 -0.991445 0.000000 -0.130525
0.241762 -0.626775 0.263343 175 126 115 -0.793444 0.000000 0.608643
0.326252 -0.595241 0.195364 175 126 115 0.793444 0.000000 -0.608643
0.298301 -0.633681 0.281464 175 126 115 0.382585 0.000000 0.923920
0.319555 -0.634136 0.188104 175 126 115 0.608796 0.000000 -0.793327
0.261777 -0.604748 0.278486 175 126 115 -0.382585 0.000000 0.923920
0.242427 -0.634208 0.264210 175 126 115 -0.793444 0.000000 0.608643
0.310132 -0.606876 0.181169 175 126 115 0.382585 0.000000 -0.923920
0.249446 -0.598604 0.270960 175 126 115 -0.608796 0.000000 0.793327
0.331427 -0.625662 0.255129 175 126 115 0.923815 0.000000 0.382839
0.243378 -0.598058 0.192286 175 126 115 -0.793444 0.000000 -0.608643
0.247854 -0.633961 0.187995 175 126 115 -0.608796 0.000000 -0.793327
0.333751 -0.592388 0.208212 175 126 115 0.923815 0.000000 -0.382839
0.299381 -0.599653 0.281017 175 126 115 0.382585 0.000000 0.923920
0.307072 -0.598811 0.277832 175 126 115 0.382585 0.000000 0.923920
0.337743 -0.632858 0.233163 175 126 115 0.991445 0.000000 0.130525
0.263555 -0.604846 0.279222 175 126 115 -0.382585 0.000000 0.923920
0.248712 -0.633542 0.187337 175 126 115 -0.608796 0.000000 -0.793327
0.232349 -0.603551 0.211034 175 126 115 -0.923815 0.000000 -0.382839
0.229778 -0.600514 0.235081 175 126 115 -0.991445 0.000000 0.130525
0.229166 -0.605642 0.230431 175 126 115 -0.991445 0.000000 0.130525
0.230176 -0.632774 0.238103 175 126 115 -0.991445 0.000000 0.130525
0.241985 -0.832680 -0.234663 165 130 40 -0.991426 0.000000 0.130669
0.241715 -0.934917 -0.236711 165 130 40 -0.991426 0.000000 0.130669
0.325568 -0.890376 -0.237531 165 130 40 0.991426 0.000000 -0.130669
0.263072 -0.827162 -0.273706 165 130 40 -0.382626 0.000000 -0.923903
0.253928 -0.826960 -0.207519 165 130 40 -0.793481 0.000000 0.608594
0.289398 -0.839028 -0.195955 165 130 40 0.130705 0.000000 0.991421
0.322231 -0.819750 -0.252754 165 130 40 0.923863 0.000000 -0.382723
0.270955 -0.907810 -0.197379 165 130 40 -0.382470 0.000000 0.923968
0.262799 -0.916321 -0.200755 165 130 40 -0.382470 0.000000 0.923968
0.320155 -0.862395 -0.257762 165 130 40 0.923863 0.000000 -0.382723
0.269217 -0.961584 -0.198098 165 130 40 -0.382470 0.000000 0.923968
0.247794 -0.893981 -0.215516 165 130 40 -0.793481 0.000000 0.608594
0.268193 -0.924999 -0.198522 165 130 40 -0.382470 0.000000 0.923968
0.242827 -0.858505 -0.246073 165 130 40 -0.991426 0.000000 -0.130669
0.296000 -0.855670 -0.277100 165 130 40 0.382626 0.000000 -0.923903
0.288266 -0.835788 -0.195806 165 130 40 0.130705 0.000000 0.991421
0.324347 -0.856779 -0.246793 165 130 40 0.991426 0.000000 -0.130669
0.263453 -0.927846 -0.200484 165 130 40 -0.382470 0.000000 0.923968
0.243300 -0.882009 -0.248558 165 130 40 -0.923863 0.000000 -0.382723
0.253356 -0.857076 -0.266084 165 130 40 -0.793380 0.000000 -0.608727
0.287640 -0.866292 -0.195723 165 130 40 0.130705 0.000000 0.991421
0.324855 -0.831750 -0.231405 165 130 40 0.991426 0.000000 0.130669
0.242543 -0.887253 -0.230426 165 130 40 -0.991426 0.000000 0.130669
0.315459 -0.904780 -0.210280 165 130 40 0.793481 0.000000 0.608594
0.242284 -0.863961 -0.241954 165 130 40 -0.991426 0.000000 -0.130669
0.266605 -0.833126 -0.199179 165 130 40 -0.382470 0.000000 0.923968
0.242749 -0.872917 -0.228871 165 130 40 -0.991426 0.000000 0.130669
0.245493 -0.829171 -0.253851 165 130 40 -0.923863 0.000000 -0.382723
0.241984 -0.938179 -0.239679 165 130 40 -0.991426 0.000000 -0.130669
0.242117 -0.939699 -0.233660 165 130 40 -0.991426 0.000000 0.130669
0.309668 -0.877015 -0.204689 165 130 40 0.608753 0.000000 0.793360
0.319709 -0.961990 -0.215823 165 130 40 0.793481 0.000000 0.608594
0.315096 -0.922397 -0.209807 165 130 40 0.793481 0.000000 0.608594
0.301028 -0.951789 -0.275019 165 130 40 0.382626 0.000000 -0.923903
0.302755 -0.846403 -0.200045 165 130 40 0.382470 0.000000 0.923968
0.244542 -0.831219 -0.222796 165 130 40 -0.923863 0.000000 0.382723
0.314314 -0.887665 -0.208787 165 130 40 0.793481 0.000000 0.608594
0.244100 -0.833434 -0.250490 165 130 40 -0.923863 0.000000 -0.382723
0.270399 -0.905636 -0.276741 165 130 40 -0.382626 0.000000 -0.923903
0.252228 -0.828246 -0.264614 165 130 40 -0.793380 0.000000 -0.608727
0.295353 -0.903950 -0.277369 165 130 40 0.382626 0.000000 -0.923903
0.299796 -0.872872 -0.198820 165 130 40 0.382470 0.000000 0.923968
0.304895 -0.860790 -0.273322 165 130 40 0.608753 0.000000 -0.793360
0.296712 -0.893458 -0.197544 165 130 40 0.382470 0.000000 0.923968
0.289148 -0.868084 -0.278428 165 130 40 0.130705 0.000000 -0.991421
0.287298 -0.955558 -0.278672 165 130 40 0.130705 0.000000 -0.991421
0.264254 -0.847965 -0.200153 165 130 40 -0.382470 0.000000 0.923968
0.325490 -0.834300 -0.238124 165 130 40 0.991426 0.000000 -0.130669
0.322120 -0.848992 -0.253022 165 130 40 0.923863 0.000000 -0.382723
0.290440 -0.863589 -0.278258 165 130 40 0.130705 0.000000 -0.991421
0.307681 -0.870713 -0.271184 165 130 40 0.608753 0.000000 -0.793360
0.255500 -0.863514 -0.206301 165 130 40 -0.608753 0.000000 0.793360
0.253588 -0.840522 -0.207962 165 130 40 -0.793481 0.000000 0.608594
0.261843 -0.907111 -0.201434 165 130 40 -0.608753 0.000000 0.793360
0.309841 -0.891809 -0.269527 165 130 40 0.608753 0.000000 -0.793360
0.242218 -0.900422 -0.241454 165 130 40 -0.991426 0.000000 -0.130669
0.291216 -0.951165 -0.196194 165 130 40 0.130705 0.000000 0.991421
0.252691 -0.883816 -0.265218 165 130 40 -0.793380 0.000000 -0.608727
0.322647 -0.836976 -0.222601 165 130 40 0.923863 0.000000 0.382723
0.310971 -0.837778 -0.268660 165 130 40 0.608753 0.000000 -0.793360
0.311214 -0.847939 -0.205875 165 130 40 0.608753 0.000000 0.793360
0.244704 -0.912496 -0.251946 165 130 40 -0.923863 0.000000 -0.382723
0.269273 -0.945333 -0.276274 165 130 40 -0.382626 0.000000 -0.923903
0.242128 -0.958939 -0.240769 165 130 40 -0.991426 0.000000 -0.130669
0.243805 -0.869100 -0.249776 165 130 40 -0.923863 0.000000 -0.382723
0.292873 -0.829337 -0.196413 165 130 40 0.130705 0.000000 0.991421
0.318787 -0.957176 -0.259731 165 130 40 0.793380 0.000000 -0.608727
0.303693 -0.898412 -0.200433 165 130 40 0.382470 0.000000 0.923968
0.325050 -0.937942 -0.241467 165 130 40 0.991426 0.000000 -0.130669
0.247859 -0.861004 -0.215431 165 130 40 -0.793481 0.000000 0.608594
0.322049 -0.894204 -0.253192 165 130 40 0.923863 0.000000 -0.382723
0.320153 -0.923956 -0.257767 165 130 40 0.923863 0.000000 -0.382723
0.242982 -0.851724 -0.227100 165 130 40 -0.991426 0.000000 0.130669
0.249063 -0.869792 -0.213860 165 130 40 -0.793481 0.000000 0.608594
0.317259 -0.907478 -0.212626 165 130 40 0.793481 0.000000 0.608594
0.324952 -0.823485 -0.242209 165 130 40 0.991426 0.000000 -0.130669
0.325308 -0.840953 -0.239503 165 130 40 0.991426 0.000000 -0.130669
0.242472 -0.820256 -0.243380 165 130 40 -0.991426 0.000000 -0.130669
0.242163 -0.871220 -0.241040 165 130 40 -0.991426 0.000000 -0.130669
0.267706 -0.842022 -0.198724 165 130 40 -0.382470 0.000000 0.923968
0.257570 -0.829402 -0.269636 165 130 40 -0.608753 0.000000 -0.793360
0.249716 -0.918352 -0.261341 165 130 40 -0.793380 0.000000 -0.608727
0.325248 -0.958353 -0.234391 165 130 40 0.991426 0.000000 0.130669
0.313821 -0.835509 -0.266203 165 130 40 0.793380 0.000000 -0.608727
0.300954 -0.865586 -0.275049 165 130 40 0.382626 0.000000 -0.923903
0.242009 -0.946568 -0.234479 165 130 40 -0.991426 0.000000 0.130669
0.305352 -0.922657 -0.201377 165 130 40 0.608753 0.000000 0.793360
0.289318 -0.892726 -0.278406 165 130 40 0.130705 0.000000 -0.991421
0.325230 -0.818593 -0.240099 165 130 40 0.991426 0.000000 -0.130669
0.262016 -0.889842 -0.273047 165 130 40 -0.608753 0.000000 -0.793360
0.309533 -0.933003 -0.204585 165 130 40 0.608753 0.000000 0.793360
0.278217 -0.927666 -0.278441 165 130 40 -0.130693 0.000000 -0.991423
0.282030 -0.850400 -0.278943 165 130 40 -0.130693 0.000000 -0.991423
0.295659 -0.884472 -0.197108 165 130 40 0.382470 0.000000 0.923968
0.286385 -0.865172 -0.278792 165 130 40 0.130705 0.000000 -0.991421
0.282846 -0.839437 -0.279051 165 130 40 -0.130693 0.000000 -0.991423
0.268304 -0.911266 -0.198476 165 130 40 -0.382470 0.000000 0.923968
0.282736 -0.881550 -0.279037 165 130 40 -0.130693 0.000000 -0.991423
0.320204 -0.962695 -0.257645 165 130 40 0.923863 0.000000 -0.382723
0.308103 -0.957808 -0.203487 165 130 40 0.608753 0.000000 0.793360
0.242623 -0.885499 -0.244525 165 130 40 -0.991426 0.000000 -0.130669
0.285329 -0.826276 -0.278932 165 130 40 0.130705 0.000000 -0.991421
0.254319 -0.852397 -0.267141 165 130 40 -0.608753 0.000000 -0.793360
0.299642 -0.925403 -0.275593 165 130 40 0.382626 0.000000 -0.923903
0.303354 -0.859497 -0.200293 165 130 40 0.382470 0.000000 0.923968
0.252095 -0.896941 -0.264440 165 130 40 -0.793380 0.000000 -0.608727
0.263710 -0.839755 -0.200378 165 130 40 -0.382470 0.000000 0.923968
0.246017 -0.843564 -0.255115 165 130 40 -0.923863 0.000000 -0.382723
0.324621 -0.928190 -0.244717 165 130 40 0.991426 0.000000 -0.130669
0.325133 -0.890593 -0.240835 165 130 40 0.991426 0.000000 -0.130669
0.286566 -0.826946 -0.195581 165 130 40 0.130705 0.000000 0.991421
0.298112 -0.817532 -0.198123 165 130 40 0.382470 0.000000 0.923968
0.243017 -0.917750 -0.247516 165 130 40 -0.991426 0.000000 -0.130669
0.246741 -0.865835 -0.217486 165 130 40 -0.923863 0.000000 0.382723
0.325274 -0.821095 -0.239765 165 130 40 0.991426 0.000000 -0.130669
0.241723 -0.817219 -0.236653 165 130 40 -0.991426 0.000000 0.130669
0.267402 -0.924990 -0.275499 165 130 40 -0.382626 0.000000 -0.923903
0.246316 -0.909759 -0.255838 165 130 40 -0.923863 0.000000 -0.382723
0.322332 -0.875053 -0.221841 165 130 40 0.923863 0.000000 0.382723
0.313469 -0.823682 -0.266662 165 130 40 0.793380 0.000000 -0.608727
0.249834 -0.873019 -0.261494 165 130 40 -0.793380 0.000000 -0.608727
0.247192 -0.875962 -0.257954 165 130 40 -0.923863 0.000000 -0.382723
0.293903 -0.884299 -0.196549 165 130 40 0.130705 0.000000 0.991421
0.257987 -0.920198 -0.269955 165 130 40 -0.608753 0.000000 -0.793360
0.308644 -0.921059 -0.270445 165 130 40 0.608753 0.000000 -0.793360
0.308590 -0.832665 -0.270487 165 130 40 0.608753 0.000000 -0.793360
0.258502 -0.937015 -0.270350 165 130 40 -0.608753 0.000000 -0.793360
0.319237 -0.889092 -0.215207 165 130 40 0.793481 0.000000 0.608594
0.289515 -0.959255 -0.195970 165 130 40 0.130705 0.000000 0.991421
0.243082 -0.871728 -0.248011 165 130 40 -0.991426 0.000000 -0.130669
0.276673 -0.875008 -0.278237 165 130 40 -0.130693 0.000000 -0.991423
0.311886 -0.821561 0.259650 98 95 250 0.608696 0.000000 0.793404
0.324189 -0.839268 0.239686 98 95 250 0.991426 0.000000 0.130669
0.246711 -0.837694 0.248484 98 95 250 -0.923863 0.000000 0.382723
0.278018 -0.919349 0.270106 98 95 250 -0.130424 0.000000 0.991458
0.322026 -0.953608 0.212793 98 95 250 0.923863 0.000000 -0.382723
0.246370 -0.839643 0.247659 98 95 250 -0.923863 0.000000 0.382723
0.271187 -0.820194 0.268760 98 95 250 -0.382704 0.000000 0.923871
0.304980 -0.821625 0.264949 98 95 250 0.608696 0.000000 0.793404
0.287716 -0.947282 0.187426 98 95 250 0.130436 0.000000 -0.991457
0.321078 -0.825844 0.210509 98 95 250 0.923863 0.000000 -0.382723
0.253830 -0.886080 0.199341 98 95 250 -0.793380 0.000000 -0.608727
0.245661 -0.923221 0.245950 98 95 250 -0.923863 0.000000 0.382723
0.318668 -0.832907 0.206157 98 95 250 0.793380 0.000000 -0.608727
0.321703 -0.938277 0.245718 98 95 250 0.923863 0.000000 0.382723
0.267971 -0.937826 0.267428 98 95 250 -0.382704 0.000000 0.923871
0.252877 -0.952910 0.200583 98 95 250 -0.793380 0.000000 -0.608727
0.325256 -0.875269 0.231594 98 95 250 0.991426 0.000000 0.130669
0.305396 -0.841499 0.193104 98 95 250 0.608868 0.000000 -0.793271
0.241716 -0.938180 0.228400 98 95 250 -0.991426 0.000000 -0.130669
0.257325 -0.938382 0.261139 98 95 250 -0.608696 0.000000 0.793404
0.255864 -0.899262 0.260019 98 95 250 -0.608696 0.000000 0.793404
0.242848 -0.862038 0.219809 98 95 250 -0.991426 0.000000 -0.130669
0.313620 -0.845736 0.199577 98 95 250 0.793380 0.000000 -0.608727
0.324837 -0.863346 0.222961 98 95 250 0.991426 0.000000 -0.130669
0.280648 -0.817034 0.270452 98 95 250 -0.130424 0.000000 0.991458
0.266896 -0.915099 0.190752 98 95 250 -0.382548 0.000000 -0.923936
0.244132 -0.932033 0.242258 98 95 250 -0.923863 0.000000 0.382723
0.321642 -0.887120 0.211868 98 95 250 0.923863 0.000000 -0.382723
0.279670 -0.854850 0.270323 98 95 250 -0.130424 0.000000 0.991458
0.284186 -0.817802 0.270772 98 95 250 0.130436 0.000000 0.991457
0.246163 -0.890979 0.247161 98 95 250 -0.923863 0.000000 0.382723
0.323245 -0.879464 0.215739 98 95 250 0.923863 0.000000 -0.382723
0.265483 -0.827795 0.191336 98 95 250 -0.382548 0.000000 -0.923936
0.242966 -0.937026 0.238823 98 95 250 -0.991426 0.000000 0.130669
0.251334 -0.945274 0.202595 98 95 250 -0.793380 0.000000 -0.608727
0.258655 -0.836003 0.195574 98 95 250 -0.608868 0.000000 -0.793271
0.253314 -0.877602 0.200014 98 95 250 -0.793380 0.000000 -0.608727
0.254557 -0.938374 0.198719 98 95 250 -0.608868 0.000000 -0.793271
0.299012 -0.850662 0.190187 98 95 250 0.382548 0.000000 -0.923936
0.323633 -0.860959 0.216674 98 95 250 0.923863 0.000000 -0.382723
0.281981 -0.894161 0.187107 98 95 250 -0.130424 0.000000 -0.991458
0.241745 -0.953814 0.229554 98 95 250 -0.991426 0.000000 0.130669
0.315706 -0.881466 0.255438 98 95 250 0.793414 0.000000 0.608683
0.265220 -0.844056 0.191445 98 95 250 -0.382548 0.000000 -0.923936
0.243511 -0.917898 0.216977 98 95 250 -0.923863 0.000000 -0.382723
0.268900 -0.872832 0.267812 98 95 250 -0.382704 0.000000 0.923871
0.297127 -0.926604 0.268327 98 95 250 0.382704 0.000000 0.923871
0.259924 -0.948581 0.194600 98 95 250 -0.608868 0.000000 -0.793271
0.248685 -0.946045 0.206045 98 95 250 -0.793380 0.000000 -0.608727
0.251446 -0.888734 0.202449 98 95 250 -0.793380 0.000000 -0.608727
0.314215 -0.927777 0.257382 98 95 250 0.793414 0.000000 0.608683
0.242732 -0.824528 0.237043 98 95 250 -0.991426 0.000000 0.130669
0.242645 -0.865987 0.236383 98 95 250 -0.991426 0.000000 0.130669
0.276058 -0.866471 0.187886 98 95 250 -0.130424 0.000000 -0.991458
0.295623 -0.816916 0.268949 98 95 250 0.382704 0.000000 0.923871
0.319402 -0.919652 0.207114 98 95 250 0.793380 0.000000 -0.608727
0.325303 -0.826436 0.226503 98 95 250 0.991426 0.000000 -0.130669
0.313484 -0.848050 0.258335 98 95 250 0.793414 0.000000 0.608683
0.242132 -0.874837 0.232491 98 95 250 -0.991426 0.000000 0.130669
0.265490 -0.828714 0.266400 98 95 250 -0.382704 0.000000 0.923871
0.245137 -0.920971 0.244685 98 95 250 -0.923863 0.000000 0.382723
0.325277 -0.933949 0.226301 98 95 250 0.991426 0.000000 -0.130669
0.304791 -0.878510 0.265094 98 95 250 0.608696 0.000000 0.793404
0.253035 -0.861617 0.257358 98 95 250 -0.793414 0.000000 0.608683
0.310333 -0.896543 0.196893 98 95 250 0.608868 0.000000 -0.793271
0.306753 -0.943946 0.194145 98 95 250 0.608868 0.000000 -0.793271
0.272003 -0.836100 0.269098 98 95 250 -0.382704 0.000000 0.923871
0.322558 -0.892275 0.214079 98 95 250 0.923863 0.000000 -0.382723
0.266727 -0.933449 0.266912 98 95 250 -0.382704 0.000000 0.923871
0.252475 -0.830555 0.201107 98 95 250 -0.793380 0.000000 -0.608727
0.325292 -0.859346 0.231321 98 95 250 0.991426 0.000000 0.130669
0.306983 -0.840583 0.263412 98 95 250 0.608696 0.000000 0.793404
0.244058 -0.867546 0.215656 98 95 250 -0.923863 0.000000 -0.382723
0.295164 -0.949705 0.188594 98 95 250 0.382548 0.000000 -0.923936
