ply
format ascii 1.0
element vertex 704
property float x
property float y
property float z
property uchar red
property uchar green
property uchar blue
property float nx
property float ny
property float nz
end_header
-0.580951 0.156612 0.611644 21 121 63 -1.000000 0.000000 0.000000
-0.574641 0.174713 0.627640 21 121 63 0.000000 0.000000 1.000000
-0.528911 -0.025081 0.600758 21 121 63 1.000000 0.000000 0.000000
-0.537049 0.077731 0.584935 21 121 63 0.999953 -0.009649 0.000000
-0.535957 0.057730 0.618149 21 121 63 0.000000 0.000000 1.000000
-0.528911 -0.014367 0.591576 21 121 63 1.000000 0.000000 0.000000
-0.528911 0.144678 0.592702 21 121 63 1.000000 0.000000 0.000000
-0.531727 0.027818 0.618149 21 121 63 0.000000 0.000000 1.000000
-0.528911 0.149857 0.611779 21 121 63 1.000000 0.000000 0.000000
-0.592687 -0.032612 0.585160 21 121 63 -0.900336 0.435196 0.000000
-0.585345 -0.033316 0.670476 21 121 63 0.000000 0.476220 0.879326
-0.578805 0.064789 0.561148 21 121 63 0.000000 0.000000 -1.000000
-0.543265 -0.015069 0.642107 21 121 63 0.000000 1.000000 0.000000
-0.559295 -0.046391 0.672189 21 121 63 0.000000 0.000000 1.000000
-0.580951 -0.003937 0.565265 21 121 63 -1.000000 0.000000 0.000000
-0.564642 0.027433 0.627640 21 121 63 0.000000 0.000000 1.000000
-0.560016 0.048771 0.627640 21 121 63 0.000000 0.000000 1.000000
-0.528911 0.133506 0.614475 21 121 63 1.000000 0.000000 0.000000
-0.533535 0.075115 0.566676 21 121 63 0.000000 0.000000 -1.000000
-0.518773 0.216409 0.566676 21 121 63 0.000000 0.000000 -1.000000
-0.548442 -0.022895 0.664833 21 121 63 0.000000 0.476220 0.879326
-0.537863 -0.006716 0.579193 21 121 63 0.999953 -0.009649 0.000000
-0.551542 0.149228 0.627640 21 121 63 0.000000 0.000000 1.000000
-0.585352 -0.017436 0.655221 21 121 63 -0.900336 0.435196 0.000000
-0.570795 -0.013796 0.627640 21 121 63 0.000000 0.000000 1.000000
-0.576050 -0.015069 0.634530 21 121 63 0.000000 1.000000 0.000000
-0.572693 0.181519 0.561148 21 121 63 0.000000 0.000000 -1.000000
-0.568612 0.176516 0.627640 21 121 63 0.000000 0.000000 1.000000
-0.528911 0.045633 0.620534 21 121 63 1.000000 0.000000 0.000000
-0.580169 -0.026016 0.577390 21 121 63 0.000000 0.999982 -0.006051
-0.572171 0.133550 0.561148 21 121 63 0.000000 0.000000 -1.000000
-0.528911 0.006285 0.582959 21 121 63 1.000000 0.000000 0.000000
-0.543256 0.153612 0.627640 21 121 63 0.000000 0.000000 1.000000
-0.580951 0.038467 0.621806 21 121 63 -1.000000 0.000000 0.000000
-0.540249 -0.026133 0.558134 21 121 63 0.000000 0.999982 -0.006051
-0.538250 0.195504 0.561148 21 121 63 0.000000 0.000000 -1.000000
-0.580951 0.104649 0.616365 21 121 63 -1.000000 0.000000 0.000000
-0.528911 0.198454 0.561204 21 121 63 1.000000 0.000000 0.000000
-0.541572 -0.025883 0.599394 21 121 63 0.000000 0.999982 -0.006051
-0.580951 0.039547 0.561750 21 121 63 -1.000000 0.000000 0.000000
-0.528911 0.142070 0.575317 21 121 63 1.000000 0.000000 0.000000
-0.580951 0.065642 0.593038 21 121 63 -1.000000 0.000000 0.000000
-0.540707 0.078904 0.561148 21 121 63 0.000000 0.000000 -1.000000
-0.528911 0.131036 0.622211 21 121 63 1.000000 0.000000 0.000000
-0.580951 0.043086 0.624683 21 121 63 -1.000000 0.000000 0.000000
-0.537107 0.071667 0.574777 21 121 63 0.999953 -0.009649 0.000000
-0.580951 0.088871 0.569481 21 121 63 -1.000000 0.000000 0.000000
-0.528911 0.065599 0.611615 21 121 63 1.000000 0.000000 0.000000
-0.580951 0.159425 0.602331 21 121 63 -1.000000 0.000000 0.000000
-0.530276 0.193007 0.618149 21 121 63 0.000000 0.000000 1.000000
-0.528911 0.191441 0.567411 21 121 63 1.000000 0.000000 0.000000
-0.566996 0.022079 0.627640 21 121 63 0.000000 0.000000 1.000000
-0.580951 0.164019 0.615356 21 121 63 -1.000000 0.000000 0.000000
-0.528911 0.166563 0.622232 21 121 63 1.000000 0.000000 0.000000
-0.528911 0.044182 0.590220 21 121 63 1.000000 0.000000 0.000000
-0.567421 -0.015069 0.607248 21 121 63 0.000000 1.000000 0.000000
-0.571390 0.091726 0.627640 21 121 63 0.000000 0.000000 1.000000
-0.569965 0.121619 0.561148 21 121 63 0.000000 0.000000 -1.000000
-0.544959 0.053406 0.561148 21 121 63 0.000000 0.000000 -1.000000
-0.580951 0.054208 0.582006 21 121 63 -1.000000 0.000000 0.000000
-0.555024 0.198591 0.561148 21 121 63 0.000000 0.000000 -1.000000
-0.521971 0.005162 0.618149 21 121 63 0.000000 0.000000 1.000000
-0.579056 -0.030441 0.668919 21 121 63 0.000000 0.476220 0.879326
-0.548874 -0.015069 0.654317 21 121 63 0.000000 1.000000 0.000000
-0.536072 -0.025803 0.612631 21 121 63 0.000000 0.999982 -0.006051
-0.579298 -0.025903 0.596112 21 121 63 0.000000 0.999982 -0.006051
-0.528911 0.089024 0.566054 21 121 63 1.000000 0.000000 0.000000
-0.580951 0.131298 0.601064 21 121 63 -1.000000 0.000000 0.000000
-0.573848 -0.029725 0.668532 21 121 63 0.000000 0.476220 0.879326
-0.546727 0.040504 0.558570 21 121 63 0.000000 0.999904 -0.013857
-0.536421 0.142698 0.574900 21 121 63 0.999953 -0.009649 0.000000
-0.536999 0.082883 0.608384 21 121 63 0.999953 -0.009649 0.000000
-0.572741 0.182647 0.627640 21 121 63 0.000000 0.000000 1.000000
-0.537098 0.072570 0.616734 21 121 63 0.999953 -0.009649 0.000000
-0.574371 0.089573 0.561148 21 121 63 0.000000 0.000000 -1.000000
-0.528911 -0.010658 0.617686 21 121 63 1.000000 0.000000 0.000000
-0.528911 0.039829 0.614645 21 121 63 1.000000 0.000000 0.000000
-0.528911 0.037156 0.617286 21 121 63 1.000000 0.000000 0.000000
-0.580951 0.215390 0.591567 21 121 63 -1.000000 0.000000 0.000000
-0.528911 0.122452 0.606408 21 121 63 1.000000 0.000000 0.000000
-0.528911 0.242393 0.626583 21 121 63 1.000000 0.000000 0.000000
-0.544868 -0.015069 0.591131 21 121 63 0.000000 1.000000 0.000000
-0.534888 0.213319 0.561148 21 121 63 0.000000 0.000000 -1.000000
-0.566487 -0.015069 0.648029 21 121 63 0.000000 1.000000 0.000000
-0.528911 0.188961 0.620780 21 121 63 1.000000 0.000000 0.000000
-0.568250 0.271475 0.561148 149 120 146 0.000000 0.000000 -1.000000
-0.528911 0.272566 0.619566 149 120 146 1.000000 0.000000 0.000000
-0.548536 0.419473 0.627640 149 120 146 0.000000 0.000000 1.000000
-0.534924 0.297835 0.586190 149 120 146 0.999953 -0.009649 0.000000
-0.534181 0.370976 0.566676 149 120 146 0.000000 0.000000 -1.000000
-0.534772 0.313598 0.597929 149 120 146 0.999953 -0.009649 0.000000
-0.580951 0.533722 0.585962 149 120 146 -1.000000 0.000000 0.000000
-0.528911 0.467178 0.591659 149 120 146 1.000000 0.000000 0.000000
-0.530564 0.354436 0.566676 149 120 146 0.000000 0.000000 -1.000000
-0.575478 0.354497 0.627640 149 120 146 0.000000 0.000000 1.000000
-0.580951 0.326377 0.580432 149 120 146 -1.000000 0.000000 0.000000
-0.580951 0.299916 0.577708 149 120 146 -1.000000 0.000000 0.000000
-0.528911 0.316425 0.599598 149 120 146 1.000000 0.000000 0.000000
-0.531644 0.530696 0.627640 149 120 146 0.000000 0.000000 1.000000
-0.528911 0.458592 0.620907 149 120 146 1.000000 0.000000 0.000000
-0.580951 0.503882 0.576789 149 120 146 -1.000000 0.000000 0.000000
-0.580951 0.380952 0.623260 149 120 146 -1.000000 0.000000 0.000000
-0.580951 0.521800 0.572586 149 120 146 -1.000000 0.000000 0.000000
-0.529950 0.309646 0.627640 149 120 146 0.000000 0.000000 1.000000
-0.580951 0.462986 0.594592 149 120 146 -1.000000 0.000000 0.000000
-0.580951 0.516583 0.614265 149 120 146 -1.000000 0.000000 0.000000
-0.528911 0.254594 0.589353 149 120 146 1.000000 0.000000 0.000000
-0.534490 0.342777 0.568847 149 120 146 0.999953 -0.009649 0.000000
-0.528911 0.383497 0.563424 149 120 146 1.000000 0.000000 0.000000
-0.535432 0.508497 0.561148 149 120 146 0.000000 0.000000 -1.000000
-0.528911 0.483274 0.607876 149 120 146 1.000000 0.000000 0.000000
-0.580951 0.279262 0.616254 149 120 146 -1.000000 0.000000 0.000000
-0.528911 0.385109 0.585360 149 120 146 1.000000 0.000000 0.000000
-0.528911 0.399200 0.614698 149 120 146 1.000000 0.000000 0.000000
-0.563677 0.308593 0.627640 149 120 146 0.000000 0.000000 1.000000
-0.534144 0.378657 0.587008 149 120 146 0.999953 -0.009649 0.000000
-0.580951 0.316694 0.612007 149 120 146 -1.000000 0.000000 0.000000
-0.535296 0.259295 0.592165 149 120 146 0.999953 -0.009649 0.000000
-0.542816 0.319217 0.561148 149 120 146 0.000000 0.000000 -1.000000
-0.541063 0.340750 0.627640 149 120 146 0.000000 0.000000 1.000000
-0.580951 0.377277 0.607548 149 120 146 -1.000000 0.000000 0.000000
-0.579595 0.382316 0.561148 149 120 146 0.000000 0.000000 -1.000000
-0.528911 0.437318 0.587211 149 120 146 1.000000 0.000000 0.000000
-0.560994 0.427397 0.627640 149 120 146 0.000000 0.000000 1.000000
-0.546019 0.413109 0.561148 149 120 146 0.000000 0.000000 -1.000000
-0.580599 0.397063 0.627640 149 120 146 0.000000 0.000000 1.000000
-0.528911 0.519297 0.566925 149 120 146 1.000000 0.000000 0.000000
-0.569692 0.512134 0.627640 149 120 146 0.000000 0.000000 1.000000
-0.528911 0.435643 0.603515 149 120 146 1.000000 0.000000 0.000000
-0.562116 0.454622 0.627640 149 120 146 0.000000 0.000000 1.000000
-0.528911 0.468602 0.596364 149 120 146 1.000000 0.000000 0.000000
-0.570642 0.430031 0.561148 149 120 146 0.000000 0.000000 -1.000000
-0.536566 0.423323 0.627640 149 120 146 0.000000 0.000000 1.000000
-0.580951 0.276073 0.596695 149 120 146 -1.000000 0.000000 0.000000
-0.580951 0.526079 0.623302 149 120 146 -1.000000 0.000000 0.000000
-0.533992 0.489595 0.627640 149 120 146 0.000000 0.000000 1.000000
-0.528911 0.274438 0.610625 149 120 146 1.000000 0.000000 0.000000
-0.535163 0.273074 0.594206 149 120 146 0.999953 -0.009649 0.000000
-0.528911 0.502327 0.622306 149 120 146 1.000000 0.000000 0.000000
-0.580951 0.453750 0.588920 149 120 146 -1.000000 0.000000 0.000000
-0.550891 0.400034 0.627640 149 120 146 0.000000 0.000000 1.000000
-0.104818 0.024399 -0.652088 129 219 198 0.000000 0.000000 -1.000000
-0.284864 0.260488 -0.600612 129 219 198 0.000012 -0.000049 1.000000
-0.467976 0.234219 -0.600611 129 219 198 0.000000 0.000000 1.000000
-0.272306 0.095998 -0.652088 129 219 198 0.000000 0.000000 -1.000000
-0.092104 0.250303 -0.600615 129 219 198 0.000000 0.000000 1.000000
-0.139269 0.219004 -0.630910 129 219 198 0.000000 -1.000000 0.000000
0.008537 0.008592 -0.602382 129 219 198 0.999980 -0.006388 0.000000
-0.482127 0.093632 -0.652088 129 219 198 0.000000 0.000000 -1.000000
-0.228416 0.136642 -0.652088 129 219 198 0.000000 0.000000 -1.000000
-0.499100 0.057151 -0.652088 129 219 198 0.000000 0.000000 -1.000000
-0.001845 0.188903 -0.652088 129 219 198 0.000000 0.000000 -1.000000
0.000664 0.151005 -0.600615 129 219 198 0.000000 0.000000 1.000000
-0.049158 0.208104 -0.652088 129 219 198 0.000000 0.000000 -1.000000
-0.070103 0.101271 -0.600615 129 219 198 0.000000 0.000000 1.000000
-0.052911 0.215214 -0.652088 129 219 198 0.000000 0.000000 -1.000000
-0.243066 0.158203 -0.600615 129 219 198 0.000000 0.000000 1.000000
-0.193733 0.160535 -0.611922 129 219 198 0.000000 1.000000 0.000000
-0.011758 0.165836 -0.600615 129 219 198 0.000000 0.000000 1.000000
-0.132934 0.281019 -0.614196 129 219 198 0.000000 1.000000 0.000000
0.008985 0.078676 -0.606159 129 219 198 0.999980 -0.006388 0.000000
-0.505731 0.057146 -0.652088 129 219 198 0.000000 0.000000 -1.000000
0.009821 0.209635 -0.651648 129 219 198 0.999980 -0.006388 0.000000
-0.183127 0.267273 -0.600613 129 219 198 0.000012 -0.000049 1.000000
0.000559 0.122097 -0.652088 129 219 198 0.000000 0.000000 -1.000000
0.006863 0.075027 -0.600615 129 219 198 0.000000 0.000000 1.000000
-0.504885 0.134508 -0.600611 129 219 198 0.000000 0.000000 1.000000
-0.488317 0.085849 -0.652088 129 219 198 0.000000 0.000000 -1.000000
-0.070363 0.101051 -0.619025 129 219 198 -0.999944 0.010573 0.000000
-0.452848 0.225782 -0.616268 129 219 198 1.000000 0.000000 0.000000
-0.318754 0.202022 -0.652088 129 219 198 0.000000 0.000000 -1.000000
-0.067434 0.273161 -0.652088 129 219 198 0.000000 0.000000 -1.000000
-0.452848 0.083072 -0.641981 129 219 198 1.000000 0.000000 0.000000
-0.128313 0.281019 -0.610912 129 219 198 0.000000 1.000000 0.000000
-0.274893 0.218124 -0.652088 129 219 198 0.000000 0.000000 -1.000000
-0.051033 0.047655 -0.600615 129 219 198 0.000000 0.000000 1.000000
-0.493767 -0.011619 -0.648437 129 219 198 -0.006484 -0.999979 0.000000
-0.062654 0.052698 -0.600615 129 219 198 0.000000 0.000000 1.000000
-0.340393 0.031465 -0.652088 129 219 198 0.000000 0.000000 -1.000000
-0.091037 0.281019 -0.640908 129 219 198 0.000000 1.000000 0.000000
-0.046966 0.029706 -0.600615 129 219 198 0.000000 0.000000 1.000000
-0.013625 0.123224 -0.600615 129 219 198 0.000000 0.000000 1.000000
-0.037574 0.219870 -0.600615 129 219 198 0.000000 0.000000 1.000000
-0.318434 0.213128 -0.600613 129 219 198 0.000019 -0.000021 1.000000
-0.125297 0.274058 -0.600614 129 219 198 0.000012 -0.000049 1.000000
-0.173081 0.121944 -0.623758 129 219 198 1.000000 0.000000 0.000000
-0.452848 0.214876 -0.645006 129 219 198 1.000000 0.000000 0.000000
-0.324307 0.151230 -0.623006 129 219 198 -1.000000 0.000000 0.000000
-0.075282 0.001711 -0.600615 129 219 198 0.000000 0.000011 1.000000
-0.174359 0.091435 -0.624134 129 219 198 0.000000 -1.000000 0.000000
-0.001054 0.277751 -0.600615 129 219 198 0.000000 0.000000 1.000000
-0.045747 0.160933 -0.600615 129 219 198 0.000000 0.000000 1.000000
-0.183235 0.027645 -0.652088 129 219 198 0.000000 0.000000 -1.000000
-0.527222 0.260472 -0.652088 129 219 198 0.000000 0.000000 -1.000000
-0.419726 0.013647 -0.600612 129 219 198 0.000010 -0.000017 1.000000
-0.136398 0.219004 -0.603575 129 219 198 0.000000 -1.000000 0.000000
-0.253144 0.139117 -0.652088 129 219 198 0.000000 0.000000 -1.000000
-0.309913 -0.000188 -0.652088 129 219 198 0.000000 0.000000 -1.000000
-0.323707 0.140316 -0.600614 129 219 198 0.000019 -0.000021 1.000000
0.009370 0.139030 -0.604432 129 219 198 0.999980 -0.006388 0.000000
-0.324307 0.253801 -0.649222 129 219 198 -1.000000 0.000000 0.000000
-0.149991 0.031461 -0.600614 129 219 198 0.000010 -0.000017 1.000000
-0.470695 0.245042 -0.652088 129 219 198 0.000000 0.000000 -1.000000
-0.472839 0.174129 -0.600611 129 219 198 0.000000 0.000000 1.000000
0.010055 0.246271 -0.628037 129 219 198 0.999980 -0.006388 0.000000
-0.261397 0.163518 -0.652088 129 219 198 0.000000 0.000000 -1.000000
-0.238485 0.219004 -0.603390 129 219 198 0.000000 -1.000000 0.000000
-0.310136 0.034679 -0.600613 129 219 198 0.000010 -0.000017 1.000000
-0.025047 0.200114 -0.600615 129 219 198 0.000000 0.000000 1.000000
-0.512078 0.188427 -0.652088 129 219 198 0.000000 0.000000 -1.000000
-0.120912 0.235065 -0.600615 129 219 198 0.000000 0.000000 1.000000
-0.255520 0.270835 -0.600612 129 219 198 0.000012 -0.000049 1.000000
-0.324307 0.214588 -0.635628 129 219 198 -1.000000 0.000000 0.000000
-0.468170 0.179238 -0.600611 129 219 198 0.000000 0.000000 1.000000
-0.266271 0.178888 -0.600614 129 219 198 0.000019 -0.000021 1.000000
-0.001816 0.051452 -0.652088 129 219 198 0.000000 0.000000 -1.000000
-0.393239 0.011346 -0.652088 129 219 198 0.000000 0.000000 -1.000000
-0.059610 0.125248 -0.652088 129 219 198 0.000000 0.000000 -1.000000
-0.010914 0.114688 -0.652088 129 219 198 0.000000 0.000000 -1.000000
-0.281981 0.040048 -0.644798 129 219 198 0.000000 1.000000 0.000000
0.005775 0.228242 -0.652088 129 219 198 0.000000 0.000000 -1.000000
0.009993 0.236562 -0.604470 129 219 198 0.999980 -0.006388 0.000000
-0.173081 0.119568 -0.646574 129 219 198 1.000000 0.000000 0.000000
-0.298255 0.248122 -0.652088 129 219 198 0.000000 0.000000 -1.000000
-0.501743 0.207268 -0.652088 129 219 198 0.000000 0.000000 -1.000000
-0.508970 0.280417 -0.600611 129 219 198 0.000000 0.000000 1.000000
-0.245405 0.203845 -0.608098 129 219 198 0.999480 -0.032242 0.000000
-0.176495 0.160535 -0.617306 129 219 198 0.000000 1.000000 0.000000
-0.027576 0.182892 -0.652088 129 219 198 0.000000 0.000000 -1.000000
-0.504871 0.046135 -0.600611 129 219 198 0.000000 0.000000 1.000000
-0.324307 0.205047 -0.641973 129 219 198 -1.000000 0.000000 0.000000
-0.173081 0.099553 -0.617894 129 219 198 1.000000 0.000000 0.000000
-0.272444 0.183001 -0.652088 129 219 198 0.000000 0.000000 -1.000000
0.003643 0.166696 -0.600615 129 219 198 0.000000 0.000000 1.000000
-0.467606 0.147683 -0.600611 129 219 198 0.000000 0.000000 1.000000
-0.039218 0.136157 -0.652088 129 219 198 0.000000 0.000000 -1.000000
-0.150586 0.222694 -0.600615 129 219 198 0.000000 0.000000 1.000000
-0.304942 0.257637 -0.652088 129 219 198 0.000000 0.000000 -1.000000
-0.364751 0.022482 -0.600612 129 219 198 0.000010 -0.000017 1.000000
-0.084229 0.247091 -0.600615 129 219 198 0.000000 0.000000 1.000000
-0.009031 0.098698 -0.652088 129 219 198 0.000000 0.000000 -1.000000
-0.482929 -0.011689 -0.633056 129 219 198 -0.006484 -0.999979 0.000000
-0.319702 0.194058 -0.652088 129 219 198 0.000000 0.000000 -1.000000
-0.003386 0.033973 -0.600615 129 219 198 0.000000 0.000000 1.000000
-0.032644 0.003996 -0.600615 129 219 198 0.000000 0.000011 1.000000
0.007227 0.143409 -0.600615 129 219 198 0.000000 0.000000 1.000000
-0.058115 0.220150 -0.652088 129 219 198 0.000000 0.000000 -1.000000
-0.235851 0.281019 -0.615277 129 219 198 0.000000 1.000000 0.000000
-0.026130 0.154411 -0.600615 129 219 198 0.000000 0.000000 1.000000
-0.117616 0.260909 -0.600614 129 219 198 0.000012 -0.000049 1.000000
-0.029994 0.163753 -0.600615 129 219 198 0.000000 0.000000 1.000000
-0.093650 0.007258 -0.600614 129 219 198 0.000000 0.000011 1.000000
-0.286780 0.264750 -0.652088 129 219 198 0.000000 0.000000 -1.000000
-0.297508 0.281019 -0.638002 129 219 198 0.000000 1.000000 0.000000
-0.210687 0.143575 -0.652088 129 219 198 0.000000 0.000000 -1.000000
-0.251731 0.170768 -0.652088 129 219 198 0.000000 0.000000 -1.000000
-0.230850 0.091435 -0.649673 129 219 198 0.000000 -1.000000 0.000000
-0.152848 0.242825 -0.652088 129 219 198 0.000000 0.000000 -1.000000
-0.511367 0.065303 -0.652088 129 219 198 0.000000 0.000000 -1.000000
-0.472781 0.240485 -0.600611 129 219 198 0.000000 0.000000 1.000000
-0.070052 0.281019 -0.616254 129 219 198 0.000000 1.000000 0.000000
-0.122565 0.248748 -0.600615 129 219 198 0.000012 -0.000049 1.000000
-0.298150 0.030730 -0.652088 129 219 198 0.000000 0.000000 -1.000000
-0.506720 0.228435 -0.600611 129 219 198 0.000000 0.000000 1.000000
-0.069337 0.219004 -0.636483 129 219 198 0.000000 -1.000000 0.000000
-0.006528 0.076471 -0.652088 129 219 198 0.000000 0.000000 -1.000000
0.009518 0.162219 -0.605959 129 219 198 0.999980 -0.006388 0.000000
-0.388260 0.040048 -0.635555 129 219 198 0.000000 1.000000 0.000000
-0.453304 0.064801 -0.600611 129 219 198 0.000000 0.000000 1.000000
-0.510282 0.261473 -0.652088 129 219 198 0.000000 0.000000 -1.000000
-0.499867 0.268449 -0.600611 129 219 198 0.000000 0.000000 1.000000
-0.173691 0.000035 -0.652088 129 219 198 0.000000 0.000000 -1.000000
-0.159896 0.040048 -0.616293 129 219 198 0.000000 1.000000 0.000000
-0.058017 0.088783 -0.600615 129 219 198 0.000000 0.000000 1.000000
0.009023 0.084636 -0.645854 129 219 198 0.999980 -0.006388 0.000000
-0.502383 0.165504 -0.600611 129 219 198 0.000000 0.000000 1.000000
-0.288792 0.091435 -0.631131 129 219 198 0.000000 -1.000000 0.000000
-0.478222 0.202084 -0.600611 129 219 198 0.000000 0.000000 1.000000
-0.305633 0.177036 -0.600614 129 219 198 0.000019 -0.000021 1.000000
-0.476852 0.237857 -0.600611 129 219 198 0.000000 0.000000 1.000000
-0.246092 0.246562 -0.652088 129 219 198 0.000000 0.000000 -1.000000
-0.267814 0.281019 -0.614252 129 219 198 0.000000 1.000000 0.000000
-0.484490 -0.011679 -0.636897 129 219 198 -0.006484 -0.999979 0.000000
-0.246394 0.173176 -0.635853 129 219 198 0.999480 -0.032242 0.000000
-0.053290 0.123141 -0.600615 129 219 198 0.000000 0.000000 1.000000
-0.070773 0.062297 -0.633088 129 219 198 -0.999944 0.010573 0.000000
-0.070328 0.104393 -0.614375 129 219 198 -0.999944 0.010573 0.000000
-0.392365 0.033737 -0.600612 129 219 198 0.000010 -0.000017 1.000000
-0.204262 0.160535 -0.641969 129 219 198 0.000000 1.000000 0.000000
-0.323894 0.120255 -0.652088 129 219 198 0.000000 0.000000 -1.000000
-0.249307 0.039751 -0.600613 129 219 198 0.000010 -0.000017 1.000000
-0.185524 0.096496 -0.600615 129 219 198 0.000000 0.000000 1.000000
-0.099436 0.040048 -0.622564 129 219 198 0.000000 1.000000 0.000000
-0.452848 0.081828 -0.609161 129 219 198 1.000000 0.000000 0.000000
-0.491809 0.024501 -0.600611 129 219 198 0.000000 0.000000 1.000000
-0.318166 0.270818 -0.600611 129 219 198 0.000019 -0.000021 1.000000
-0.069689 0.164836 -0.635329 129 219 198 -0.999944 0.010573 0.000000
-0.075400 0.241068 -0.600615 129 219 198 0.000000 0.000000 1.000000
-0.452848 0.048455 -0.616151 129 219 198 1.000000 0.000000 0.000000
-0.263269 0.101889 -0.652088 129 219 198 0.000000 0.000000 -1.000000
-0.146084 0.269004 -0.600614 129 219 198 0.000012 -0.000049 1.000000
-0.452848 0.180258 -0.642558 129 219 198 1.000000 0.000000 0.000000
-0.071783 0.002063 -0.652088 129 219 198 0.000000 0.000000 -1.000000
-0.155189 0.277740 -0.652088 129 219 198 0.000000 0.000000 -1.000000
-0.238831 0.160535 -0.608014 129 219 198 0.000000 1.000000 0.000000
-0.493011 0.083202 -0.600611 129 219 198 0.000000 0.000000 1.000000
-0.226350 0.040048 -0.644125 129 219 198 0.000000 1.000000 0.000000
-0.084031 0.281019 -0.649841 129 219 198 0.000000 1.000000 0.000000
-0.002424 0.001297 -0.652088 129 219 198 0.000000 0.000000 -1.000000
-0.478583 0.124341 -0.652088 129 219 198 0.000000 0.000000 -1.000000
-0.291539 0.157502 -0.652088 129 219 198 0.000000 0.000000 -1.000000
-0.070928 0.047662 -0.631067 129 219 198 -0.999944 0.010573 0.000000
0.008651 0.026385 -0.604760 129 219 198 0.999980 -0.006388 0.000000
-0.003070 0.188517 -0.652088 129 219 198 0.000000 0.000000 -1.000000
-0.206981 0.160535 -0.623823 129 219 198 0.000000 1.000000 0.000000
-0.268268 0.154496 -0.652088 129 219 198 0.000000 0.000000 -1.000000
-0.075346 0.002706 -0.652088 129 219 198 0.000000 0.000000 -1.000000
-0.230639 0.219004 -0.640757 129 219 198 0.000000 -1.000000 0.000000
-0.016847 0.112851 -0.600615 129 219 198 0.000000 0.000000 1.000000
-0.060385 0.025728 -0.600615 129 219 198 0.000000 0.000011 1.000000
-0.512367 0.016786 -0.600611 129 219 198 0.000000 0.000000 1.000000
-0.471671 0.013628 -0.652088 129 219 198 0.000000 0.000000 -1.000000
-0.168975 0.040048 -0.615152 129 219 198 0.000000 1.000000 0.000000
-0.270729 0.166476 -0.652088 129 219 198 0.000000 0.000000 -1.000000
-0.213570 0.040048 -0.613413 129 219 198 0.000000 1.000000 0.000000
-0.281898 0.273104 -0.600612 129 219 198 0.000012 -0.000049 1.000000
-0.088328 0.031011 -0.600615 129 219 198 0.000000 0.000011 1.000000
-0.193836 0.091435 -0.608907 129 219 198 0.000000 -1.000000 0.000000
-0.496437 0.052430 -0.652088 129 219 198 0.000000 0.000000 -1.000000
-0.283446 0.040048 -0.632919 129 219 198 0.000000 1.000000 0.000000
-0.457216 0.198875 -0.652088 129 219 198 0.000000 0.000000 -1.000000
-0.178937 0.281019 -0.634987 129 219 198 0.000000 1.000000 0.000000
-0.061462 0.118540 -0.600615 129 219 198 0.000000 0.000000 1.000000
-0.207530 0.040048 -0.647425 129 219 198 0.000000 1.000000 0.000000
-0.324307 0.120099 -0.607210 129 219 198 -1.000000 0.000000 0.000000
-0.026044 0.029594 -0.600615 129 219 198 0.000000 0.000000 1.000000
0.009490 0.157764 -0.643572 129 219 198 0.999980 -0.006388 0.000000
-0.513174 0.272670 -0.652088 129 219 198 0.000000 0.000000 -1.000000
-0.324307 0.253760 -0.627255 129 219 198 -1.000000 0.000000 0.000000
-0.302769 0.091435 -0.605638 129 219 198 0.000000 -1.000000 0.000000
-0.480632 0.257805 -0.652088 129 219 198 0.000000 0.000000 -1.000000
-0.300101 0.121932 -0.652088 129 219 198 0.000000 0.000000 -1.000000
-0.461494 0.009803 -0.652088 129 219 198 0.000000 0.000000 -1.000000
-0.428973 0.040048 -0.624105 129 219 198 0.000000 1.000000 0.000000
0.009604 0.175680 -0.636753 129 219 198 0.999980 -0.006388 0.000000
-0.047623 0.248008 -0.652088 129 219 198 0.000000 0.000000 -1.000000
-0.324307 0.244703 -0.604507 129 219 198 -1.000000 0.000000 0.000000
-0.186789 0.091435 -0.629511 129 219 198 0.000000 -1.000000 0.000000
-0.524416 0.076751 -0.652088 129 219 198 0.000000 0.000000 -1.000000
-0.219811 0.160535 -0.614651 129 219 198 0.000000 1.000000 0.000000
-0.120998 0.219004 -0.647269 129 219 198 0.000000 -1.000000 0.000000
-0.062351 0.028349 -0.652088 129 219 198 0.000000 0.000000 -1.000000
-0.070200 0.116447 -0.640841 129 219 198 -0.999944 0.010573 0.000000
-0.306812 0.035991 -0.652088 129 219 198 0.000000 0.000000 -1.000000
-0.498987 0.200142 -0.652088 129 219 198 0.000000 0.000000 -1.000000
-0.044148 0.061220 -0.652088 129 219 198 0.000000 0.000000 -1.000000
-0.499558 0.220890 -0.600611 129 219 198 0.000000 0.000000 1.000000
-0.299389 0.006938 -0.652088 129 219 198 0.000000 0.000000 -1.000000
-0.079488 0.252246 -0.600615 129 219 198 0.000000 0.000000 1.000000
-0.483387 0.238347 -0.600611 129 219 198 0.000000 0.000000 1.000000
-0.324307 0.191893 -0.620182 129 219 198 -1.000000 0.000000 0.000000
-0.452848 0.228414 -0.640115 129 219 198 1.000000 0.000000 0.000000
-0.468837 0.227003 -0.652088 129 219 198 0.000000 0.000000 -1.000000
-0.486537 0.154359 -0.652088 129 219 198 0.000000 0.000000 -1.000000
-0.223397 0.281019 -0.649203 129 219 198 0.000000 1.000000 0.000000
-0.394332 0.040048 -0.613513 129 219 198 0.000000 1.000000 0.000000
-0.069672 0.166432 -0.610902 129 219 198 -0.999944 0.010573 0.000000
-0.350074 0.027749 -0.652088 129 219 198 0.000000 0.000000 -1.000000
-0.500047 0.148350 -0.652088 129 219 198 0.000000 0.000000 -1.000000
-0.084479 0.219004 -0.639668 129 219 198 0.000000 -1.000000 0.000000
-0.308738 0.281019 -0.637074 129 219 198 0.000000 1.000000 0.000000
-0.056558 0.188304 -0.600615 129 219 198 0.000000 0.000000 1.000000
-0.190934 0.222646 -0.652088 129 219 198 0.000000 0.000000 -1.000000
-0.284147 0.173925 -0.652088 129 219 198 0.000000 0.000000 -1.000000
-0.233147 0.160535 -0.620877 129 219 198 0.000000 1.000000 0.000000
-0.278862 0.009450 -0.600613 129 219 198 0.000000 0.000011 1.000000
-0.490989 0.221421 -0.600611 129 219 198 0.000000 0.000000 1.000000
-0.329206 -0.000667 -0.652088 129 219 198 0.000000 0.000000 -1.000000
-0.220638 0.220390 -0.652088 129 219 198 0.000000 0.000000 -1.000000
-0.057055 0.078854 -0.600615 129 219 198 0.000000 0.000000 1.000000
-0.030968 0.244407 -0.600615 129 219 198 0.000000 0.000000 1.000000
-0.178692 0.160535 -0.649316 129 219 198 0.000000 1.000000 0.000000
-0.293568 0.106866 -0.652088 129 219 198 0.000000 0.000000 -1.000000
-0.203688 0.235058 -0.600615 129 219 198 0.000012 -0.000049 1.000000
-0.036416 0.133952 -0.600615 129 219 198 0.000000 0.000000 1.000000
-0.094368 0.281019 -0.617927 129 219 198 0.000000 1.000000 0.000000
-0.248042 0.250464 -0.600613 129 219 198 0.000012 -0.000049 1.000000
-0.001718 0.099870 -0.600615 129 219 198 0.000000 0.000000 1.000000
-0.511845 0.141050 -0.652088 129 219 198 0.000000 0.000000 -1.000000
-0.139333 0.281019 -0.603879 129 219 198 0.000000 1.000000 0.000000
-0.069054 0.154521 -0.600615 129 219 198 0.000000 0.000000 1.000000
-0.110204 0.010328 -0.600614 129 219 198 0.000000 0.000011 1.000000
-0.070020 0.133531 -0.604712 129 219 198 -0.999944 0.010573 0.000000
-0.218912 0.032042 -0.652088 129 219 198 0.000000 0.000000 -1.000000
-0.232901 0.160535 -0.643169 129 219 198 0.000000 1.000000 0.000000
-0.300101 0.102062 -0.600615 129 219 198 0.000000 0.000000 1.000000
-0.035095 0.172951 -0.600615 129 219 198 0.000000 0.000000 1.000000
-0.027553 0.158964 -0.600615 129 219 198 0.000000 0.000000 1.000000
-0.481868 0.152652 -0.600611 129 219 198 0.000000 0.000000 1.000000
-0.305538 -0.062990 0.669424 234 107 236 0.000000 -0.476254 0.879308
-0.166301 -0.015069 0.592750 234 107 236 0.000000 1.000000 0.000000
-0.218821 0.243136 0.566676 234 107 236 0.000000 0.000000 -1.000000
-0.038613 0.128942 0.618149 234 107 236 0.000000 0.000000 1.000000
-0.106147 0.040048 0.578687 234 107 236 0.000000 1.000000 0.000000
-0.239848 0.251185 0.618149 234 107 236 0.000000 0.000000 1.000000
-0.274427 0.107178 0.618149 234 107 236 0.000000 0.000000 1.000000
-0.003725 0.185559 0.618149 234 107 236 0.000000 0.000000 1.000000
-0.199797 -0.029829 0.668588 234 107 236 0.000000 0.476220 0.879326
-0.514884 0.297516 0.566676 234 107 236 0.000000 0.000000 -1.000000
-0.453973 0.174689 0.566676 234 107 236 0.000000 0.000000 -1.000000
-0.188104 0.091435 0.591444 234 107 236 0.000000 -1.000000 0.000000
-0.113025 -0.014088 0.594567 234 107 236 -0.006484 -0.999979 0.000000
-0.493672 0.212038 0.618149 234 107 236 0.000000 0.000000 1.000000
-0.182851 0.281019 0.585762 234 107 236 0.000000 1.000000 0.000000
-0.017670 0.141311 0.618149 234 107 236 0.000000 0.000000 1.000000
-0.059434 -0.019581 0.663038 234 107 236 0.000000 0.476220 0.879326
-0.340005 0.027595 0.618149 234 107 236 0.000000 0.000000 1.000000
-0.510879 0.276328 0.566676 234 107 236 0.000000 0.000000 -1.000000
-0.055055 0.191144 0.618149 234 107 236 0.000000 0.000000 1.000000
-0.073267 0.040048 0.574905 234 107 236 0.000000 1.000000 0.000000
-0.183571 0.272842 0.566676 234 107 236 0.000000 0.000000 -1.000000
-0.483274 0.148992 0.618149 234 107 236 0.000000 0.000000 1.000000
-0.500896 -0.011432 0.566676 234 107 236 0.000000 0.000000 -1.000000
-0.323611 -0.012722 0.600774 234 107 236 -0.006484 -0.999979 0.000000
-0.424189 -0.065942 0.667825 234 107 236 0.000000 -0.476254 0.879308
-0.439522 0.013489 0.566676 234 107 236 0.000000 0.000000 -1.000000
-0.295538 0.267839 0.566676 234 107 236 0.000000 0.000000 -1.000000
-0.469448 0.044212 0.618149 234 107 236 0.000000 0.000000 1.000000
-0.173081 0.145324 0.567552 234 107 236 1.000000 0.000000 0.000000
-0.163492 0.025858 0.618149 234 107 236 0.000000 0.000000 1.000000
-0.236473 0.219004 0.592295 234 107 236 0.000000 -1.000000 0.000000
-0.049041 0.112998 0.618149 234 107 236 0.000000 0.000000 1.000000
-0.455201 0.034184 0.618149 234 107 236 0.000000 0.000000 1.000000
-0.509676 0.000846 0.618149 234 107 236 0.000000 0.000000 1.000000
-0.122461 0.275514 0.566676 234 107 236 0.000000 0.000000 -1.000000
-0.247784 0.040048 0.604122 234 107 236 0.000000 1.000000 0.000000
-0.284353 0.005667 0.566676 234 107 236 0.000000 0.000000 -1.000000
-0.058063 0.209515 0.566676 234 107 236 0.000000 0.000000 -1.000000
-0.324307 0.247665 0.579883 234 107 236 -1.000000 0.000000 0.000000
-0.468997 -0.079293 0.657130 234 107 236 0.000000 -1.000000 0.000000
-0.452848 0.140732 0.589285 234 107 236 1.000000 0.000000 0.000000
-0.462002 0.180575 0.566676 234 107 236 0.000000 0.000000 -1.000000
-0.060553 0.137478 0.566676 234 107 236 0.000000 0.000000 -1.000000
0.023508 0.173793 0.593098 234 107 236 -1.000000 0.000000 0.000000
-0.170587 -0.015069 0.622492 234 107 236 0.000000 1.000000 0.000000
-0.086259 0.219004 0.613719 234 107 236 0.000000 -1.000000 0.000000
-0.151356 -0.015334 0.660738 234 107 236 0.000000 0.476220 0.879326
-0.420698 -0.015069 0.623291 234 107 236 0.000000 1.000000 0.000000
-0.289941 -0.012941 0.605393 234 107 236 -0.006484 -0.999979 0.000000
-0.452848 0.253895 0.591045 234 107 236 1.000000 0.000000 0.000000
-0.491828 0.185288 0.618149 234 107 236 0.000000 0.000000 1.000000
-0.261474 -0.015069 0.635533 234 107 236 0.000000 1.000000 0.000000
-0.251714 0.270117 0.618149 234 107 236 0.000000 0.000000 1.000000
-0.141275 0.254995 0.566676 234 107 236 0.000000 0.000000 -1.000000
0.008401 -0.012677 0.591862 234 107 236 0.999980 -0.006388 0.000000
-0.374597 -0.015069 0.653727 234 107 236 0.000000 1.000000 0.000000
-0.239834 0.219004 0.598297 234 107 236 0.000000 -1.000000 0.000000
-0.085925 -0.014264 0.616824 234 107 236 -0.006484 -0.999979 0.000000
-0.099961 -0.014173 0.611034 234 107 236 -0.006484 -0.999979 0.000000
-0.070613 0.077408 0.575031 234 107 236 -0.999944 0.010573 0.000000
-0.311285 -0.015069 0.562259 234 107 236 0.000000 1.000000 0.000000
-0.471536 0.168228 0.618149 234 107 236 0.000000 0.000000 1.000000
-0.040288 0.101811 0.566676 234 107 236 0.000000 0.000000 -1.000000
-0.203460 0.021949 0.618149 234 107 236 0.000000 0.000000 1.000000
-0.004732 0.265983 0.566676 234 107 236 0.000000 0.000000 -1.000000
0.023508 0.103218 0.567792 234 107 236 -1.000000 0.000000 0.000000
0.010150 -0.015069 0.573838 234 107 236 0.000000 1.000000 0.000000
-0.442348 -0.011953 0.601434 234 107 236 -0.006484 -0.999979 0.000000
-0.476254 0.151601 0.618149 234 107 236 0.000000 0.000000 1.000000
-0.123552 0.039412 0.618149 234 107 236 0.000000 0.000000 1.000000
-0.280473 -0.013002 0.571223 234 107 236 -0.006484 -0.999979 0.000000
-0.324307 0.236961 0.576435 234 107 236 -1.000000 0.000000 0.000000
-0.206907 0.219004 0.590833 234 107 236 0.000000 -1.000000 0.000000
-0.211599 0.160535 0.607786 234 107 236 0.000000 1.000000 0.000000
-0.324307 0.100883 0.615736 234 107 236 -1.000000 0.000000 0.000000
-0.194132 -0.015069 0.635059 234 107 236 0.000000 1.000000 0.000000
-0.317686 -0.015069 0.642547 234 107 236 0.000000 1.000000 0.000000
-0.065265 0.281019 0.615980 234 107 236 0.000000 1.000000 0.000000
-0.009115 0.032328 0.618149 234 107 236 0.000000 0.000000 1.000000
-0.198909 -0.013531 0.586232 234 107 236 -0.006484 -0.999979 0.000000
-0.185944 -0.015069 0.627252 234 107 236 0.000000 1.000000 0.000000
0.008714 0.036385 0.593707 234 107 236 0.999980 -0.006388 0.000000
-0.020485 0.211839 0.566676 234 107 236 0.000000 0.000000 -1.000000
-0.467132 -0.011792 0.597844 234 107 236 -0.006484 -0.999979 0.000000
-0.067851 -0.003203 0.618149 234 107 236 0.000000 0.000000 1.000000
-0.186864 0.160535 0.615539 234 107 236 0.000000 1.000000 0.000000
-0.268500 0.281019 0.588617 234 107 236 0.000000 1.000000 0.000000
-0.459096 -0.033194 0.670410 234 107 236 0.000000 0.476220 0.879326
-0.540941 -0.079293 0.655881 234 107 236 0.000000 -1.000000 0.000000
0.023508 0.015402 0.568694 234 107 236 -1.000000 0.000000 0.000000
-0.177159 -0.013672 0.586242 234 107 236 -0.006484 -0.999979 0.000000
-0.315287 0.091435 0.572342 234 107 236 0.000000 -1.000000 0.000000
-0.306732 -0.046968 0.672189 234 107 236 0.000000 0.000000 1.000000
-0.307699 -0.015069 0.614593 234 107 236 0.000000 1.000000 0.000000
-0.090125 0.281019 0.575675 234 107 236 0.000000 1.000000 0.000000
-0.470690 0.068761 0.618149 234 107 236 0.000000 0.000000 1.000000
-0.064692 -0.014401 0.597568 234 107 236 -0.006484 -0.999979 0.000000
0.008722 0.037566 0.584073 234 107 236 0.999980 -0.006388 0.000000
-0.383911 -0.012331 0.606991 234 107 236 -0.006484 -0.999979 0.000000
-0.007899 0.265766 0.618149 234 107 236 0.000000 0.000000 1.000000
0.010049 0.245297 0.571215 234 107 236 0.999980 -0.006388 0.000000
-0.416490 -0.021338 0.663990 234 107 236 0.000000 0.476220 0.879326
-0.293100 -0.076882 0.661901 234 107 236 0.000000 -0.476254 0.879308
-0.232220 0.160535 0.603577 234 107 236 0.000000 1.000000 0.000000
-0.072025 0.219004 0.601153 234 107 236 0.000000 -1.000000 0.000000
-0.159480 0.023963 0.566676 234 107 236 0.000000 0.000000 -1.000000
-0.211414 0.219004 0.609635 234 107 236 0.000000 -1.000000 0.000000
-0.211752 0.225315 0.618149 234 107 236 0.000000 0.000000 1.000000
-0.395125 -0.020264 0.663408 234 107 236 0.000000 0.476220 0.879326
-0.169773 -0.006407 0.566676 234 107 236 0.000000 0.000000 -1.000000
-0.452848 0.293071 0.606437 234 107 236 1.000000 0.000000 0.000000
-0.502331 0.155776 0.618149 234 107 236 0.000000 0.000000 1.000000
-0.266926 -0.045572 0.672189 234 107 236 0.000000 0.000000 1.000000
-0.454547 -0.015069 0.571630 234 107 236 0.000000 1.000000 0.000000
-0.190072 0.144916 0.566676 234 107 236 0.000000 0.000000 -1.000000
-0.110654 -0.015069 0.632753 234 107 236 0.000000 1.000000 0.000000
-0.183257 0.160535 0.599550 234 107 236 0.000000 1.000000 0.000000
-0.224047 0.095378 0.566676 234 107 236 0.000000 0.000000 -1.000000
-0.225602 -0.013358 0.608929 234 107 236 -0.006484 -0.999979 0.000000
-0.042746 0.174992 0.618149 234 107 236 0.000000 0.000000 1.000000
-0.213501 0.152777 0.566676 234 107 236 0.000000 0.000000 -1.000000
-0.026185 0.281019 0.575023 234 107 236 0.000000 1.000000 0.000000
-0.461436 0.267513 0.618149 234 107 236 0.000000 0.000000 1.000000
-0.452848 0.220745 0.611198 234 107 236 1.000000 0.000000 0.000000
-0.028192 0.119015 0.618149 234 107 236 0.000000 0.000000 1.000000
-0.286568 0.250510 0.566676 234 107 236 0.000000 0.000000 -1.000000
-0.284554 0.217918 0.566676 234 107 236 0.000000 0.000000 -1.000000
-0.389093 -0.012298 0.605398 234 107 236 -0.006484 -0.999979 0.000000
-0.076498 0.005543 0.618149 234 107 236 0.000000 0.000000 1.000000
-0.204343 0.160535 0.607087 234 107 236 0.000000 1.000000 0.000000
-0.446833 -0.048864 0.672189 234 107 236 0.000000 0.000000 1.000000
-0.242183 0.160535 0.614329 234 107 236 0.000000 1.000000 0.000000
-0.460157 -0.074052 0.663433 234 107 236 0.000000 -0.476254 0.879308
-0.323218 0.175217 0.618149 234 107 236 0.000000 0.000000 1.000000
0.004225 0.236285 0.566676 234 107 236 0.000000 0.000000 -1.000000
-0.200910 -0.061861 0.670035 234 107 236 0.000000 -0.476254 0.879308
-0.252090 0.040048 0.595272 234 107 236 0.000000 1.000000 0.000000
-0.039495 0.058534 0.566676 234 107 236 0.000000 0.000000 -1.000000
-0.173081 0.123584 0.587759 234 107 236 1.000000 0.000000 0.000000
-0.279508 -0.044227 0.672189 234 107 236 0.000000 0.000000 1.000000
-0.496694 0.246470 0.566676 234 107 236 0.000000 0.000000 -1.000000
-0.483889 0.049639 0.618149 234 107 236 0.000000 0.000000 1.000000
-0.033001 0.236843 0.566676 234 107 236 0.000000 0.000000 -1.000000
-0.354740 0.033984 0.618149 234 107 236 0.000000 0.000000 1.000000
-0.504106 0.082155 0.618149 234 107 236 0.000000 0.000000 1.000000
-0.324307 0.155522 0.606784 234 107 236 -1.000000 0.000000 0.000000
-0.394243 -0.015069 0.624369 234 107 236 0.000000 1.000000 0.000000
-0.065541 0.243652 0.618149 234 107 236 0.000000 0.000000 1.000000
-0.472951 0.158246 0.566676 234 107 236 0.000000 0.000000 -1.000000
-0.468869 0.273136 0.566676 234 107 236 0.000000 0.000000 -1.000000
-0.430012 -0.012033 0.595878 234 107 236 -0.006484 -0.999979 0.000000
-0.242010 -0.038918 0.672189 234 107 236 0.000000 0.000000 1.000000
-0.358358 -0.069099 0.666116 234 107 236 0.000000 -0.476254 0.879308
-0.350899 -0.012546 0.587181 234 107 236 -0.006484 -0.999979 0.000000
-0.572666 -0.079293 0.646030 234 107 236 0.000000 -1.000000 0.000000
-0.070052 0.130485 0.597207 234 107 236 -0.999944 0.010573 0.000000
-0.265253 0.275341 0.566676 234 107 236 0.000000 0.000000 -1.000000
-0.036880 -0.015069 0.611385 234 107 236 0.000000 1.000000 0.000000
-0.023547 0.239410 0.618149 234 107 236 0.000000 0.000000 1.000000
-0.218468 0.252716 0.566676 234 107 236 0.000000 0.000000 -1.000000
-0.218671 -0.042757 0.672189 234 107 236 0.000000 0.000000 1.000000
-0.379640 0.028955 0.618149 234 107 236 0.000000 0.000000 1.000000
-0.070853 0.054717 0.591625 234 107 236 -0.999944 0.010573 0.000000
-0.419604 -0.015069 0.583616 234 107 236 0.000000 1.000000 0.000000
-0.497185 -0.074123 0.663394 234 107 236 0.000000 -0.476254 0.879308
-0.027209 0.133040 0.566676 234 107 236 0.000000 0.000000 -1.000000
-0.155172 0.281019 0.590852 234 107 236 0.000000 1.000000 0.000000
-0.113154 0.254146 0.618149 234 107 236 0.000000 0.000000 1.000000
0.009674 0.186567 0.569823 234 107 236 0.999980 -0.006388 0.000000
-0.489494 0.209163 0.618149 234 107 236 0.000000 0.000000 1.000000
-0.056207 -0.014456 0.597697 234 107 236 -0.006484 -0.999979 0.000000
-0.246423 -0.040900 0.672189 234 107 236 0.000000 0.000000 1.000000
-0.205583 0.102994 0.618149 234 107 236 0.000000 0.000000 1.000000
-0.187895 0.137671 0.566676 234 107 236 0.000000 0.000000 -1.000000
-0.452848 0.078492 0.597646 234 107 236 1.000000 0.000000 0.000000
-0.404150 -0.015069 0.658584 234 107 236 0.000000 1.000000 0.000000
-0.478330 0.017084 0.618149 234 107 236 0.000000 0.000000 1.000000
-0.076623 0.220006 0.618149 234 107 236 0.000000 0.000000 1.000000
-0.238804 -0.069206 0.666058 234 107 236 0.000000 -0.476254 0.879308
-0.060904 0.281019 0.576101 234 107 236 0.000000 1.000000 0.000000
-0.048243 -0.063270 0.669272 234 107 236 0.000000 -0.476254 0.879308
-0.188474 0.147357 0.618149 234 107 236 0.000000 0.000000 1.000000
-0.004581 0.074097 0.618149 234 107 236 0.000000 0.000000 1.000000
-0.305654 -0.063484 0.669156 234 107 236 0.000000 -0.476254 0.879308
-0.499154 0.209139 0.618149 234 107 236 0.000000 0.000000 1.000000
-0.516668 0.086423 0.618149 234 107 236 0.000000 0.000000 1.000000
-0.390365 -0.015069 0.641869 234 107 236 0.000000 1.000000 0.000000
-0.005094 -0.015069 0.601746 234 107 236 0.000000 1.000000 0.000000
-0.121515 0.020394 0.618149 234 107 236 0.000000 0.000000 1.000000
-0.465350 0.129319 0.618149 234 107 236 0.000000 0.000000 1.000000
-0.253131 -0.015069 0.575077 234 107 236 0.000000 1.000000 0.000000
-0.195579 0.224036 0.566676 234 107 236 0.000000 0.000000 -1.000000
-0.090161 -0.015069 0.658244 234 107 236 0.000000 1.000000 0.000000
-0.518553 -0.029826 0.668587 234 107 236 0.000000 0.476220 0.879326
-0.477024 -0.031596 0.669545 234 107 236 0.000000 0.476220 0.879326
-0.070991 0.041676 0.611271 234 107 236 -0.999944 0.010573 0.000000
-0.403325 -0.012206 0.591870 234 107 236 -0.006484 -0.999979 0.000000
-0.122943 0.234666 0.618149 234 107 236 0.000000 0.000000 1.000000
-0.452848 0.076305 0.610923 234 107 236 1.000000 0.000000 0.000000
0.002071 0.155368 0.618149 234 107 236 0.000000 0.000000 1.000000
-0.319250 0.281019 0.590975 234 107 236 0.000000 1.000000 0.000000
-0.316618 0.231085 0.566676 234 107 236 0.000000 0.000000 -1.000000
0.023508 0.135628 0.602907 234 107 236 -1.000000 0.000000 0.000000
-0.322868 -0.011971 0.618149 234 107 236 0.000000 0.000000 1.000000
-0.094394 -0.013314 0.618149 234 107 236 0.000000 0.000000 1.000000
-0.312995 0.040048 0.586193 234 107 236 0.000000 1.000000 0.000000
-0.018494 0.098728 0.566676 234 107 236 0.000000 0.000000 -1.000000
-0.202243 0.096162 0.618149 234 107 236 0.000000 0.000000 1.000000
-0.187858 -0.015069 0.653600 234 107 236 0.000000 1.000000 0.000000
-0.322789 -0.015069 0.600055 234 107 236 0.000000 1.000000 0.000000
-0.416475 -0.015069 0.624089 234 107 236 0.000000 1.000000 0.000000
-0.316814 -0.015069 0.610361 234 107 236 0.000000 1.000000 0.000000
-0.488864 0.017804 0.566676 234 107 236 0.000000 0.000000 -1.000000
-0.125610 -0.007847 0.566676 234 107 236 0.000000 0.000000 -1.000000
-0.277447 0.040048 0.598697 234 107 236 0.000000 1.000000 0.000000
-0.434970 -0.015069 0.620870 234 107 236 0.000000 1.000000 0.000000
-0.220126 0.160535 0.585639 234 107 236 0.000000 1.000000 0.000000
-0.466823 0.254223 0.566676 234 107 236 0.000000 0.000000 -1.000000
-0.198930 0.105216 0.618149 234 107 236 0.000000 0.000000 1.000000
-0.192444 -0.033558 0.670608 234 107 236 0.000000 0.476220 0.879326
-0.100481 -0.061906 0.670011 234 107 236 0.000000 -0.476254 0.879308
-0.491683 0.293743 0.618149 234 107 236 0.000000 0.000000 1.000000
-0.452848 0.122181 0.568587 234 107 236 1.000000 0.000000 0.000000
-0.069547 0.178248 0.607698 234 107 236 -0.999944 0.010573 0.000000
-0.070209 0.115606 0.570905 234 107 236 -0.999944 0.010573 0.000000
-0.305379 -0.015069 0.623886 234 107 236 0.000000 1.000000 0.000000
-0.177715 -0.015069 0.600927 234 107 236 0.000000 1.000000 0.000000
-0.264367 0.132339 0.566676 234 107 236 0.000000 0.000000 -1.000000
-0.508219 0.070404 0.618149 234 107 236 0.000000 0.000000 1.000000
-0.231284 0.160535 0.591352 234 107 236 0.000000 1.000000 0.000000
-0.146005 -0.013874 0.592336 234 107 236 -0.006484 -0.999979 0.000000
-0.204345 -0.013496 0.617912 234 107 236 -0.006484 -0.999979 0.000000
-0.022616 -0.055485 0.672189 234 107 236 0.000000 0.000000 1.000000
-0.507917 0.149886 0.618149 234 107 236 0.000000 0.000000 1.000000
-0.393415 -0.065897 0.667849 234 107 236 0.000000 -0.476254 0.879308
-0.017235 -0.032548 0.670061 234 107 236 0.000000 0.476220 0.879326
-0.138615 0.219004 0.592513 234 107 236 0.000000 -1.000000 0.000000
-0.319009 -0.063859 0.668954 234 107 236 0.000000 -0.476254 0.879308
0.021947 -0.015069 0.581337 234 107 236 0.000000 1.000000 0.000000
-0.205568 0.135681 0.618149 234 107 236 0.000000 0.000000 1.000000
-0.470433 0.250408 0.566676 234 107 236 0.000000 0.000000 -1.000000
-0.299819 0.232418 0.566676 234 107 236 0.000000 0.000000 -1.000000
-0.229884 0.221140 0.566676 234 107 236 0.000000 0.000000 -1.000000
-0.041869 0.018295 0.618149 234 107 236 0.000000 0.000000 1.000000
-0.262539 -0.079293 0.652656 234 107 236 0.000000 -1.000000 0.000000
-0.180822 0.160535 0.611303 234 107 236 0.000000 1.000000 0.000000
-0.572448 -0.079293 0.642776 234 107 236 0.000000 -1.000000 0.000000
-0.452848 0.059759 0.611416 234 107 236 1.000000 0.000000 0.000000
0.000337 -0.015069 0.623781 234 107 236 0.000000 1.000000 0.000000
-0.065624 0.087800 0.566676 234 107 236 0.000000 0.000000 -1.000000
-0.213292 -0.015069 0.594989 234 107 236 0.000000 1.000000 0.000000
-0.158167 0.040048 0.574709 234 107 236 0.000000 1.000000 0.000000
-0.485896 -0.079293 0.660578 234 107 236 0.000000 -1.000000 0.000000
-0.112463 0.249953 0.566676 234 107 236 0.000000 0.000000 -1.000000
0.009272 0.123692 0.581961 234 107 236 0.999980 -0.006388 0.000000
-0.145111 0.274940 0.566676 234 107 236 0.000000 0.000000 -1.000000
-0.449912 -0.011904 0.583052 234 107 236 -0.006484 -0.999979 0.000000
-0.067747 -0.040580 0.672189 234 107 236 0.000000 0.000000 1.000000
-0.063188 0.081404 0.618149 234 107 236 0.000000 0.000000 1.000000
-0.050617 -0.015069 0.578607 234 107 236 0.000000 1.000000 0.000000
-0.097033 -0.003758 0.618149 234 107 236 0.000000 0.000000 1.000000
-0.069948 0.140345 0.582772 234 107 236 -0.999944 0.010573 0.000000
-0.084386 -0.015069 0.637570 234 107 236 0.000000 1.000000 0.000000
-0.452848 0.288406 0.588205 234 107 236 1.000000 0.000000 0.000000
-0.088855 0.280652 0.618149 234 107 236 0.000000 0.000000 1.000000
-0.069188 0.212215 0.607670 234 107 236 -0.999944 0.010573 0.000000
-0.209105 0.102117 0.618149 234 107 236 0.000000 0.000000 1.000000
0.027136 0.160746 0.566676 234 107 236 0.000000 0.000000 -1.000000
-0.452848 0.301508 0.593239 234 107 236 1.000000 0.000000 0.000000
-0.176436 0.015702 0.618149 234 107 236 0.000000 0.000000 1.000000
-0.310653 0.040048 0.577055 234 107 236 0.000000 1.000000 0.000000
-0.069985 0.136834 0.584767 234 107 236 -0.999944 0.010573 0.000000
-0.278557 0.104750 0.566676 234 107 236 0.000000 0.000000 -1.000000
-0.331912 0.040048 0.577515 234 107 236 0.000000 1.000000 0.000000
-0.471104 -0.015069 0.569262 234 107 236 0.000000 1.000000 0.000000
0.010215 0.271252 0.615508 234 107 236 0.999980 -0.006388 0.000000
-0.044636 0.151126 0.618149 234 107 236 0.000000 0.000000 1.000000
-0.495588 -0.015069 0.633078 234 107 236 0.000000 1.000000 0.000000
-0.132882 0.219004 0.580608 234 107 236 0.000000 -1.000000 0.000000
-0.069643 0.169195 0.594906 234 107 236 -0.999944 0.010573 0.000000
0.023508 0.170706 0.578825 234 107 236 -1.000000 0.000000 0.000000
-0.439254 -0.006909 0.618149 234 107 236 0.000000 0.000000 1.000000
-0.206976 0.219004 0.601747 234 107 236 0.000000 -1.000000 0.000000
-0.318209 -0.015069 0.645759 234 107 236 0.000000 1.000000 0.000000
-0.315129 0.164540 0.618149 234 107 236 0.000000 0.000000 1.000000
-0.195420 0.265640 0.566676 234 107 236 0.000000 0.000000 -1.000000
-0.224315 0.040048 0.617308 234 107 236 0.000000 1.000000 0.000000
-0.306038 -0.055192 0.672189 234 107 236 0.000000 0.000000 1.000000
-0.559874 -0.079293 0.637281 234 107 236 0.000000 -1.000000 0.000000
-0.120612 0.001356 0.618149 234 107 236 0.000000 0.000000 1.000000
-0.254950 0.131440 0.566676 234 107 236 0.000000 0.000000 -1.000000
-0.068588 0.263640 0.566676 234 107 236 0.000000 0.000000 -1.000000
-0.044967 0.081712 0.566676 234 107 236 0.000000 0.000000 -1.000000
-0.040160 -0.079293 0.648167 234 107 236 0.000000 -1.000000 0.000000
-0.036895 0.198680 0.618149 234 107 236 0.000000 0.000000 1.000000
-0.339763 0.039695 0.566676 234 107 236 0.000000 0.000000 -1.000000
-0.467821 0.181333 0.566676 234 107 236 0.000000 0.000000 -1.000000
-0.323376 0.130510 0.618149 234 107 236 0.000000 0.000000 1.000000
0.008280 0.104096 0.618149 234 107 236 0.000000 0.000000 1.000000
-0.239679 0.160535 0.576160 234 107 236 0.000000 1.000000 0.000000
-0.261197 0.091435 0.609636 234 107 236 0.000000 -1.000000 0.000000
-0.194693 -0.015069 0.591733 234 107 236 0.000000 1.000000 0.000000
-0.232976 0.234565 0.566676 234 107 236 0.000000 0.000000 -1.000000
-0.466095 0.155268 0.566676 234 107 236 0.000000 0.000000 -1.000000
