ply
format ascii 1.0
element vertex 707
property float x
property float y
property float z
property uchar red
property uchar green
property uchar blue
property float nx
property float ny
property float nz
end_header
-0.398380 -0.866714 -0.273300 9 54 243 -0.944515 0.201310 0.259550
-0.375159 -0.841981 -0.309182 9 54 243 0.000000 0.000000 1.000000
-0.343429 -0.756113 -0.309182 9 54 243 0.000000 0.000000 1.000000
-0.337065 -0.870372 -0.279848 9 54 243 0.976667 -0.208152 0.052867
-0.336407 -0.796099 -0.309182 9 54 243 0.000000 0.000000 1.000000
-0.399050 -0.865316 -0.287420 9 54 243 -0.976703 0.208172 -0.052114
-0.369471 -0.800677 -0.309182 9 54 243 0.000000 0.000000 -1.000000
-0.333358 -0.843923 -0.296521 9 54 243 0.944538 -0.201324 -0.259455
-0.387834 -0.819749 -0.296294 9 54 243 -0.951514 0.165112 -0.259538
-0.324534 -0.795920 -0.295440 9 54 243 0.951536 -0.165103 -0.259460
-0.378883 -0.777594 -0.300663 9 54 243 0.919278 -0.159510 0.359839
-0.321796 -0.772176 -0.299414 9 54 243 -0.919251 0.159505 0.359912
-0.326818 -0.818162 -0.287454 9 54 243 0.983915 -0.170734 -0.052541
-0.357608 -0.858473 -0.257290 9 54 243 0.000000 0.000000 1.000000
-0.387259 -0.850233 -0.309182 9 54 243 0.000000 0.000000 1.000000
-0.344713 -0.813381 -0.309182 9 54 243 0.000000 0.000000 -1.000000
-0.353943 -0.765166 -0.257290 9 54 243 0.000000 0.000000 1.000000
-0.327499 -0.822086 -0.287447 9 54 243 0.983915 -0.170734 -0.052541
-0.374944 -0.839382 -0.309182 9 54 243 0.000000 0.000000 -1.000000
-0.324605 -0.784634 -0.265402 9 54 243 0.919386 -0.159539 0.359550
-0.331347 -0.807016 -0.260146 9 54 243 -0.824618 0.143105 -0.547290
-0.373401 -0.797996 -0.257290 9 54 243 0.000000 0.000000 -1.000000
-0.318095 -0.763696 -0.274222 9 54 243 -0.973093 0.168843 -0.156788
-0.342596 -0.831813 -0.309182 9 54 243 0.000000 0.000000 1.000000
-0.342334 -0.755150 -0.309182 9 54 243 0.000000 0.000000 1.000000
-0.338809 -0.860524 -0.301426 9 54 243 0.870297 -0.185485 -0.456266
-0.336485 -0.834763 -0.259660 9 54 243 -0.824618 0.143105 -0.547290
-0.388568 -0.871759 -0.257290 9 54 243 0.000000 0.000000 -1.000000
-0.368082 -0.866559 -0.257290 9 54 243 0.000000 0.000000 1.000000
-0.390185 -0.822545 -0.280071 9 54 243 -0.983948 0.170737 0.051912
-0.388022 -0.820187 -0.295885 9 54 243 0.951514 -0.165112 0.259538
-0.346184 -0.800678 -0.309182 9 54 243 0.000000 0.000000 1.000000
-0.369359 -0.864911 -0.309182 9 54 243 0.000000 0.000000 -1.000000
-0.394695 -0.852263 -0.271100 9 54 243 -0.944515 0.201310 0.259550
-0.318760 -0.759464 -0.297295 9 54 243 0.919251 -0.159505 -0.359912
-0.351427 -0.862383 -0.309182 9 54 243 0.000000 0.000000 1.000000
-0.362001 -0.756976 -0.309182 9 54 243 0.000000 0.000000 1.000000
-0.365634 -0.806543 -0.257290 9 54 243 0.000000 0.000000 1.000000
-0.339967 -0.846479 -0.308475 9 54 243 0.818554 -0.174458 -0.547297
-0.378528 -0.788614 -0.261308 9 54 243 -0.876906 0.152157 0.455942
-0.359013 -0.814506 -0.257290 9 54 243 0.000000 0.000000 1.000000
-0.327421 -0.822318 -0.281209 9 54 243 0.983899 -0.170722 0.052876
-0.336034 -0.810465 -0.309182 9 54 243 0.000000 0.000000 1.000000
-0.365735 -0.864708 -0.309182 9 54 243 0.000000 0.000000 -1.000000
-0.350624 -0.835185 -0.309182 9 54 243 0.000000 0.000000 -1.000000
-0.328836 -0.805755 -0.264276 9 54 243 0.876744 -0.152140 0.456260
-0.362264 -0.844215 -0.309182 9 54 243 0.000000 0.000000 -1.000000
-0.332964 -0.848143 -0.291383 9 54 243 0.966000 -0.205897 -0.156364
-0.329760 -0.821724 -0.297796 9 54 243 -0.919251 0.159505 0.359912
-0.383851 -0.839512 -0.309182 9 54 243 0.000000 0.000000 -1.000000
-0.352324 -0.752253 -0.257290 9 54 243 0.000000 0.000000 -1.000000
-0.346751 -0.788297 -0.257290 9 54 243 0.000000 0.000000 1.000000
-0.375513 -0.864975 -0.309182 9 54 243 0.000000 0.000000 1.000000
-0.340887 -0.798802 -0.257290 9 54 243 0.000000 0.000000 -1.000000
-0.324910 -0.803327 -0.291873 9 54 243 -0.973093 0.168843 0.156788
-0.339642 -0.792425 -0.309182 9 54 243 0.000000 0.000000 1.000000
-0.360019 -0.815786 -0.257290 9 54 243 0.000000 0.000000 1.000000
-0.359007 -0.758966 -0.309182 9 54 243 0.000000 0.000000 1.000000
-0.365263 -0.839596 -0.257290 9 54 243 0.000000 0.000000 1.000000
-0.332586 -0.824483 -0.303158 9 54 243 -0.876744 0.152140 0.456260
-0.391343 -0.842422 -0.267452 9 54 243 0.912524 -0.194490 -0.359823
-0.323965 -0.791464 -0.296185 9 54 243 -0.951571 0.165113 0.259326
-0.365610 -0.831357 -0.257290 9 54 243 0.000000 0.000000 1.000000
-0.332855 -0.839520 -0.297747 9 54 243 -0.912492 0.194477 0.359913
-0.358510 -0.795934 -0.257290 9 54 243 0.000000 0.000000 1.000000
-0.381599 -0.822939 -0.309182 9 54 243 0.000000 0.000000 -1.000000
-0.384258 -0.796361 -0.294527 9 54 243 -0.951514 0.165112 -0.259538
-0.338358 -0.869626 -0.294783 9 54 243 -0.944538 0.201324 0.259455
-0.356575 -0.839021 -0.257290 9 54 243 0.000000 0.000000 -1.000000
-0.387439 -0.806639 -0.286156 9 54 243 -0.983948 0.170737 -0.051912
-0.390473 -0.841190 -0.300560 9 54 243 0.912524 -0.194490 0.359823
-0.334257 -0.833056 -0.303508 9 54 243 0.876744 -0.152140 -0.456260
-0.366152 -0.802510 -0.257290 9 54 243 0.000000 0.000000 1.000000
-0.340960 -0.796659 -0.257290 9 54 243 0.000000 0.000000 -1.000000
-0.331150 -0.835452 -0.271923 9 54 243 -0.951536 0.165103 -0.259460
-0.383315 -0.829061 -0.308557 9 54 243 -0.818336 0.174420 -0.547635
-0.373576 -0.793841 -0.309182 9 54 243 0.000000 0.000000 -1.000000
-0.328803 -0.821385 -0.294889 9 54 243 -0.951536 0.165103 0.259460
-0.386157 -0.834072 -0.305906 9 54 243 -0.818336 0.174420 -0.547635
-0.329758 -0.804590 -0.262118 9 54 243 -0.876744 0.152140 -0.456260
-0.397122 -0.867334 -0.268642 9 54 243 0.912524 -0.194490 -0.359823
-0.336482 -0.815041 -0.257290 9 54 243 0.000000 0.000000 -1.000000
-0.326599 -0.797647 -0.266077 9 54 243 -0.919386 0.159539 -0.359550
-0.315589 -0.730390 -0.301871 154 80 15 -0.876744 0.152140 0.456260
-0.300827 -0.644143 -0.299530 154 80 15 -0.924806 0.124320 0.359554
-0.357848 -0.653092 -0.265922 154 80 15 -0.924805 0.124327 0.359554
-0.353138 -0.672270 -0.257290 154 80 15 0.000000 0.000000 -1.000000
-0.347864 -0.707366 -0.309182 154 80 15 0.000000 0.000000 1.000000
-0.306042 -0.675015 -0.264483 154 80 15 0.876917 -0.152181 0.455914
-0.365359 -0.722839 -0.307841 154 80 15 -0.824246 0.143019 -0.547873
-0.303081 -0.678604 -0.275769 154 80 15 -0.973093 0.168843 -0.156788
-0.374387 -0.731924 -0.287793 154 80 15 0.983948 -0.170737 0.051912
-0.359149 -0.654562 -0.297714 154 80 15 0.924805 -0.124327 0.359554
-0.342607 -0.651717 -0.257290 154 80 15 0.000000 0.000000 -1.000000
-0.322115 -0.732760 -0.257290 154 80 15 0.000000 0.000000 1.000000
-0.317437 -0.720905 -0.258591 154 80 15 -0.824245 0.143021 -0.547873
-0.328180 -0.732723 -0.257290 154 80 15 0.000000 0.000000 1.000000
-0.314424 -0.679307 -0.309182 154 80 15 0.000000 0.000000 1.000000
-0.353816 -0.671619 -0.257290 154 80 15 0.000000 0.000000 -1.000000
-0.315960 -0.704428 -0.257290 154 80 15 0.000000 0.000000 1.000000
-0.334104 -0.676708 -0.309182 154 80 15 0.000000 0.000000 -1.000000
-0.366222 -0.691890 -0.294190 154 80 15 0.951472 -0.165100 0.259699
-0.355534 -0.629869 -0.268000 154 80 15 0.924805 -0.124327 -0.359554
-0.330584 -0.711804 -0.257290 154 80 15 0.000000 0.000000 1.000000
-0.312338 -0.724540 -0.296134 154 80 15 -0.951571 0.165113 0.259326
-0.358248 -0.690634 -0.309182 154 80 15 0.000000 0.000000 -1.000000
-0.309741 -0.715440 -0.274102 154 80 15 -0.973093 0.168843 -0.156788
-0.335789 -0.650776 -0.257290 154 80 15 0.000000 0.000000 -1.000000
-0.343488 -0.741513 -0.257290 154 80 15 0.000000 0.000000 -1.000000
-0.299684 -0.657521 -0.287996 154 80 15 -0.978828 0.131590 0.156781
-0.366720 -0.701952 -0.268267 154 80 15 -0.919387 0.159538 0.359550
-0.326298 -0.691548 -0.257290 154 80 15 0.000000 0.000000 1.000000
-0.316066 -0.726533 -0.262398 154 80 15 -0.876917 0.152181 -0.455914
-0.304701 -0.663562 -0.264080 154 80 15 0.882091 -0.118575 0.455912
-0.326045 -0.679260 -0.257290 154 80 15 0.000000 0.000000 1.000000
-0.324789 -0.718611 -0.257290 154 80 15 0.000000 0.000000 -1.000000
-0.376214 -0.741389 -0.282157 154 80 15 0.983938 -0.170728 -0.052143
-0.363573 -0.724955 -0.257290 154 80 15 0.000000 0.000000 -1.000000
-0.310698 -0.714684 -0.270081 154 80 15 -0.951571 0.165113 -0.259326
-0.327072 -0.733965 -0.309182 154 80 15 0.000000 0.000000 1.000000
-0.340410 -0.742371 -0.257290 154 80 15 0.000000 0.000000 -1.000000
-0.313287 -0.721450 -0.300167 154 80 15 0.919386 -0.159539 -0.359550
-0.358861 -0.636039 -0.278257 154 80 15 0.978809 -0.131588 -0.156901
-0.360362 -0.651551 -0.291857 154 80 15 -0.978827 0.131594 -0.156781
-0.374500 -0.740946 -0.271425 154 80 15 -0.951514 0.165112 0.259538
-0.312033 -0.661198 -0.257290 154 80 15 0.000000 0.000000 1.000000
-0.348444 -0.689191 -0.257290 154 80 15 0.000000 0.000000 1.000000
-0.315154 -0.744836 -0.293546 154 80 15 -0.951536 0.165103 0.259460
-0.372989 -0.740320 -0.299200 154 80 15 0.919387 -0.159538 0.359550
-0.319739 -0.684922 -0.309182 154 80 15 0.000000 0.000000 -1.000000
-0.321927 -0.630402 -0.257290 154 80 15 0.000000 0.000000 -1.000000
-0.347710 -0.649537 -0.257290 154 80 15 0.000000 0.000000 1.000000
-0.308677 -0.685133 -0.262791 154 80 15 -0.876917 0.152181 -0.455914
-0.302700 -0.679718 -0.285666 154 80 15 -0.983915 0.170734 0.052541
-0.363801 -0.683738 -0.297585 154 80 15 -0.919387 0.159538 -0.359550
-0.315458 -0.703129 -0.257290 154 80 15 0.000000 0.000000 1.000000
-0.304640 -0.659350 -0.263102 154 80 15 -0.882091 0.118575 -0.455912
-0.312879 -0.726933 -0.269876 154 80 15 0.951571 -0.165113 0.259326
-0.360036 -0.644214 -0.279002 154 80 15 -0.989737 0.133057 0.052128
-0.358019 -0.631168 -0.277091 154 80 15 -0.978827 0.131594 0.156781
-0.338928 -0.739557 -0.309182 154 80 15 0.000000 0.000000 1.000000
-0.309845 -0.630162 -0.257290 154 80 15 0.000000 0.000000 -1.000000
-0.359302 -0.647685 -0.272381 154 80 15 0.957078 -0.128663 -0.259708
-0.368812 -0.715581 -0.298902 154 80 15 0.919387 -0.159538 0.359550
-0.317766 -0.640258 -0.309182 154 80 15 0.000000 0.000000 -1.000000
-0.300871 -0.638542 -0.264982 154 80 15 -0.882091 0.118575 -0.455912
-0.332051 -0.679624 -0.257290 154 80 15 0.000000 0.000000 -1.000000
-0.329880 -0.650522 -0.257290 154 80 15 0.000000 0.000000 1.000000
-0.349590 -0.659921 -0.309182 154 80 15 0.000000 0.000000 1.000000
-0.354217 -0.646461 -0.260604 154 80 15 0.829104 -0.111457 -0.547873
-0.308686 -0.707596 -0.272951 154 80 15 0.951571 -0.165113 0.259326
-0.344728 -0.729238 -0.257290 154 80 15 0.000000 0.000000 1.000000
-0.361078 -0.701088 -0.308603 154 80 15 0.824401 -0.143055 0.547630
-0.350547 -0.742774 -0.309182 154 80 15 0.000000 0.000000 -1.000000
-0.360634 -0.651975 -0.275956 154 80 15 0.978827 -0.131594 -0.156781
-0.340360 -0.696741 -0.257290 154 80 15 0.000000 0.000000 -1.000000
-0.324756 -0.639652 -0.309182 154 80 15 0.000000 0.000000 1.000000
-0.336629 -0.721426 -0.309182 154 80 15 0.000000 0.000000 1.000000
-0.310944 -0.663792 -0.257290 154 80 15 0.000000 0.000000 -1.000000
-0.312733 -0.634643 -0.309182 154 80 15 0.000000 0.000000 1.000000
-0.369478 -0.746584 -0.307843 154 80 15 -0.824401 0.143055 -0.547630
-0.337915 -0.733134 -0.257290 154 80 15 0.000000 0.000000 -1.000000
-0.354919 -0.685300 -0.257290 154 80 15 0.000000 0.000000 -1.000000
-0.300485 -0.633732 -0.301995 154 80 15 -0.882091 0.118575 0.455912
-0.355985 -0.639890 -0.265695 154 80 15 -0.924805 0.124327 0.359554
-0.341454 -0.661272 -0.257290 154 80 15 0.000000 0.000000 -1.000000
-0.367646 -0.743315 -0.309182 154 80 15 0.000000 0.000000 1.000000
-0.295875 -0.597201 -0.263894 189 220 5 0.882091 -0.118575 0.455912
-0.313492 -0.557069 -0.309182 189 220 5 0.000000 0.000000 -1.000000
-0.307653 -0.579353 -0.257290 189 220 5 0.000000 0.000000 1.000000
-0.309552 -0.563321 -0.309182 189 220 5 0.000000 0.000000 1.000000
-0.345387 -0.601850 -0.257290 189 220 5 0.000000 0.000000 1.000000
-0.331234 -0.558955 -0.257290 189 220 5 0.000000 0.000000 1.000000
-0.334942 -0.590846 -0.309182 189 220 5 0.000000 0.000000 -1.000000
-0.293386 -0.533207 -0.257290 189 220 5 0.000000 0.000000 1.000000
-0.340748 -0.505115 -0.291401 189 220 5 0.978809 -0.131588 0.156901
-0.319601 -0.519057 -0.309182 189 220 5 0.000000 0.000000 -1.000000
-0.295967 -0.620810 -0.294314 189 220 5 0.957181 -0.128688 -0.259315
-0.347106 -0.556273 -0.293748 189 220 5 0.957144 -0.128679 0.259456
-0.296980 -0.571441 -0.309182 189 220 5 0.000000 0.000000 1.000000
-0.324159 -0.607241 -0.257290 189 220 5 0.000000 0.000000 1.000000
-0.290122 -0.587129 -0.286406 189 220 5 0.989728 -0.133055 -0.052287
-0.343978 -0.531321 -0.292910 189 220 5 -0.957144 0.128679 -0.259456
-0.308239 -0.516129 -0.309182 189 220 5 0.000000 0.000000 -1.000000
-0.352572 -0.593015 -0.291365 189 220 5 0.978827 -0.131594 0.156781
-0.309533 -0.522371 -0.309182 189 220 5 0.000000 0.000000 -1.000000
-0.310285 -0.620137 -0.309182 189 220 5 0.000000 0.000000 1.000000
-0.289977 -0.543165 -0.305221 189 220 5 -0.882202 0.118597 0.455691
-0.325205 -0.588939 -0.257290 189 220 5 0.000000 0.000000 1.000000
-0.309816 -0.526731 -0.309182 189 220 5 0.000000 0.000000 -1.000000
-0.343739 -0.568448 -0.260620 189 220 5 -0.829246 0.111484 0.547652
-0.315926 -0.618527 -0.257290 189 220 5 0.000000 0.000000 1.000000
-0.345307 -0.541933 -0.273200 189 220 5 0.957144 -0.128679 -0.259456
-0.287857 -0.531964 -0.304032 189 220 5 -0.882202 0.118597 0.455691
-0.346266 -0.618906 -0.309182 189 220 5 0.000000 0.000000 1.000000
-0.312961 -0.539774 -0.309182 189 220 5 0.000000 0.000000 1.000000
-0.282678 -0.524408 -0.293097 189 220 5 -0.957041 0.128653 0.259849
-0.286560 -0.554398 -0.273929 189 220 5 0.957181 -0.128688 0.259315
-0.355031 -0.612864 -0.292579 189 220 5 0.957144 -0.128679 0.259456
-0.291478 -0.543596 -0.307428 189 220 5 -0.829025 0.111444 0.547994
-0.299515 -0.568550 -0.309182 189 220 5 0.000000 0.000000 1.000000
-0.338227 -0.572465 -0.257290 189 220 5 0.000000 0.000000 1.000000
-0.330560 -0.626298 -0.309182 189 220 5 0.000000 0.000000 1.000000
-0.342376 -0.622409 -0.309182 189 220 5 0.000000 0.000000 -1.000000
-0.351454 -0.593680 -0.270217 189 220 5 -0.957078 0.128663 0.259708
-0.326911 -0.605959 -0.257290 189 220 5 0.000000 0.000000 1.000000
-0.330229 -0.514730 -0.257290 189 220 5 0.000000 0.000000 -1.000000
-0.334701 -0.585887 -0.257290 189 220 5 0.000000 0.000000 1.000000
-0.342909 -0.555329 -0.262281 189 220 5 -0.882089 0.118588 0.455912
-0.287223 -0.534729 -0.264386 189 220 5 0.882202 -0.118597 0.455691
-0.318788 -0.589919 -0.257290 189 220 5 0.000000 0.000000 1.000000
-0.339171 -0.609606 -0.309182 189 220 5 0.000000 0.000000 -1.000000
-0.347827 -0.555276 -0.277160 189 220 5 -0.978809 0.131588 0.156901
-0.286349 -0.533053 -0.265774 189 220 5 -0.924768 0.124312 -0.359654
-0.325043 -0.604546 -0.257290 189 220 5 0.000000 0.000000 1.000000
-0.349777 -0.578456 -0.294893 189 220 5 0.957078 -0.128663 0.259708
-0.297684 -0.584527 -0.257980 189 220 5 0.829025 -0.111444 0.547994
-0.290828 -0.531555 -0.308894 189 220 5 0.829025 -0.111444 -0.547994
-0.294584 -0.572830 -0.306181 189 220 5 0.829103 -0.111459 -0.547873
-0.284692 -0.532197 -0.296658 189 220 5 -0.957041 0.128653 0.259849
-0.298804 -0.519688 -0.309182 189 220 5 0.000000 0.000000 1.000000
-0.339003 -0.512093 -0.266206 189 220 5 0.924767 -0.124319 -0.359654
-0.286396 -0.560458 -0.283733 189 220 5 -0.989716 0.133046 0.052547
-0.281527 -0.511916 -0.271428 189 220 5 0.957041 -0.128653 0.259849
-0.339409 -0.565368 -0.257290 189 220 5 0.000000 0.000000 -1.000000
-0.353444 -0.598647 -0.290648 189 220 5 0.978827 -0.131594 0.156781
-0.350053 -0.606853 -0.303772 189 220 5 0.882089 -0.118588 0.455912
-0.299115 -0.596548 -0.308213 189 220 5 0.829025 -0.111444 -0.547994
-0.280450 -0.515439 -0.285744 189 220 5 -0.989728 0.133055 0.052287
-0.342951 -0.563058 -0.305947 189 220 5 -0.829246 0.111484 -0.547652
-0.281311 -0.517445 -0.275609 189 220 5 -0.978872 0.131604 -0.156491
-0.285186 -0.532908 -0.268712 189 220 5 -0.924768 0.124312 -0.359654
-0.283273 -0.508132 -0.265264 189 220 5 0.928929 -0.088946 0.359415
-0.295669 -0.574936 -0.259078 189 220 5 -0.829025 0.111444 -0.547994
-0.343949 -0.617970 -0.257290 189 220 5 0.000000 0.000000 -1.000000
-0.344082 -0.533958 -0.293833 189 220 5 0.957144 -0.128679 0.259456
-0.302556 -0.603120 -0.309182 189 220 5 0.000000 0.000000 -1.000000
-0.332122 -0.542124 -0.257290 189 220 5 0.000000 0.000000 -1.000000
-0.299941 -0.590719 -0.309182 189 220 5 0.000000 0.000000 -1.000000
-0.312378 -0.611604 -0.309182 189 220 5 0.000000 0.000000 1.000000
-0.340639 -0.520958 -0.299125 189 220 5 -0.924767 0.124319 -0.359654
-0.326998 -0.544752 -0.257290 189 220 5 0.000000 0.000000 1.000000
-0.342887 -0.516437 -0.286934 189 220 5 0.989726 -0.133049 0.052352
-0.292385 -0.590755 -0.296001 189 220 5 -0.957041 0.128653 0.259849
-0.311178 -0.587124 -0.257290 189 220 5 0.000000 0.000000 -1.000000
-0.329568 -0.560302 -0.257290 189 220 5 0.000000 0.000000 1.000000
-0.305169 -0.582283 -0.257290 189 220 5 0.000000 0.000000 1.000000
-0.308879 -0.505303 -0.257290 189 220 5 0.000000 0.000000 1.000000
-0.291155 -0.543857 -0.259586 189 220 5 0.829025 -0.111444 0.547994
-0.325201 -0.600581 -0.257290 189 220 5 0.000000 0.000000 -1.000000
-0.290839 -0.592634 -0.285952 189 220 5 -0.989728 0.133055 0.052287
-0.338827 -0.556069 -0.309182 189 220 5 0.000000 0.000000 -1.000000
-0.284611 -0.547364 -0.283269 189 220 5 -0.989716 0.133046 0.052547
-0.326357 -0.505263 -0.309182 189 220 5 0.000000 0.000000 1.000000
-0.355425 -0.610123 -0.278559 189 220 5 0.978809 -0.131588 -0.156901
-0.281483 -0.511764 -0.294958 189 220 5 0.957041 -0.128653 -0.259849
-0.303889 -0.548711 -0.257290 189 220 5 0.000000 0.000000 1.000000
-0.307165 -0.565854 -0.309182 189 220 5 0.000000 0.000000 1.000000
-0.346091 -0.576920 -0.303652 189 220 5 0.882089 -0.118588 0.455912
-0.308535 -0.539224 -0.257290 189 220 5 0.000000 0.000000 1.000000
-0.341489 -0.548527 -0.261302 189 220 5 0.882089 -0.118588 -0.455912
-0.282276 -0.528177 -0.278595 189 220 5 -0.978828 0.131590 -0.156781
-0.281087 -0.520609 -0.284638 189 220 5 -0.989728 0.133055 0.052287
-0.326679 -0.551881 -0.257290 189 220 5 0.000000 0.000000 -1.000000
-0.348195 -0.555115 -0.284875 189 220 5 0.989726 -0.133049 0.052352
-0.328332 -0.610263 -0.309182 189 220 5 0.000000 0.000000 1.000000
-0.351222 -0.588970 -0.294778 189 220 5 -0.957078 0.128663 -0.259708
-0.345831 -0.591778 -0.307434 189 220 5 -0.829104 0.111457 -0.547873
-0.287404 -0.561456 -0.274509 189 220 5 0.978872 -0.131604 0.156491
-0.301130 -0.577365 -0.309182 189 220 5 0.000000 0.000000 -1.000000
-0.296975 -0.556943 -0.257290 189 220 5 0.000000 0.000000 1.000000
-0.320718 -0.570236 -0.257290 189 220 5 0.000000 0.000000 1.000000
-0.297035 -0.626117 -0.270852 189 220 5 -0.957041 0.128653 -0.259849
-0.354383 -0.615268 -0.270316 189 220 5 0.957078 -0.128663 -0.259708
-0.307464 -0.625063 -0.257290 189 220 5 0.000000 0.000000 1.000000
-0.285652 -0.553512 -0.279148 189 220 5 -0.989728 0.133055 -0.052287
-0.306776 -0.442580 -0.257290 42 181 197 0.000000 0.000000 -1.000000
-0.319589 -0.491172 -0.309182 42 181 197 0.000000 0.000000 1.000000
-0.329627 -0.383024 -0.279834 42 181 197 -0.994070 0.095175 0.052591
-0.294421 -0.475427 -0.309182 42 181 197 0.000000 0.000000 1.000000
-0.272654 -0.435057 -0.279025 42 181 197 -0.994070 0.095174 -0.052591
-0.324210 -0.453537 -0.309182 42 181 197 0.000000 0.000000 -1.000000
-0.294331 -0.456267 -0.309182 42 181 197 0.000000 0.000000 1.000000
-0.309350 -0.395201 -0.309182 42 181 197 0.000000 0.000000 1.000000
-0.326480 -0.492496 -0.257290 42 181 197 0.000000 0.000000 -1.000000
-0.307478 -0.485467 -0.257290 42 181 197 0.000000 0.000000 -1.000000
-0.270554 -0.413163 -0.287400 42 181 197 -0.994070 0.095174 0.052591
-0.329088 -0.410965 -0.300044 42 181 197 0.928834 -0.088927 0.359665
-0.315879 -0.451866 -0.309182 42 181 197 0.000000 0.000000 -1.000000
-0.337827 -0.467295 -0.284148 42 181 197 -0.994070 0.095175 -0.052591
-0.326142 -0.386263 -0.301467 42 181 197 -0.886005 0.084826 -0.455850
-0.285415 -0.481041 -0.309182 42 181 197 0.000000 0.000000 -1.000000
-0.274351 -0.454872 -0.282807 42 181 197 -0.994085 0.095184 -0.052290
-0.283273 -0.500909 -0.302556 42 181 197 -0.886095 0.084844 0.455672
-0.287288 -0.411106 -0.257290 42 181 197 0.000000 0.000000 -1.000000
-0.305850 -0.381860 -0.309182 42 181 197 0.000000 0.000000 -1.000000
-0.332004 -0.461582 -0.304086 42 181 197 -0.885917 0.084812 -0.456023
-0.335156 -0.440326 -0.285823 42 181 197 0.994083 -0.095184 0.052337
-0.269559 -0.384915 -0.295976 42 181 197 0.961241 -0.092032 -0.259897
-0.302766 -0.443048 -0.257290 42 181 197 0.000000 0.000000 1.000000
-0.329258 -0.392044 -0.272409 42 181 197 0.961230 -0.092023 -0.259940
-0.271166 -0.421559 -0.282736 42 181 197 0.994085 -0.095184 0.052290
-0.329845 -0.466849 -0.308406 42 181 197 -0.832899 0.079736 -0.547650
-0.324905 -0.440853 -0.257290 42 181 197 0.000000 0.000000 1.000000
-0.323099 -0.469054 -0.309182 42 181 197 0.000000 0.000000 1.000000
-0.274907 -0.459748 -0.285338 42 181 197 -0.994085 0.095184 0.052290
-0.278954 -0.467763 -0.300035 42 181 197 -0.928834 0.088929 0.359665
-0.319107 -0.467248 -0.309182 42 181 197 0.000000 0.000000 -1.000000
-0.277692 -0.473393 -0.294725 42 181 197 0.961251 -0.092034 -0.259858
-0.324715 -0.382193 -0.262991 42 181 197 0.886005 -0.084826 -0.455850
-0.319393 -0.490376 -0.257290 42 181 197 0.000000 0.000000 -1.000000
-0.314666 -0.401927 -0.309182 42 181 197 0.000000 0.000000 -1.000000
-0.336442 -0.460883 -0.275001 42 181 197 -0.983118 0.094118 0.156911
-0.282660 -0.422319 -0.309182 42 181 197 0.000000 0.000000 -1.000000
-0.313785 -0.445907 -0.309182 42 181 197 0.000000 0.000000 1.000000
-0.320354 -0.397199 -0.309182 42 181 197 0.000000 0.000000 -1.000000
-0.290935 -0.459970 -0.257290 42 181 197 0.000000 0.000000 -1.000000
-0.330190 -0.425805 -0.300868 42 181 197 -0.928834 0.088927 -0.359665
-0.274831 -0.450800 -0.291937 42 181 197 0.983196 -0.094135 -0.156410
-0.274372 -0.404456 -0.303207 42 181 197 0.885789 -0.084796 -0.456275
-0.332225 -0.429822 -0.270002 42 181 197 0.961361 -0.092050 -0.259446
-0.318235 -0.410768 -0.257290 42 181 197 0.000000 0.000000 -1.000000
-0.329896 -0.475317 -0.309182 42 181 197 0.000000 0.000000 -1.000000
-0.305376 -0.393154 -0.309182 42 181 197 0.000000 0.000000 1.000000
-0.288961 -0.432162 -0.257290 42 181 197 0.000000 0.000000 1.000000
-0.307875 -0.467318 -0.257290 42 181 197 0.000000 0.000000 -1.000000
-0.313731 -0.498720 -0.257290 42 181 197 0.000000 0.000000 -1.000000
-0.320510 -0.462493 -0.257290 42 181 197 0.000000 0.000000 1.000000
-0.297406 -0.407421 -0.257290 42 181 197 0.000000 0.000000 1.000000
-0.330494 -0.479586 -0.309182 42 181 197 0.000000 0.000000 -1.000000
-0.274026 -0.449761 -0.279695 42 181 197 -0.994070 0.095174 -0.052591
-0.331692 -0.419790 -0.271586 42 181 197 -0.961361 0.092050 0.259446
-0.277064 -0.459209 -0.297269 42 181 197 0.928834 -0.088929 -0.359665
-0.303235 -0.411663 -0.257290 42 181 197 0.000000 0.000000 1.000000
-0.330475 -0.476750 -0.308890 42 181 197 -0.832899 0.079736 -0.547650
-0.276719 -0.408109 -0.306701 42 181 197 0.832676 -0.079712 -0.547994
-0.275386 -0.463696 -0.279209 42 181 197 -0.994070 0.095174 -0.052591
-0.321470 -0.389164 -0.309182 42 181 197 0.000000 0.000000 -1.000000
-0.334928 -0.440998 -0.277445 42 181 197 -0.983203 0.094142 0.156364
-0.287468 -0.402692 -0.309182 42 181 197 0.000000 0.000000 1.000000
-0.277931 -0.480586 -0.273408 42 181 197 0.961251 -0.092034 0.259858
-0.337247 -0.462093 -0.280789 42 181 197 0.994083 -0.095184 -0.052337
-0.325741 -0.396101 -0.304076 42 181 197 0.885917 -0.084812 0.456023
-0.301562 -0.413339 -0.309182 42 181 197 0.000000 0.000000 1.000000
-0.276999 -0.480944 -0.279946 42 181 197 -0.994085 0.095184 -0.052290
-0.336090 -0.450073 -0.280652 42 181 197 0.994083 -0.095184 -0.052337
-0.302538 -0.503691 -0.257290 42 181 197 0.000000 0.000000 1.000000
-0.335496 -0.484249 -0.301519 42 181 197 0.886005 -0.084826 0.455850
-0.275938 -0.448448 -0.269447 42 181 197 -0.928834 0.088929 -0.359665
-0.328578 -0.428270 -0.261925 42 181 197 -0.885917 0.084812 0.456023
-0.301859 -0.456599 -0.257290 42 181 197 0.000000 0.000000 1.000000
-0.271636 -0.397456 -0.267950 42 181 197 0.928929 -0.088946 0.359415
-0.283723 -0.424550 -0.257290 42 181 197 0.000000 0.000000 -1.000000
-0.298373 -0.404257 -0.309182 42 181 197 0.000000 0.000000 1.000000
-0.321578 -0.503509 -0.309182 42 181 197 0.000000 0.000000 1.000000
-0.271307 -0.413833 -0.274440 42 181 197 -0.983196 0.094135 -0.156410
-0.325461 -0.406692 -0.306314 42 181 197 0.832904 -0.079737 0.547643
-0.325210 -0.418823 -0.308462 42 181 197 0.832899 -0.079736 0.547650
-0.310328 -0.478057 -0.309182 42 181 197 0.000000 0.000000 1.000000
-0.267983 -0.385501 -0.278277 42 181 197 0.983185 -0.094132 0.156481
-0.333306 -0.449253 -0.267854 42 181 197 0.928834 -0.088927 -0.359665
-0.298291 -0.482681 -0.257290 42 181 197 0.000000 0.000000 -1.000000
-0.333498 -0.500846 -0.307801 42 181 197 -0.832899 0.079736 -0.547650
-0.319888 -0.423346 -0.257290 42 181 197 0.000000 0.000000 -1.000000
-0.283435 -0.473765 -0.259114 42 181 197 0.832676 -0.079712 0.547994
-0.275529 -0.459049 -0.291357 42 181 197 -0.983196 0.094135 0.156410
-0.275823 -0.437816 -0.267116 42 181 197 -0.928929 0.088946 -0.359415
-0.311488 -0.429939 -0.309182 42 181 197 0.000000 0.000000 -1.000000
-0.278827 -0.496475 -0.276908 42 181 197 0.983185 -0.094132 0.156481
-0.308090 -0.433096 -0.257290 42 181 197 0.000000 0.000000 -1.000000
-0.320572 -0.423448 -0.257290 42 181 197 0.000000 0.000000 1.000000
-0.278404 -0.394742 -0.257290 42 181 197 0.000000 0.000000 -1.000000
-0.330307 -0.389279 -0.281371 42 181 197 0.994070 -0.095175 -0.052591
-0.318430 -0.447107 -0.309182 42 181 197 0.000000 0.000000 1.000000
-0.333545 -0.455263 -0.299488 42 181 197 -0.928834 0.088927 -0.359665
-0.335754 -0.454154 0.291733 183 49 7 0.983118 -0.094118 -0.156911
-0.282402 -0.475774 0.305479 183 49 7 0.832676 -0.079712 0.547994
-0.277142 -0.445581 0.300824 183 49 7 0.928929 -0.088946 0.359415
-0.322428 -0.493698 0.309166 183 49 7 0.000000 0.000000 1.000000
-0.311955 -0.406636 0.257274 183 49 7 0.000000 0.000000 1.000000
-0.285470 -0.488782 0.258192 183 49 7 0.832676 -0.079712 -0.547994
-0.304950 -0.429245 0.309166 183 49 7 0.000000 0.000000 -1.000000
-0.277943 -0.437173 0.262397 183 49 7 -0.885789 0.084796 0.456275
-0.273905 -0.444693 0.276660 183 49 7 0.983185 -0.094132 -0.156481
-0.325641 -0.419787 0.307933 183 49 7 0.833122 -0.079769 -0.547306
-0.279664 -0.394135 0.309166 183 49 7 0.000000 0.000000 1.000000
-0.330956 -0.396896 0.279836 183 49 7 0.994083 -0.095184 0.052337
-0.291473 -0.434816 0.257274 183 49 7 0.000000 0.000000 -1.000000
-0.319276 -0.500656 0.257274 183 49 7 0.000000 0.000000 1.000000
-0.331446 -0.407637 0.275618 183 49 7 -0.983118 0.094118 -0.156911
-0.276500 -0.468630 0.291682 183 49 7 -0.983196 0.094135 -0.156410
-0.294302 -0.493971 0.309166 183 49 7 0.000000 0.000000 -1.000000
-0.324782 -0.500235 0.309166 183 49 7 0.000000 0.000000 -1.000000
-0.302001 -0.437022 0.257274 183 49 7 0.000000 0.000000 1.000000
-0.300006 -0.398215 0.257274 183 49 7 0.000000 0.000000 -1.000000
-0.284607 -0.473587 0.257292 183 49 7 -0.832925 0.079748 0.547610
-0.317290 -0.432756 0.309166 183 49 7 0.000000 0.000000 1.000000
-0.337076 -0.504303 0.264251 183 49 7 -0.882032 0.118577 -0.456026
-0.334310 -0.475406 0.302162 183 49 7 0.885917 -0.084812 -0.456023
-0.322404 -0.492891 0.309166 183 49 7 0.000000 0.000000 1.000000
-0.317660 -0.415351 0.257274 183 49 7 0.000000 0.000000 -1.000000
-0.280525 -0.497737 0.296567 183 49 7 -0.961241 0.092032 -0.259897
-0.320768 -0.438950 0.257274 183 49 7 0.000000 0.000000 1.000000
-0.290224 -0.492459 0.309166 183 49 7 0.000000 0.000000 1.000000
-0.333218 -0.451989 0.266935 183 49 7 0.928834 -0.088927 0.359665
-0.273678 -0.401893 0.264121 183 49 7 -0.886095 0.084844 0.455672
-0.282230 -0.485879 0.263128 183 49 7 -0.886095 0.084844 0.455672
-0.337495 -0.473913 0.292571 183 49 7 -0.961230 0.092023 0.259940
-0.314834 -0.463574 0.257274 183 49 7 0.000000 0.000000 1.000000
-0.279422 -0.466620 0.301436 183 49 7 0.886095 -0.084844 0.455672
-0.287365 -0.460890 0.257274 183 49 7 0.000000 0.000000 1.000000
-0.309849 -0.467342 0.309166 183 49 7 0.000000 0.000000 -1.000000
-0.278989 -0.491665 0.293035 183 49 7 0.961251 -0.092034 0.259858
-0.287505 -0.423033 0.257274 183 49 7 0.000000 0.000000 1.000000
-0.299620 -0.482733 0.257274 183 49 7 0.000000 0.000000 1.000000
-0.339873 -0.501158 0.293426 183 49 7 -0.961361 0.092050 0.259446
-0.277352 -0.470970 0.294309 183 49 7 0.961251 -0.092034 0.259858
-0.331742 -0.464637 0.305149 183 49 7 -0.885917 0.084812 0.456023
-0.331280 -0.484399 0.308765 183 49 7 0.833122 -0.079769 -0.547306
-0.302414 -0.400486 0.309166 183 49 7 0.000000 0.000000 -1.000000
-0.306442 -0.418044 0.309166 183 49 7 0.000000 0.000000 1.000000
-0.277799 -0.406444 0.308572 183 49 7 -0.832925 0.079748 -0.547610
-0.314284 -0.433598 0.309166 183 49 7 0.000000 0.000000 1.000000
-0.293938 -0.504611 0.309166 183 49 7 0.000000 0.000000 1.000000
-0.304784 -0.383697 0.257274 183 49 7 0.000000 0.000000 -1.000000
-0.273880 -0.448771 0.280645 183 49 7 -0.994085 0.095184 0.052290
-0.307790 -0.497594 0.257274 183 49 7 0.000000 0.000000 -1.000000
-0.314624 -0.503866 0.257274 183 49 7 0.000000 0.000000 -1.000000
-0.299413 -0.501278 0.257274 183 49 7 0.000000 0.000000 -1.000000
-0.335015 -0.474488 0.300426 183 49 7 0.928834 -0.088927 -0.359665
-0.333603 -0.435305 0.273141 183 49 7 0.961230 -0.092023 0.259940
-0.312872 -0.448244 0.257274 183 49 7 0.000000 0.000000 -1.000000
-0.301067 -0.404808 0.257274 183 49 7 0.000000 0.000000 1.000000
-0.275409 -0.413491 0.262916 183 49 7 0.885789 -0.084796 -0.456275
-0.320487 -0.412215 0.309166 183 49 7 0.000000 0.000000 1.000000
-0.324013 -0.470310 0.257274 183 49 7 0.000000 0.000000 1.000000
-0.289392 -0.383537 0.257274 183 49 7 0.000000 0.000000 1.000000
-0.268078 -0.381741 0.291034 183 49 7 -0.983196 0.094135 -0.156410
-0.333161 -0.503781 0.257713 183 49 7 -0.833122 0.079769 -0.547306
-0.293742 -0.382646 0.257274 183 49 7 0.000000 0.000000 1.000000
-0.291919 -0.462020 0.257274 183 49 7 0.000000 0.000000 1.000000
-0.297481 -0.451604 0.309166 183 49 7 0.000000 0.000000 1.000000
-0.328193 -0.392207 0.268740 183 49 7 0.928945 -0.088946 0.359375
-0.330180 -0.394159 0.290667 183 49 7 -0.983203 0.094142 0.156364
-0.337024 -0.466205 0.291000 183 49 7 0.983118 -0.094118 -0.156911
-0.321453 -0.494558 0.257274 183 49 7 0.000000 0.000000 -1.000000
-0.311340 -0.388077 0.257274 183 49 7 0.000000 0.000000 1.000000
-0.322605 -0.497940 0.257274 183 49 7 0.000000 0.000000 -1.000000
-0.291111 -0.427636 0.309166 183 49 7 0.000000 0.000000 1.000000
-0.337361 -0.463719 0.279962 183 49 7 0.994083 -0.095184 0.052337
-0.329592 -0.386931 0.290012 183 49 7 0.983203 -0.094142 -0.156364
-0.332715 -0.448614 0.266469 183 49 7 -0.928834 0.088927 -0.359665
-0.278142 -0.492383 0.287446 183 49 7 -0.994070 0.095174 -0.052591
-0.299356 -0.453865 0.309166 183 49 7 0.000000 0.000000 -1.000000
-0.276637 -0.458796 0.270466 183 49 7 -0.961241 0.092032 0.259897
-0.280030 -0.397863 0.309166 183 49 7 0.000000 0.000000 1.000000
-0.339836 -0.497437 0.292117 183 49 7 0.983118 -0.094118 -0.156911
-0.283413 -0.417950 0.257274 183 49 7 0.000000 0.000000 -1.000000
-0.328341 -0.407972 0.301215 183 49 7 0.886005 -0.084826 -0.455850
-0.320461 -0.429160 0.257274 183 49 7 0.000000 0.000000 1.000000
-0.334228 -0.451942 0.296879 183 49 7 0.961361 -0.092050 -0.259446
-0.327007 -0.403079 0.302896 183 49 7 -0.886005 0.084826 0.455850
-0.332494 -0.411716 0.282093 183 49 7 0.994070 -0.095175 0.052591
-0.268002 -0.385881 0.288066 183 49 7 -0.983185 0.094132 -0.156481
-0.268278 -0.391262 0.283996 183 49 7 -0.994085 0.095184 -0.052290
-0.281386 -0.466442 0.305289 183 49 7 -0.885789 0.084796 -0.456275
-0.331508 -0.441189 0.265198 183 49 7 0.886005 -0.084826 0.455850
-0.285686 -0.470770 0.257274 183 49 7 0.000000 0.000000 -1.000000
-0.293302 -0.496716 0.257274 183 49 7 0.000000 0.000000 -1.000000
-0.299847 -0.503500 0.309166 183 49 7 0.000000 0.000000 1.000000
-0.292186 -0.389837 0.257274 183 49 7 0.000000 0.000000 -1.000000
-0.277284 -0.484790 0.284947 183 49 7 -0.994085 0.095184 -0.052290
-0.334304 -0.440286 0.292465 183 49 7 0.961230 -0.092023 -0.259940
-0.332538 -0.459289 0.302606 183 49 7 -0.885917 0.084812 0.456023
-0.331314 -0.485120 0.308818 183 49 7 0.833122 -0.079769 -0.547306
-0.271844 -0.422884 0.289948 183 49 7 0.983185 -0.094132 0.156481
-0.281818 -0.455464 0.307546 183 49 7 0.832676 -0.079712 0.547994
-0.334104 -0.460118 0.267210 183 49 7 0.928834 -0.088927 0.359665
-0.337117 -0.461923 0.287828 183 49 7 -0.994083 0.095184 0.052337
-0.333894 -0.427075 0.280750 183 49 7 0.994083 -0.095184 0.052337
-0.335820 -0.447716 0.286635 183 49 7 0.994083 -0.095184 -0.052337
-0.308432 -0.418257 0.309166 183 49 7 0.000000 0.000000 1.000000
-0.331597 -0.416619 0.272341 183 49 7 0.961230 -0.092023 0.259940
-0.288441 -0.487123 0.257274 183 49 7 0.000000 0.000000 -1.000000
-0.326130 -0.458911 0.309166 183 49 7 0.000000 0.000000 -1.000000
-0.289235 -0.486297 0.257274 183 49 7 0.000000 0.000000 1.000000
-0.337046 -0.492977 0.266688 183 49 7 -0.928834 0.088927 -0.359665
-0.271397 -0.394444 0.267807 183 49 7 0.928929 -0.088946 -0.359415
-0.336822 -0.484488 0.268208 183 49 7 -0.928834 0.088927 -0.359665
-0.330652 -0.444520 0.262916 183 49 7 -0.885917 0.084812 -0.456023
-0.333202 -0.458673 0.265241 183 49 7 -0.928834 0.088927 -0.359665
-0.337800 -0.486567 0.295931 183 49 7 0.961361 -0.092050 -0.259446
-0.273187 -0.439498 0.278049 183 49 7 0.983185 -0.094132 -0.156481
-0.304399 -0.430071 0.309166 183 49 7 0.000000 0.000000 1.000000
-0.276935 -0.476545 0.289654 183 49 7 0.983185 -0.094132 0.156481
-0.294583 -0.325755 -0.309182 185 31 213 0.000000 0.000000 -1.000000
-0.293720 -0.325269 -0.309182 185 31 213 0.000000 0.000000 -1.000000
-0.323167 -0.298762 -0.280118 185 31 213 0.996980 -0.057145 -0.052594
-0.265856 -0.340099 -0.297312 185 31 213 0.931649 -0.053421 -0.359412
-0.301056 -0.323041 -0.257290 185 31 213 0.000000 0.000000 1.000000
-0.316203 -0.380231 -0.309182 185 31 213 0.000000 0.000000 1.000000
-0.289472 -0.366993 -0.309182 185 31 213 0.000000 0.000000 1.000000
-0.273530 -0.269987 -0.309182 185 31 213 0.000000 0.000000 1.000000
-0.320416 -0.257704 -0.276607 185 31 213 -0.985978 0.056514 0.157016
-0.267251 -0.331750 -0.264540 185 31 213 0.888383 -0.050923 0.456271
-0.286673 -0.375616 -0.309182 185 31 213 0.000000 0.000000 -1.000000
-0.268160 -0.310797 -0.305888 185 31 213 0.835356 -0.047896 -0.547619
-0.282891 -0.326326 -0.257290 185 31 213 0.000000 0.000000 1.000000
-0.318747 -0.318952 -0.261539 185 31 213 -0.888592 0.050952 0.455859
-0.294631 -0.322422 -0.309182 185 31 213 0.000000 0.000000 1.000000
-0.323650 -0.336847 -0.270708 185 31 213 0.964045 -0.055259 -0.259930
-0.316405 -0.292544 -0.306281 185 31 213 -0.835441 0.047904 -0.547488
-0.317952 -0.347398 -0.309103 185 31 213 0.832899 -0.079736 0.547650
-0.270192 -0.380303 -0.267435 185 31 213 0.928929 -0.088946 0.359415
-0.300015 -0.268158 -0.309182 185 31 213 0.000000 0.000000 1.000000
-0.276972 -0.261433 -0.265684 185 31 213 -1.000000 0.000000 0.000000
-0.272128 -0.361999 -0.306435 185 31 213 -0.832925 0.079748 0.547610
-0.275634 -0.262605 -0.272955 185 31 213 0.000000 -1.000000 0.000000
-0.306152 -0.336385 -0.257290 185 31 213 0.000000 0.000000 1.000000
-0.323116 -0.296981 -0.285403 185 31 213 -0.996980 0.057145 -0.052594
-0.322443 -0.354524 -0.263724 185 31 213 0.886005 -0.084826 -0.455850
-0.314927 -0.302928 -0.309182 185 31 213 0.000000 0.000000 1.000000
-0.320452 -0.285190 -0.296640 185 31 213 -0.964045 0.055259 -0.259930
-0.272420 -0.339841 -0.309182 185 31 213 0.000000 0.000000 1.000000
-0.320524 -0.262220 -0.275658 185 31 213 0.986079 -0.056539 -0.156370
-0.315864 -0.284377 -0.260078 185 31 213 0.835441 -0.047904 -0.547488
-0.322240 -0.299118 -0.273503 185 31 213 -0.964195 0.055284 0.259366
-0.308290 -0.292624 -0.257290 185 31 213 0.000000 0.000000 1.000000
-0.294569 -0.315496 -0.257290 185 31 213 0.000000 0.000000 -1.000000
-0.326988 -0.355933 -0.287479 185 31 213 -0.994083 0.095184 -0.052337
-0.260658 -0.287546 -0.285994 185 31 213 -0.996979 0.057152 0.052594
-0.313167 -0.329396 -0.257290 185 31 213 0.000000 0.000000 -1.000000
-0.283666 -0.310044 -0.257290 185 31 213 0.000000 0.000000 1.000000
-0.262447 -0.300631 -0.273238 185 31 213 0.964052 -0.055264 0.259903
-0.323862 -0.309069 -0.282082 185 31 213 0.996980 -0.057145 -0.052594
-0.304329 -0.347747 -0.257290 185 31 213 0.000000 0.000000 1.000000
-0.251459 -0.262605 -0.290709 185 31 213 0.000000 -1.000000 0.000000
-0.299845 -0.371342 -0.257290 185 31 213 0.000000 0.000000 1.000000
-0.327515 -0.360802 -0.286347 185 31 213 0.994070 -0.095175 0.052591
-0.321582 -0.275711 -0.289029 185 31 213 -0.985978 0.056514 -0.157016
-0.320815 -0.256828 -0.281092 185 31 213 0.997010 -0.057164 -0.051994
-0.324652 -0.341339 -0.273325 185 31 213 0.961230 -0.092023 -0.259940
-0.295405 -0.301146 -0.309182 185 31 213 0.000000 0.000000 1.000000
-0.265855 -0.349968 -0.294653 185 31 213 -0.961241 0.092032 0.259897
-0.263224 -0.306356 -0.271574 185 31 213 -0.964052 0.055264 -0.259903
-0.307269 -0.284160 -0.257290 185 31 213 0.000000 0.000000 -1.000000
-0.324644 -0.336428 -0.291669 185 31 213 0.986079 -0.056539 0.156370
-0.264015 -0.313351 -0.270127 185 31 213 -0.964187 0.055287 -0.259398
-0.317164 -0.321014 -0.258858 185 31 213 0.835343 -0.047894 -0.547639
-0.323841 -0.319258 -0.290526 185 31 213 0.986079 -0.056539 0.156370
-0.315438 -0.321712 -0.257290 185 31 213 0.000000 0.000000 1.000000
-0.315301 -0.350535 -0.309182 185 31 213 0.000000 0.000000 1.000000
-0.306897 -0.326008 -0.257290 185 31 213 0.000000 0.000000 -1.000000
-0.265922 -0.331544 -0.298756 185 31 213 -0.931649 0.053421 0.359412
-0.326472 -0.350134 -0.279736 185 31 213 -0.994070 0.095175 0.052591
-0.266703 -0.373240 -0.286828 185 31 213 -0.994070 0.095174 0.052591
-0.295985 -0.372744 -0.257290 185 31 213 0.000000 0.000000 1.000000
-0.275290 -0.262605 -0.249885 185 31 213 0.000000 1.000000 0.000000
-0.320996 -0.266771 -0.276987 185 31 213 0.985978 -0.056514 -0.157016
-0.273054 -0.378287 -0.261000 185 31 213 -0.832676 0.079712 -0.547994
-0.264525 -0.307433 -0.298719 185 31 213 -0.931649 0.053421 0.359412
-0.270292 -0.315544 -0.308725 185 31 213 -0.835441 0.047905 0.547488
-0.277993 -0.270817 -0.257290 185 31 213 0.000000 0.000000 1.000000
-0.323138 -0.315547 -0.273342 185 31 213 -0.964045 0.055259 0.259930
-0.289963 -0.281628 -0.257290 185 31 213 0.000000 0.000000 1.000000
-0.321659 -0.270888 -0.284667 185 31 213 0.997010 -0.057164 0.051994
-0.322466 -0.316261 -0.270695 185 31 213 0.964045 -0.055259 -0.259930
-0.286029 -0.345721 -0.257290 185 31 213 0.000000 0.000000 1.000000
-0.285328 -0.362337 -0.309182 185 31 213 0.000000 0.000000 1.000000
-0.323277 -0.298592 -0.284092 185 31 213 0.997010 -0.057164 0.051994
-0.313443 -0.330697 -0.257290 185 31 213 0.000000 0.000000 1.000000
-0.314427 -0.262406 -0.259809 185 31 213 0.835441 -0.047904 -0.547488
-0.321662 -0.322314 -0.299103 185 31 213 0.931659 -0.053408 0.359387
-0.285293 -0.266371 -0.309182 185 31 213 0.000000 0.000000 1.000000
-0.273957 -0.289091 -0.309182 185 31 213 0.000000 0.000000 1.000000
-0.278577 -0.281612 -0.257290 185 31 213 0.000000 0.000000 1.000000
-0.277181 -0.269935 -0.309182 185 31 213 0.000000 0.000000 1.000000
-0.264580 -0.295587 -0.265853 185 31 213 0.931424 -0.053391 0.359998
-0.276166 -0.326332 -0.257290 185 31 213 0.000000 0.000000 1.000000
-0.276713 -0.341794 -0.257290 185 31 213 0.000000 0.000000 -1.000000
-0.260516 -0.285390 -0.285641 185 31 213 0.996979 -0.057152 -0.052594
-0.282002 -0.287777 -0.309182 185 31 213 0.000000 0.000000 -1.000000
-0.276972 -0.257948 -0.250449 185 31 213 -1.000000 0.000000 0.000000
-0.318207 -0.313688 -0.305383 185 31 213 0.835441 -0.047904 0.547488
-0.324324 -0.334611 -0.273685 185 31 213 0.964045 -0.055259 -0.259930
-0.270509 -0.362582 -0.303490 185 31 213 -0.885789 0.084796 0.456275
-0.268633 -0.284952 -0.257602 185 31 213 0.835441 -0.047905 0.547488
-0.260169 -0.269954 -0.275959 185 31 213 0.986053 -0.056526 0.156536
-0.267705 -0.307081 -0.260953 185 31 213 -0.835356 0.047896 -0.547619
-0.299133 -0.329450 -0.257290 185 31 213 0.000000 0.000000 1.000000
-0.313605 0.029608 0.277643 126 12 31 -0.987418 -0.018857 -0.157002
-0.314264 0.115282 0.293917 126 12 31 0.965599 0.018432 -0.259383
-0.311342 0.004985 0.296938 126 12 31 0.932868 0.017807 -0.359778
-0.310807 -0.033990 0.298516 126 12 31 -0.932868 0.017807 0.359778
-0.254059 -0.022416 0.298428 126 12 31 0.933033 -0.017823 0.359350
-0.269265 -0.021443 0.257274 126 12 31 0.000000 0.000000 -1.000000
-0.263734 -0.040323 0.257274 126 12 31 0.000000 0.000000 1.000000
-0.273242 -0.043949 0.309166 126 12 31 0.000000 0.000000 -1.000000
-0.259062 0.084972 0.305547 126 12 31 -0.836664 -0.015978 -0.547483
-0.274287 -0.011667 0.257274 126 12 31 0.000000 0.000000 1.000000
-0.258734 -0.083581 0.305821 126 12 31 -0.836662 0.015978 -0.547487
-0.227729 -0.084273 0.256792 126 12 31 -0.306249 0.949330 -0.070594
-0.258856 0.089300 0.305049 126 12 31 0.889822 0.016994 0.455991
-0.267699 0.105513 0.309166 126 12 31 0.000000 0.000000 -1.000000
-0.258643 -0.022503 0.307463 126 12 31 -0.836394 0.015960 -0.547897
-0.310504 0.000913 0.267530 126 12 31 0.932868 0.017813 0.359778
-0.259379 -0.073186 0.307109 126 12 31 -0.836394 0.015960 -0.547897
-0.267988 0.091934 0.309166 126 12 31 0.000000 0.000000 -1.000000
-0.313560 0.070789 0.293373 126 12 31 -0.965646 -0.018438 0.259207
-0.278496 -0.035645 0.309166 126 12 31 0.000000 0.000000 1.000000
-0.293804 0.136328 0.257274 126 12 31 0.000000 0.000000 1.000000
-0.314881 0.102013 0.289474 126 12 31 -0.987418 -0.018853 0.157002
-0.310656 0.001890 0.267876 126 12 31 -0.932868 -0.017813 -0.359778
-0.287436 0.108795 0.257274 126 12 31 0.000000 0.000000 1.000000
-0.309437 -0.023443 0.264979 126 12 31 -0.889822 0.016991 -0.455991
-0.314244 0.077220 0.290502 126 12 31 0.987418 0.018853 -0.157002
-0.284077 -0.024456 0.309166 126 12 31 0.000000 0.000000 1.000000
-0.314386 0.052839 0.282130 126 12 31 0.998465 0.019055 0.052000
-0.311942 0.045829 0.269035 126 12 31 -0.932944 -0.017808 -0.359581
-0.275271 -0.022550 0.257274 126 12 31 0.000000 0.000000 1.000000
-0.238989 -0.087400 0.263600 126 12 31 -0.306249 0.949330 -0.070594
-0.253951 -0.005156 0.268171 126 12 31 0.933033 0.017803 -0.359350
-0.287428 0.048930 0.309166 126 12 31 0.000000 0.000000 1.000000
-0.272204 0.074563 0.309166 126 12 31 0.000000 0.000000 1.000000
-0.254455 0.094977 0.293632 126 12 31 0.965599 0.018433 0.259383
-0.260878 0.125182 0.307148 126 12 31 -0.836664 -0.015978 -0.547483
-0.282889 0.029320 0.257274 126 12 31 0.000000 0.000000 -1.000000
-0.294319 -0.068425 0.309166 126 12 31 0.000000 0.000000 -1.000000
-0.254403 0.031721 0.297615 126 12 31 -0.932779 -0.017799 -0.360009
-0.260752 0.051870 0.309094 126 12 31 0.836394 0.015960 0.547897
-0.307243 0.024142 0.306402 126 12 31 -0.836394 -0.015963 0.547897
-0.286525 -0.014923 0.257274 126 12 31 0.000000 0.000000 -1.000000
-0.306538 0.035541 0.258629 126 12 31 -0.836394 -0.015963 -0.547897
-0.253168 0.068148 0.276861 126 12 31 -0.987436 -0.018860 0.156891
-0.310908 0.008697 0.298247 126 12 31 -0.932868 -0.017807 0.359778
-0.309173 -0.026660 0.264343 126 12 31 -0.889822 0.016991 -0.455991
-0.303703 0.029569 0.257274 126 12 31 0.000000 0.000000 1.000000
-0.280599 0.124963 0.309166 126 12 31 0.000000 0.000000 -1.000000
-0.265060 -0.025200 0.257274 126 12 31 0.000000 0.000000 1.000000
-0.258561 -0.042384 0.306758 126 12 31 -0.836394 0.015960 -0.547897
-0.306570 0.023023 0.259043 126 12 31 0.836394 0.015963 0.547897
-0.309273 0.131648 0.306435 126 12 31 -0.836662 -0.015982 0.547487
-0.298777 -0.069328 0.309166 126 12 31 0.000000 0.000000 1.000000
-0.313695 -0.044396 0.281205 126 12 31 0.998442 -0.019054 0.052446
-0.276406 0.119009 0.257274 126 12 31 0.000000 0.000000 1.000000
-0.258673 -0.080525 0.260623 126 12 31 0.836662 -0.015978 -0.547487
-0.315334 0.108289 0.280027 126 12 31 0.998465 0.019055 0.052000
-0.266031 -0.035379 0.257274 126 12 31 0.000000 0.000000 -1.000000
-0.252287 -0.071021 0.282015 126 12 31 -0.998440 0.019069 0.052478
-0.291817 0.071915 0.309166 126 12 31 0.000000 0.000000 1.000000
-0.277350 0.139834 0.257274 126 12 31 0.000000 0.000000 -1.000000
-0.307406 -0.010314 0.305104 126 12 31 -0.889822 -0.016983 0.455991
-0.310667 -0.062951 0.266127 126 12 31 0.932946 -0.017814 0.359576
-0.312950 -0.058175 0.292960 126 12 31 -0.965646 0.018438 0.259207
-0.281857 -0.024992 0.257274 126 12 31 0.000000 0.000000 1.000000
-0.283355 0.076619 0.309166 126 12 31 0.000000 0.000000 -1.000000
-0.281238 -0.047002 0.257274 126 12 31 0.000000 0.000000 1.000000
-0.253621 0.014386 0.296249 126 12 31 -0.965523 -0.018423 -0.259665
-0.308366 0.024817 0.304540 126 12 31 0.889822 0.016983 -0.455991
-0.281917 -0.062510 0.309166 126 12 31 0.000000 0.000000 -1.000000
-0.258401 0.105402 0.303562 126 12 31 0.889886 0.016999 0.455866
-0.278023 0.050656 0.309166 126 12 31 0.000000 0.000000 1.000000
-0.253834 0.101584 0.289754 126 12 31 -0.987494 -0.018851 -0.156523
-0.313438 0.007827 0.280469 126 12 31 -0.998442 -0.019067 -0.052446
-0.243663 -0.089588 0.257961 126 12 31 -0.388788 0.919560 -0.057038
-0.271002 0.138622 0.257274 126 12 31 0.000000 0.000000 -1.000000
-0.311241 0.105908 0.301950 126 12 31 0.889686 0.016988 -0.456256
-0.303163 0.099031 0.309166 126 12 31 0.000000 0.000000 -1.000000
-0.293175 0.078421 0.257274 126 12 31 0.000000 0.000000 1.000000
-0.294305 0.131528 0.309166 126 12 31 0.000000 0.000000 -1.000000
-0.230204 -0.093631 0.282458 126 12 31 -0.060609 -0.918023 -0.391867
-0.253383 0.104381 0.284004 126 12 31 -0.998439 -0.019069 -0.052489
-0.291181 0.052649 0.257274 126 12 31 0.000000 0.000000 -1.000000
-0.288904 -0.026393 0.309166 126 12 31 0.000000 0.000000 -1.000000
-0.233012 -0.092751 0.280832 126 12 31 0.060609 0.918023 0.391867
-0.257959 0.038532 0.261249 126 12 31 0.889886 0.016995 -0.455866
-0.266642 -0.062600 0.309166 126 12 31 0.000000 0.000000 -1.000000
-0.313645 0.057312 0.274567 126 12 31 0.987436 0.018854 0.156891
-0.294169 -0.098070 0.309166 126 12 31 0.000000 0.000000 1.000000
-0.282248 -0.022847 0.309166 126 12 31 0.000000 0.000000 1.000000
-0.288261 0.131828 0.257274 126 12 31 0.000000 0.000000 -1.000000
-0.253658 -0.015802 0.268725 126 12 31 0.933033 -0.017823 -0.359350
-0.252063 0.004804 0.290242 126 12 31 0.987436 0.018860 0.156891
-0.257849 -0.069015 0.261661 126 12 31 -0.889822 0.016994 0.455991
-0.264194 0.035645 0.309166 126 12 31 0.000000 0.000000 -1.000000
-0.260898 -0.074766 0.257274 126 12 31 0.000000 0.000000 -1.000000
-0.253512 -0.081872 0.273605 126 12 31 0.965597 -0.018433 -0.259388
-0.315141 0.091110 0.282619 126 12 31 0.998465 0.019055 0.052000
-0.311331 0.077307 0.265895 126 12 31 -0.932868 -0.017813 -0.359778
-0.291501 0.129672 0.257274 126 12 31 0.000000 0.000000 1.000000
-0.259012 0.087840 0.261053 126 12 31 0.836664 0.015978 -0.547483
-0.269328 -0.099887 0.252873 126 12 31 -0.999818 0.019075 0.000000
-0.259294 0.123522 0.261813 126 12 31 0.889886 0.016995 -0.455866
-0.287710 0.075482 0.257274 126 12 31 0.000000 0.000000 -1.000000
-0.311429 0.104796 0.301542 126 12 31 0.889686 0.016988 -0.456256
-0.289980 -0.026741 0.257274 126 12 31 0.000000 0.000000 -1.000000
-0.314065 0.074367 0.291283 126 12 31 -0.987418 -0.018853 0.157002
-0.255010 -0.078579 0.268328 126 12 31 -0.932781 0.017799 0.360004
-0.310672 0.123258 0.303707 126 12 31 -0.889686 -0.016988 0.456256
-0.294210 0.127494 0.309166 126 12 31 0.000000 0.000000 -1.000000
-0.253982 -0.049607 0.269564 126 12 31 0.965523 -0.018423 -0.259665
-0.280503 0.087425 0.257274 126 12 31 0.000000 0.000000 1.000000
-0.272339 -0.069099 0.309166 126 12 31 0.000000 0.000000 1.000000
-0.258442 0.105954 0.303621 126 12 31 0.889886 0.016999 0.455866
-0.306894 0.084928 0.257731 126 12 31 -0.836662 -0.015982 -0.547487
-0.256564 -0.085971 0.301639 126 12 31 0.889889 -0.016999 0.455861
-0.306896 0.033243 0.259243 126 12 31 -0.836394 -0.015963 -0.547897
