ply
format ascii 1.0
element vertex 719
property float x
property float y
property float z
property uchar red
property uchar green
property uchar blue
property float nx
property float ny
property float nz
end_header
-0.252508 0.301980 0.565618 227 171 33 0.000000 0.322505 0.946568
-0.256360 0.312427 0.510025 227 171 33 0.000000 0.440364 -0.897819
-0.454224 0.321166 0.553903 227 171 33 0.000000 0.897325 0.441371
-0.220982 0.278032 0.559998 227 171 33 0.000000 -0.441580 0.897222
-0.266938 0.320463 0.517372 227 171 33 0.000000 0.761299 -0.648401
-0.450574 0.303962 0.506202 227 171 33 0.000000 0.081078 -0.996708
-0.210869 0.323537 0.549083 227 171 33 0.000000 0.897325 0.441371
-0.225732 0.289350 0.506502 227 171 33 0.000000 -0.323804 -0.946124
-0.233468 0.315960 0.512085 227 171 33 0.000000 0.761300 -0.648400
-0.434152 0.266460 0.536964 227 171 33 0.000000 -0.996793 -0.080019
-0.423820 0.279993 0.510504 227 171 33 0.000000 -0.648109 -0.761547
-0.382704 0.320696 0.517646 227 171 33 0.000000 0.761299 -0.648401
-0.243129 0.267024 0.529933 227 171 33 0.000000 -0.996793 -0.080019
-0.316647 0.324251 0.547630 227 171 33 0.000000 0.897325 0.441371
-0.378667 0.324971 0.546167 227 171 33 0.000000 0.897325 0.441371
-0.351646 0.326630 0.537495 227 171 33 0.000000 0.996816 0.079732
-0.357140 0.304242 0.564847 227 171 33 0.000000 0.322505 0.946568
-0.025597 0.315191 0.559363 49 149 184 0.000000 0.648983 0.760803
-0.070579 0.323293 0.549578 49 149 184 0.000000 0.897325 0.441371
0.018943 0.315158 0.559392 49 149 184 0.000000 0.648983 0.760803
0.045427 0.317099 0.557735 49 149 184 0.000000 0.648983 0.760803
-0.133985 0.326515 0.538931 49 149 184 0.000000 0.996816 0.079732
-0.041631 0.286686 0.507414 49 149 184 0.000000 -0.323805 -0.946124
-0.080648 0.318927 0.556176 49 149 184 0.000000 0.648983 0.760803
0.052539 0.306804 0.563974 49 149 184 0.000000 0.322505 0.946568
0.061548 0.302323 0.506068 49 149 184 0.000000 0.081078 -0.996708
-0.145917 0.290917 0.565371 49 149 184 0.000000 -0.079579 0.996829
-0.023626 0.270426 0.521074 49 149 184 0.000000 -0.897717 -0.440572
0.047378 0.299440 0.566051 49 149 184 0.000000 -0.079579 0.996829
-0.165975 0.318606 0.515192 49 149 184 0.000000 0.761300 -0.648400
0.019548 0.275656 0.514195 49 149 184 0.000000 -0.648108 -0.761548
-0.062449 0.269132 0.547952 49 149 184 0.000000 -0.946501 0.322701
-0.020792 0.319945 0.555307 49 149 184 0.000000 0.648983 0.760803
-0.023275 0.286742 0.564285 49 149 184 0.000000 -0.441580 0.897222
-0.079949 0.288020 0.506957 49 149 184 0.000000 -0.323805 -0.946124
-0.034084 0.314144 0.510868 49 149 184 0.000000 0.440364 -0.897819
0.038234 0.287966 0.506976 49 149 184 0.000000 -0.323805 -0.946124
-0.107749 0.319047 0.556074 49 149 184 0.000000 0.648983 0.760803
-0.170255 0.323755 0.522172 49 149 184 0.000000 0.946569 -0.322502
-0.026121 0.321473 0.518558 49 149 184 0.000000 0.761300 -0.648400
-0.141995 0.275069 0.514695 49 149 184 0.000000 -0.648108 -0.761548
-0.103279 0.295113 0.505482 49 149 184 0.000000 0.081078 -0.996708
-0.123355 0.304301 0.506229 49 149 184 0.000000 0.081078 -0.996708
0.038654 0.279149 0.560548 49 149 184 0.000000 -0.441580 0.897222
-0.045632 0.269168 0.548060 49 149 184 0.000000 -0.946501 0.322701
-0.025241 0.288614 0.565187 49 149 184 0.000000 -0.079579 0.996829
-0.027913 0.267321 0.542641 49 149 184 0.000000 -0.946501 0.322701
0.002461 0.268430 0.545894 49 149 184 0.000000 -0.946501 0.322701
-0.152177 0.315762 0.511853 49 149 184 0.000000 0.761300 -0.648400
-0.022154 0.266808 0.532619 49 149 184 0.000000 -0.996793 -0.080019
-0.101424 0.271931 0.518009 49 149 184 0.000000 -0.897717 -0.440572
-0.004935 0.310061 0.508864 49 149 184 0.000000 0.440364 -0.897819
-0.021596 0.326769 0.531019 49 149 184 0.000000 0.946569 -0.322500
-0.056783 0.326674 0.536942 49 149 184 0.000000 0.996816 0.079732
-0.046756 0.325528 0.545034 49 149 184 0.000000 0.897325 0.441371
0.011831 0.319147 0.515827 49 149 184 0.000000 0.761300 -0.648400
-0.011171 0.267050 0.529610 49 149 184 0.000000 -0.996793 -0.080019
-0.164327 0.299033 0.566018 49 149 184 0.000000 -0.079579 0.996829
0.033717 0.272064 0.553115 49 149 184 0.000000 -0.761297 0.648403
-0.079915 0.325236 0.545628 49 149 184 0.000000 0.897325 0.441371
-0.067661 0.299382 0.566046 49 149 184 0.000000 -0.079579 0.996829
-0.005677 0.270445 0.551213 49 149 184 0.000000 -0.761297 0.648403
0.025449 0.322211 0.519425 49 149 184 0.000000 0.761300 -0.648400
-0.001793 0.271089 0.519724 49 149 184 0.000000 -0.897717 -0.440572
-0.027407 0.296468 0.505592 49 149 184 0.000000 0.081078 -0.996708
-0.183921 0.268847 0.524292 49 149 184 0.000000 -0.897717 -0.440572
-0.055666 0.267044 0.529683 49 149 184 0.000000 -0.996793 -0.080019
0.025136 0.319945 0.516764 49 149 184 0.000000 0.761300 -0.648400
-0.107649 0.298802 0.505782 49 149 184 0.000000 0.081078 -0.996708
0.032546 0.269582 0.522794 49 149 184 0.000000 -0.897717 -0.440572
-0.002770 0.267060 0.529483 49 149 184 0.000000 -0.996793 -0.080019
-0.136270 0.269091 0.547833 49 149 184 0.000000 -0.946501 0.322701
-0.121206 0.267393 0.542852 49 149 184 0.000000 -0.946501 0.322701
0.042823 0.310139 0.508902 49 149 184 0.000000 0.440364 -0.897819
-0.174397 0.271346 0.519200 49 149 184 0.000000 -0.897717 -0.440572
-0.050890 0.306396 0.507066 49 149 184 0.000000 0.440364 -0.897819
-0.175121 0.276459 0.513511 49 149 184 0.000000 -0.648108 -0.761548
-0.114678 0.324395 0.524051 49 149 184 0.000000 0.946569 -0.322502
-0.074861 0.311373 0.562418 49 149 184 0.000000 0.322505 0.946568
-0.147870 0.283352 0.508555 49 149 184 0.000000 -0.323805 -0.946124
0.007609 0.281522 0.509203 49 149 184 0.000000 -0.648108 -0.761548
-0.159931 0.309367 0.508524 49 149 184 0.000000 0.440364 -0.897819
-0.100828 0.321475 0.518561 49 149 184 0.000000 0.761299 -0.648401
0.027472 0.267248 0.539293 49 149 184 -0.770930 0.042935 0.635471
-0.110736 0.325041 0.525947 49 149 184 0.000000 0.946569 -0.322502
-0.183745 0.303770 0.565008 49 149 184 0.000000 0.322505 0.946568
-0.157160 0.309504 0.508591 49 149 184 0.000000 0.440364 -0.897819
-0.003914 0.315056 0.559478 49 149 184 0.000000 0.648983 0.760803
-0.180769 0.325670 0.544744 49 149 184 0.000000 0.897325 0.441371
-0.020310 0.286821 0.507368 49 149 184 0.000000 -0.323805 -0.946124
-0.162493 0.278332 0.560146 49 149 184 0.000000 -0.441580 0.897222
-0.003348 0.279843 0.560889 49 149 184 0.000000 -0.441580 0.897222
0.015953 0.310125 0.562843 49 149 184 0.000000 0.322505 0.946568
-0.191003 0.326840 0.534870 49 149 184 0.000000 0.996816 0.079732
-0.194649 0.266572 0.535568 49 149 184 0.000000 -0.996793 -0.080019
-0.157529 0.267556 0.526923 49 149 184 0.000000 -0.897717 -0.440572
-0.108045 0.315471 0.559124 49 149 184 0.000000 0.648983 0.760803
0.021789 0.326562 0.530410 49 149 184 0.000000 0.946569 -0.322502
-0.177632 0.304598 0.506253 49 149 184 0.000000 0.081078 -0.996708
-0.197190 0.274679 0.556184 49 149 184 0.000000 -0.761297 0.648403
-0.157140 0.324211 0.547712 49 149 184 0.000000 0.897325 0.441371
0.010614 0.267020 0.529981 49 149 184 0.000000 -0.996793 -0.080019
0.072147 0.266425 0.537395 97 173 147 0.000000 -0.996793 -0.080019
0.247139 0.318058 0.514549 97 173 147 0.000000 0.761301 -0.648399
0.310233 0.297020 0.505637 97 173 147 0.000000 0.081078 -0.996708
0.162809 0.324428 0.524149 97 173 147 0.000000 0.946569 -0.322502
0.137430 0.301135 0.565906 97 173 147 0.000000 0.322505 0.946568
0.287827 0.277993 0.559979 97 173 147 0.000000 -0.441580 0.897222
0.221856 0.322693 0.519990 97 173 147 0.000000 0.761300 -0.648400
0.229866 0.294931 0.505467 97 173 147 0.000000 0.081078 -0.996708
0.193929 0.267489 0.543134 97 173 147 0.000000 -0.946501 0.322701
0.143965 0.324325 0.547480 97 173 147 0.000000 0.897325 0.441371
0.223380 0.281126 0.509540 97 173 147 0.000000 -0.648108 -0.761548
0.310252 0.277215 0.559162 97 173 147 0.000000 -0.761297 0.648403
0.133693 0.267637 0.543568 97 173 147 0.000000 -0.946501 0.322701
0.238345 0.302468 0.506080 97 173 147 0.000000 0.081078 -0.996708
0.103433 0.269270 0.523431 97 173 147 0.000000 -0.897717 -0.440572
0.285562 0.319257 0.515956 97 173 147 0.000000 0.761301 -0.648399
0.244685 0.279668 0.560803 97 173 147 0.000000 -0.441580 0.897222
0.292449 0.267231 0.527585 97 173 147 0.000000 -0.897717 -0.440572
0.079839 0.317697 0.557226 97 173 147 0.000000 0.648983 0.760803
0.062383 0.322188 0.519398 97 173 147 0.000000 0.761300 -0.648400
0.083946 0.280483 0.510087 97 173 147 0.000000 -0.648108 -0.761548
0.172993 0.283154 0.562519 97 173 147 0.000000 -0.441580 0.897222
0.158878 0.320006 0.516836 97 173 147 0.000000 0.761300 -0.648400
0.080677 0.317962 0.514435 97 173 147 0.000000 0.761300 -0.648400
0.166943 0.324074 0.523108 97 173 147 0.000000 0.946569 -0.322502
0.192175 0.293834 0.505378 97 173 147 0.000000 0.081078 -0.996708
0.123770 0.326288 0.541768 97 173 147 0.000000 0.996816 0.079732
0.303106 0.296165 0.505567 97 173 147 0.000000 0.081078 -0.996708
0.135030 0.307764 0.507737 97 173 147 0.000000 0.440364 -0.897819
0.162229 0.322223 0.519439 97 173 147 0.000000 0.761300 -0.648400
0.231953 0.311012 0.509331 97 173 147 0.000000 0.440364 -0.897819
0.153355 0.310062 0.562864 97 173 147 0.000000 0.322505 0.946568
0.216364 0.288638 0.565189 97 173 147 0.000000 -0.079579 0.996829
0.117715 0.269562 0.522836 97 173 147 0.000000 -0.897717 -0.440572
0.154890 0.302209 0.506059 97 173 147 0.000000 0.081078 -0.996708
0.209555 0.324308 0.523795 97 173 147 0.000000 0.946569 -0.322502
0.078724 0.273140 0.554378 97 173 147 0.000000 -0.761297 0.648403
0.136630 0.266441 0.537202 97 173 147 0.000000 -0.996793 -0.080019
0.220678 0.300496 0.566124 97 173 147 0.000000 0.322505 0.946568
0.147578 0.318673 0.556393 97 173 147 0.000000 0.648984 0.760802
0.280279 0.313835 0.560519 97 173 147 0.000000 0.648983 0.760803
0.096722 0.326174 0.529272 97 173 147 0.000000 0.946569 -0.322502
0.318076 0.287875 0.507007 97 173 147 0.000000 -0.323805 -0.946124
0.132391 0.266466 0.536887 97 173 147 0.000000 -0.996793 -0.080019
0.198975 0.285299 0.563574 97 173 147 0.000000 -0.441580 0.897222
0.095524 0.267098 0.529018 97 173 147 0.000000 -0.996793 -0.080019
0.226915 0.279984 0.560959 97 173 147 0.000000 -0.441580 0.897222
0.282473 0.306909 0.563939 97 173 147 0.000000 0.322505 0.946568
0.077601 0.279573 0.560756 97 173 147 0.000000 -0.441580 0.897222
0.116929 0.326755 0.530979 97 173 147 0.000000 0.946569 -0.322502
0.315705 0.309053 0.508370 97 173 147 0.000000 0.440364 -0.897819
0.310502 0.307691 0.563672 97 173 147 0.000000 0.322505 0.946568
0.122714 0.315848 0.511953 97 173 147 0.000000 0.761301 -0.648399
0.272528 0.280176 0.561053 97 173 147 0.000000 -0.441580 0.897222
0.062207 0.287878 0.564844 97 173 147 0.000000 -0.441580 0.897222
0.303384 0.305526 0.506640 97 173 147 0.000000 0.440364 -0.897819
0.263068 0.266620 0.540584 97 173 147 0.000000 -0.946501 0.322701
0.145056 0.306605 0.507169 97 173 147 0.000000 0.440364 -0.897819
0.220108 0.266522 0.536185 97 173 147 0.000000 -0.996793 -0.080019
0.281653 0.301988 0.565615 97 173 147 0.000000 0.322505 0.946568
0.116505 0.319831 0.516630 97 173 147 0.000000 0.761300 -0.648400
0.106986 0.321815 0.552583 97 173 147 0.000000 0.897325 0.441371
0.167988 0.297964 0.505714 97 173 147 0.000000 0.081078 -0.996708
0.137747 0.310563 0.509111 97 173 147 0.000000 0.440364 -0.897819
0.100173 0.297527 0.505678 97 173 147 0.000000 0.081078 -0.996708
0.173443 0.317182 0.513520 97 173 147 0.000000 0.761301 -0.648399
0.285555 0.272201 0.517459 97 173 147 0.000000 -0.897717 -0.440572
0.233781 0.306917 0.507322 97 173 147 0.000000 0.440364 -0.897819
0.164126 0.305003 0.506383 97 173 147 0.000000 0.440364 -0.897819
0.188133 0.279966 0.510527 97 173 147 0.000000 -0.648108 -0.761548
0.199716 0.316402 0.558330 97 173 147 0.000000 0.648983 0.760803
0.090136 0.311092 0.562513 97 173 147 0.000000 0.322505 0.946568
0.080910 0.270526 0.551308 97 173 147 0.000000 -0.761297 0.648403
0.221339 0.324062 0.523073 97 173 147 0.000000 0.946569 -0.322502
0.202377 0.306848 0.507288 97 173 147 0.000000 0.440364 -0.897819
0.141400 0.296191 0.565792 97 173 147 0.000000 -0.079579 0.996829
0.117081 0.274708 0.556219 97 173 147 0.000000 -0.761297 0.648403
0.111945 0.286907 0.507338 97 173 147 0.000000 -0.323805 -0.946124
0.313539 0.278942 0.560446 97 173 147 0.000000 -0.441580 0.897222
0.181247 0.286717 0.507403 97 173 147 0.000000 -0.323805 -0.946124
0.069100 0.326694 0.536695 97 173 147 0.000000 0.996816 0.079732
0.265538 0.297393 0.565888 97 173 147 0.000000 -0.079579 0.996829
0.169946 0.266367 0.538115 97 173 147 0.000000 -0.996793 -0.080019
0.153257 0.302482 0.565447 97 173 147 0.000000 0.322505 0.946568
0.094187 0.284685 0.563272 97 173 147 0.000000 -0.441580 0.897222
0.125776 0.289697 0.565273 97 173 147 0.000000 -0.079579 0.996829
0.251872 0.286995 0.564410 97 173 147 0.000000 -0.441580 0.897222
0.080626 0.266972 0.530586 97 173 147 0.000000 -0.996793 -0.080019
0.172561 0.318238 0.556764 97 173 147 0.000000 0.648984 0.760802
0.117578 0.323218 0.549730 97 173 147 0.000000 0.897325 0.441371
0.068733 0.276434 0.513533 97 173 147 0.000000 -0.648108 -0.761548
0.169800 0.310859 0.509257 97 173 147 0.000000 0.440364 -0.897819
0.314514 0.267168 0.528139 97 173 147 0.000000 -0.996793 -0.080019
0.105334 0.266582 0.540474 97 173 147 0.000000 -0.946501 0.322701
0.150971 0.308675 0.508184 97 173 147 0.000000 0.440364 -0.897819
0.076503 0.313729 0.560610 97 173 147 0.000000 0.648983 0.760803
0.420422 0.326341 0.541107 175 63 95 0.000000 0.996816 0.079732
0.547601 0.293770 0.505402 175 63 95 0.002325 0.078732 -0.996893
0.522649 0.289414 0.506480 175 63 95 0.000000 -0.323805 -0.946124
0.334425 0.324014 0.522933 175 63 95 0.000000 0.946569 -0.322502
0.441075 0.312091 0.562008 175 63 95 0.000000 0.648983 0.760803
0.435504 0.321144 0.518172 175 63 95 0.000000 0.761301 -0.648399
0.435680 0.296787 0.505618 175 63 95 0.000000 0.081079 -0.996708
0.448674 0.305022 0.506393 175 63 95 0.000000 0.440364 -0.897819
0.489142 0.271458 0.518973 175 63 95 0.000000 -0.897717 -0.440573
0.586781 0.264279 0.548606 175 63 95 0.897656 0.000000 0.440696
0.373737 0.268537 0.546209 175 63 95 0.000000 -0.946501 0.322701
0.388099 0.284584 0.508133 175 63 95 0.000000 -0.323805 -0.946124
0.373626 0.315454 0.511510 175 63 95 0.000000 0.440364 -0.897819
0.401633 0.267422 0.542938 175 63 95 0.000000 -0.946501 0.322701
0.577560 0.287230 0.511067 175 63 95 0.440098 0.000000 -0.897950
0.419443 0.272520 0.553651 175 63 95 -0.000011 -0.761293 0.648408
0.505158 0.324145 0.523316 175 63 95 0.000000 0.946569 -0.322501
0.386418 0.268512 0.546134 175 63 95 0.000000 -0.946501 0.322701
0.493888 0.313749 0.510674 175 63 95 0.000000 0.440364 -0.897819
0.534760 0.306056 0.506900 175 63 95 0.000000 0.440364 -0.897819
0.557784 0.275465 0.505457 175 63 95 0.078777 0.002492 -0.996889
0.481569 0.320494 0.517409 175 63 95 0.000000 0.761301 -0.648399
0.447963 0.267563 0.526908 175 63 95 0.000000 -0.897717 -0.440573
0.415094 0.320118 0.555160 175 63 95 0.000000 0.648984 0.760802
0.478262 0.273466 0.554762 175 63 95 0.000000 -0.761214 0.648500
0.421615 0.307741 0.507726 175 63 95 0.000000 0.440364 -0.897819
0.377904 0.275882 0.514003 175 63 95 0.000000 -0.648108 -0.761548
0.408000 0.268570 0.524857 175 63 95 0.000000 -0.897717 -0.440572
0.589526 0.312052 0.536889 175 63 95 0.996406 0.023458 0.081398
0.448188 0.302369 0.506072 175 63 95 0.000000 0.081079 -0.996708
0.405339 0.313483 0.510543 175 63 95 0.000000 0.440364 -0.897819
0.564432 0.306155 0.507344 175 63 95 0.078077 0.372134 -0.924889
0.515947 0.300789 0.566024 175 63 95 0.000000 0.322505 0.946568
0.448460 0.312423 0.510024 175 63 95 0.000000 0.440364 -0.897819
0.475141 0.271126 0.519649 175 63 95 0.000000 -0.897717 -0.440572
0.401125 0.272465 0.553585 175 63 95 -0.000011 -0.761293 0.648408
0.422575 0.325079 0.526057 175 63 95 0.000000 0.946569 -0.322502
0.570410 0.310126 0.509447 175 63 95 0.078077 0.372134 -0.924889
0.384606 0.299429 0.566050 175 63 95 0.000000 -0.079579 0.996829
0.511492 0.303385 0.506155 175 63 95 0.000000 0.081079 -0.996708
0.436200 0.324729 0.546660 175 63 95 0.000000 0.897325 0.441371
0.519230 0.324868 0.525441 175 63 95 0.000000 0.946569 -0.322501
0.468120 0.276418 0.513546 175 63 95 0.000000 -0.648109 -0.761547
0.343456 0.288103 0.506929 175 63 95 0.000000 -0.323805 -0.946124
0.587630 0.299920 0.524728 175 63 95 0.946620 0.000000 -0.322352
0.429182 0.321397 0.553434 175 63 95 0.000000 0.897325 0.441371
0.328437 0.286499 0.564165 175 63 95 0.000000 -0.441580 0.897222
0.418902 0.297590 0.505683 175 63 95 0.000000 0.081079 -0.996708
0.376618 0.290384 0.506148 175 63 95 0.000000 -0.323805 -0.946124
0.495595 0.280387 0.510169 175 63 95 0.000000 -0.648108 -0.761548
0.415738 0.326807 0.535283 175 63 95 0.000000 0.996816 0.079732
0.363931 0.284124 0.508290 175 63 95 0.000000 -0.323805 -0.946124
0.441220 0.271594 0.552563 175 63 95 -0.000011 -0.761293 0.648408
0.401404 0.282181 0.508956 175 63 95 0.000000 -0.323805 -0.946124
0.552376 0.294960 0.505524 175 63 95 0.014072 0.067068 -0.997649
0.587087 0.267813 0.547982 175 63 95 0.897656 0.000000 0.440696
0.335022 0.318048 0.514537 175 63 95 0.000000 0.761301 -0.648399
0.499269 0.315681 0.558945 175 63 95 0.000000 0.648982 0.760804
0.583258 0.297083 0.517123 175 63 95 0.761548 0.000000 -0.648109
0.506686 0.306930 0.507329 175 63 95 0.000000 0.440364 -0.897819
0.574689 0.324140 0.523959 175 63 95 0.023801 0.943260 -0.331200
0.582086 0.325164 0.527700 175 63 95 0.166125 0.913710 -0.370859
0.585450 0.308836 0.550934 175 63 95 0.892041 0.023524 0.451342
0.507226 0.268409 0.545836 175 63 95 -0.000014 -0.946551 0.322555
0.389359 0.322060 0.552086 175 63 95 0.000000 0.897325 0.441371
0.470237 0.304220 0.564855 175 63 95 0.000000 0.322505 0.946568
0.466297 0.298548 0.505761 175 63 95 0.000000 0.081079 -0.996708
0.354100 0.283036 0.508663 175 63 95 0.000000 -0.323805 -0.946124
0.386421 0.292814 0.505317 175 63 95 0.000000 -0.323805 -0.946124
0.458082 0.273546 0.554856 175 63 95 0.000000 -0.761214 0.648500
0.487707 0.269165 0.548053 175 63 95 -0.000014 -0.946551 0.322555
0.449335 0.316624 0.512865 175 63 95 0.000000 0.761299 -0.648401
0.467063 0.298104 0.505725 175 63 95 0.000000 0.081079 -0.996708
0.327854 0.292562 0.565502 175 63 95 0.000000 -0.079579 0.996829
0.589937 0.306971 0.531593 175 63 95 0.943121 0.022203 -0.331706
0.475619 0.278149 0.512074 175 63 95 0.000000 -0.648109 -0.761547
0.516650 0.295921 0.505547 175 63 95 0.000000 0.081079 -0.996708
0.335553 0.326180 0.543122 175 63 95 0.000000 0.996816 0.079732
0.373686 0.322273 0.519497 175 63 95 0.000000 0.761301 -0.648399
0.421327 0.320185 0.517046 175 63 95 0.000000 0.761301 -0.648399
0.434376 0.287616 0.507095 175 63 95 0.000000 -0.323805 -0.946124
0.434866 0.311948 0.562129 175 63 95 0.000000 0.648983 0.760803
0.491635 0.320939 0.554365 175 63 95 0.000000 0.897325 0.441371
0.470345 0.276005 0.557742 175 63 95 0.000000 -0.761214 0.648500
0.406908 0.268900 0.547272 175 63 95 0.000000 -0.946501 0.322701
0.444317 0.279922 0.510564 175 63 95 0.000000 -0.648108 -0.761548
0.371688 0.279318 0.511079 175 63 95 0.000000 -0.648108 -0.761548
0.499533 0.291213 0.565394 175 63 95 0.000000 -0.079579 0.996829
0.332926 0.276713 0.558573 175 63 95 0.000000 -0.761297 0.648403
0.372382 0.314637 0.559836 175 63 95 0.000000 0.648984 0.760802
0.485098 0.301609 0.506010 175 63 95 0.000000 0.081079 -0.996708
0.363905 0.310513 0.509086 175 63 95 0.000000 0.440364 -0.897819
0.415729 0.288471 0.565136 175 63 95 0.000000 -0.441580 0.897222
0.529906 -0.072691 0.531494 149 77 91 -0.996833 0.000000 -0.079520
0.588012 -0.066332 0.525850 149 77 91 0.946620 0.000000 -0.322352
0.561488 -0.050138 0.505755 149 77 91 0.081173 0.000000 -0.996700
0.540977 -0.134199 0.512233 149 77 91 -0.648193 0.000000 -0.761476
0.573759 -0.037046 0.509204 149 77 91 0.440098 0.000000 -0.897950
0.554644 -0.048570 0.565428 149 77 91 -0.079565 0.000000 0.996830
0.529758 -0.014533 0.540959 149 77 91 -0.946603 0.000000 0.322402
0.534141 -0.110425 0.519648 149 77 91 -0.897320 0.000000 -0.441381
0.563947 -0.081263 0.505956 149 77 91 0.081173 0.000000 -0.996700
0.590024 -0.019188 0.532604 149 77 91 0.996830 0.000000 0.079567
0.557329 -0.054889 0.565642 149 77 91 -0.079565 0.000000 0.996830
0.583808 -0.135536 0.517769 149 77 91 0.761548 0.000000 -0.648109
0.583874 -0.090846 0.554528 149 77 91 0.897656 0.000000 0.440696
0.529659 -0.040024 0.534584 149 77 91 -0.996833 0.000000 -0.079520
0.529874 -0.136599 0.531893 149 77 91 -0.996833 0.000000 -0.079520
0.535187 -0.084605 0.517520 149 77 91 -0.897320 0.000000 -0.441381
0.561727 -0.138815 0.505775 149 77 91 0.081173 0.000000 -0.996700
0.536743 -0.104982 0.515837 149 77 91 -0.648193 0.000000 -0.761476
0.561101 -0.105436 0.505724 149 77 91 0.081173 0.000000 -0.996700
0.566402 -0.092638 0.565137 149 77 91 0.322403 0.000000 0.946602
0.586506 -0.011386 0.521428 149 77 91 0.946620 0.000000 -0.322352
0.549393 -0.098682 0.507519 149 77 91 -0.323753 0.000000 -0.946142
0.544678 -0.126789 0.561791 149 77 91 -0.441315 0.000000 0.897352
0.530542 -0.086287 0.543260 149 77 91 -0.946603 0.000000 0.322402
0.584409 -0.128259 0.553438 149 77 91 0.897656 0.000000 0.440696
0.580505 -0.114407 0.513888 149 77 91 0.761548 0.000000 -0.648109
0.539860 -0.076080 0.558743 149 77 91 -0.761544 0.000000 0.648113
0.584951 -0.055625 0.552334 149 77 91 0.897656 0.000000 0.440696
0.586155 -0.110225 0.549880 149 77 91 0.897656 0.000000 0.440696
0.562356 -0.121766 0.505826 149 77 91 0.081173 0.000000 -0.996700
0.558997 -0.044037 0.505553 149 77 91 0.081173 0.000000 -0.996700
0.570405 -0.056049 0.563774 149 77 91 0.322403 0.000000 0.946602
0.531516 -0.067033 0.546122 149 77 91 -0.946603 0.000000 0.322402
0.588370 -0.049082 0.526902 149 77 91 0.946620 0.000000 -0.322352
0.535887 -0.078253 0.516566 149 77 91 -0.648193 0.000000 -0.761476
0.531081 -0.138088 0.525867 149 77 91 -0.897320 0.000000 -0.441381
0.540322 0.088356 0.559286 182 199 75 -0.761544 0.000000 0.648113
0.586832 0.022405 0.522384 182 199 75 0.946620 0.000000 -0.322352
0.540180 0.004890 0.559120 182 199 75 -0.761544 0.000000 0.648113
0.589639 0.034550 0.537432 182 199 75 0.996830 0.000000 0.079567
0.563279 0.116579 0.566117 182 199 75 -0.079565 0.000000 0.996830
0.529802 0.034832 0.532792 182 199 75 -0.996833 0.000000 -0.079520
0.532716 0.066783 0.522544 182 199 75 -0.897320 0.000000 -0.441381
0.529722 0.091464 0.533794 182 199 75 -0.996833 0.000000 -0.079520
0.550199 0.036952 0.564506 182 199 75 -0.441315 0.000000 0.897352
0.589695 0.073349 0.530793 182 199 75 0.946620 0.000000 -0.322352
0.530840 0.116976 0.526358 182 199 75 -0.897320 0.000000 -0.441381
0.529987 0.061980 0.530472 182 199 75 -0.996833 0.000000 -0.079520
0.535319 0.043641 0.553408 182 199 75 -0.761544 0.000000 0.648113
0.586073 0.050843 0.550048 182 199 75 0.897656 0.000000 0.440696
0.539731 -0.002870 0.558592 182 199 75 -0.761544 0.000000 0.648113
0.529498 0.100476 0.536610 182 199 75 -0.996833 0.000000 -0.079520
0.550637 0.127207 0.564721 182 199 75 -0.441315 0.000000 0.897352
0.529404 0.034946 0.537781 182 199 75 -0.996833 0.000000 -0.079520
0.590075 0.105477 0.531971 182 199 75 0.996830 0.000000 0.079567
0.586791 0.071846 0.522264 182 199 75 0.946620 0.000000 -0.322352
0.532286 0.091406 0.548382 182 199 75 -0.946603 0.000000 0.322402
0.532727 0.041719 0.522520 182 199 75 -0.897320 0.000000 -0.441381
0.541575 0.052516 0.511724 182 199 75 -0.648193 0.000000 -0.761476
0.563406 0.101122 0.505912 182 199 75 0.081173 0.000000 -0.996700
0.583846 0.056526 0.517814 182 199 75 0.761548 0.000000 -0.648109
0.531925 0.021937 0.547321 182 199 75 -0.946603 0.000000 0.322402
0.586482 0.007503 0.549215 182 199 75 0.897656 0.000000 0.440696
0.579558 0.115343 0.558210 182 199 75 0.648983 0.000000 0.760803
0.543928 0.057535 0.509721 182 199 75 -0.648193 0.000000 -0.761476
0.584436 0.043677 0.518507 182 199 75 0.761548 0.000000 -0.648109
0.557187 0.065506 0.565631 182 199 75 -0.079565 0.000000 0.996830
0.569685 0.095809 0.564019 182 199 75 0.322403 0.000000 0.946602
0.588801 0.003232 0.528166 182 199 75 0.946620 0.000000 -0.322352
0.554446 0.047505 0.565412 182 199 75 -0.079565 0.000000 0.996830
0.543530 0.096751 0.561226 182 199 75 -0.441315 0.000000 0.897352
0.536761 0.047221 0.555102 182 199 75 -0.761544 0.000000 0.648113
0.586930 0.111891 0.548302 182 199 75 0.897656 0.000000 0.440696
0.531914 0.123066 0.547291 182 199 75 -0.946603 0.000000 0.322402
0.564893 0.079044 0.506033 182 199 75 0.081173 0.000000 -0.996700
0.548522 0.110693 0.507817 182 199 75 -0.323753 0.000000 -0.946142
0.535268 0.055941 0.517354 182 199 75 -0.897320 0.000000 -0.441381
0.553556 0.030893 0.565341 182 199 75 -0.079565 0.000000 0.996830
0.541234 0.101302 0.560097 182 199 75 -0.441315 0.000000 0.897352
0.533030 0.081478 0.521906 182 199 75 -0.897320 0.000000 -0.441381
0.538107 0.021538 0.556683 182 199 75 -0.761544 0.000000 0.648113
0.539141 0.020895 0.557898 182 199 75 -0.761544 0.000000 0.648113
0.531624 0.117498 0.546438 182 199 75 -0.946603 0.000000 0.322402
0.539959 0.122117 0.513100 182 199 75 -0.648193 0.000000 -0.761476
0.589814 0.030087 0.535242 182 199 75 0.996830 0.000000 0.079567
0.571281 0.049885 0.507988 182 199 75 0.440098 0.000000 -0.897950
0.530478 0.077499 0.543071 182 199 75 -0.946603 0.000000 0.322402
0.543036 0.064907 0.510481 182 199 75 -0.648193 0.000000 -0.761476
0.573061 0.036679 0.508860 182 199 75 0.440098 0.000000 -0.897950
0.559938 0.073101 0.505629 182 199 75 0.081173 0.000000 -0.996700
0.571885 0.038543 0.508284 182 199 75 0.440098 0.000000 -0.897950
0.560397 0.094148 0.565887 182 199 75 -0.079565 0.000000 0.996830
0.575444 0.121004 0.510029 182 199 75 0.440098 0.000000 -0.897950
0.537896 0.066405 0.556435 182 199 75 -0.761544 0.000000 0.648113
0.552407 0.229448 0.565249 166 234 255 -0.079565 0.000000 0.996830
0.586497 0.246697 0.521400 166 234 255 0.946620 0.000000 -0.322352
0.579931 0.154904 0.513214 166 234 255 0.761548 0.000000 -0.648109
0.534066 0.231516 0.519799 166 234 255 -0.897320 0.000000 -0.441381
0.564719 0.203620 0.565711 166 234 255 0.322403 0.000000 0.946602
0.575316 0.228982 0.561828 166 234 255 0.648983 0.000000 0.760803
0.532368 0.211448 0.548623 166 234 255 -0.946603 0.000000 0.322402
0.547242 0.139384 0.508255 166 234 255 -0.323753 0.000000 -0.946142
0.545015 0.227183 0.561956 166 234 255 -0.441315 0.000000 0.897352
0.588836 0.130480 0.528270 166 234 255 0.946620 0.000000 -0.322352
0.578466 0.186802 0.511511 166 234 255 0.440098 0.000000 -0.897950
0.537373 0.158011 0.515301 166 234 255 -0.648193 0.000000 -0.761476
0.588309 0.221301 0.526723 166 234 255 0.946620 0.000000 -0.322352
0.586257 0.214852 0.549674 166 234 255 0.897656 0.000000 0.440696
0.559502 0.214658 0.505594 166 234 255 0.081173 0.000000 -0.996700
0.590063 0.223942 0.532120 166 234 255 0.996830 0.000000 0.079567
0.581798 0.249202 0.515407 166 234 255 0.761548 0.000000 -0.648109
0.582488 0.219417 0.555711 166 234 255 0.648983 0.000000 0.760803
0.554486 0.162991 0.505777 166 234 255 -0.323753 0.000000 -0.946142
0.579358 0.171116 0.558380 166 234 255 0.648983 0.000000 0.760803
0.565595 0.136176 0.565412 166 234 255 0.322403 0.000000 0.946602
0.557702 0.217250 0.505447 166 234 255 0.081173 0.000000 -0.996700
0.568226 0.253237 0.506491 166 234 255 0.440098 0.000000 -0.897950
0.531149 0.230242 0.545043 166 234 255 -0.946603 0.000000 0.322402
0.532808 0.153292 0.522357 166 234 255 -0.897320 0.000000 -0.441381
0.574327 0.186045 0.509482 166 234 255 0.440098 0.000000 -0.897950
0.567569 0.172604 0.506251 166 234 255 0.081173 0.000000 -0.996700
0.533721 0.255807 0.520258 166 234 255 -0.893060 -0.027349 -0.449106
0.589582 0.132644 0.538149 166 234 255 0.996830 0.000000 0.079567
0.572172 0.258911 0.563172 166 234 255 0.322403 0.000000 0.946602
0.529281 0.210062 0.539323 166 234 255 -0.996833 0.000000 -0.079520
0.548712 0.211661 0.563775 166 234 255 -0.441315 0.000000 0.897352
0.529999 0.137360 0.530326 166 234 255 -0.996833 0.000000 -0.079520
0.573636 0.214277 0.509144 166 234 255 0.440098 0.000000 -0.897950
0.589571 0.255011 0.530427 166 234 255 0.946620 0.000000 -0.322352
0.533039 0.210632 0.550592 166 234 255 -0.946603 0.000000 0.322402
0.532124 0.217960 0.547906 166 234 255 -0.946603 0.000000 0.322402
0.564281 0.226600 0.505983 166 234 255 0.081173 0.000000 -0.996700
0.544423 0.240503 0.561665 166 234 255 -0.441315 0.000000 0.897352
0.577095 0.251143 0.560311 166 234 255 0.648983 0.000000 0.760803
0.562373 0.215424 0.505828 166 234 255 0.081173 0.000000 -0.996700
0.535208 0.226038 0.517477 166 234 255 -0.897320 0.000000 -0.441381
0.530387 0.236751 0.527278 166 234 255 -0.897320 0.000000 -0.441381
0.589870 0.195525 0.531305 166 234 255 0.946620 0.000000 -0.322352
0.532412 0.242226 0.548752 166 234 255 -0.946603 0.000000 0.322402
0.534049 0.261769 0.552253 166 234 255 -0.753026 -0.022115 0.657619
0.589546 0.132187 0.530354 166 234 255 0.946620 0.000000 -0.322352
0.537507 0.159601 0.515187 166 234 255 -0.648193 0.000000 -0.761476
0.579226 0.199444 0.558493 166 234 255 0.648983 0.000000 0.760803
0.589442 0.242679 0.539902 166 234 255 0.996830 0.000000 0.079567
0.578423 0.167310 0.559178 166 234 255 0.648983 0.000000 0.760803
0.546465 0.204886 0.562670 166 234 255 -0.441315 0.000000 0.897352
0.530119 0.176286 0.528825 166 234 255 -0.996833 0.000000 -0.079520
0.535112 0.139185 0.517672 166 234 255 -0.897320 0.000000 -0.441381
0.545676 0.199413 0.562281 166 234 255 -0.441315 0.000000 0.897352
0.589330 0.142939 0.541308 166 234 255 0.996830 0.000000 0.079567
0.558362 -0.065745 -0.505496 211 115 53 0.081005 0.000000 0.996714
0.558012 -0.083977 -0.565690 211 115 53 -0.079565 0.000000 -0.996830
0.589475 -0.018821 -0.539475 211 115 53 0.996830 0.000000 -0.079567
0.551255 -0.046003 -0.506877 211 115 53 -0.323750 0.000000 0.946143
0.530053 -0.084303 -0.529621 211 115 53 -0.996843 0.000000 0.079402
0.586882 -0.059818 -0.522524 211 115 53 0.946620 0.000000 0.322352
0.558155 -0.047626 -0.505479 211 115 53 0.081005 0.000000 0.996714
0.529893 -0.004270 -0.531639 211 115 53 -0.996843 0.000000 0.079402
0.535061 -0.073511 -0.553097 211 115 53 -0.761544 0.000000 -0.648113
0.536379 -0.120196 -0.516142 211 115 53 -0.648194 0.000000 0.761475
0.550092 -0.098003 -0.564446 211 115 53 -0.441314 0.000000 -0.897353
0.557479 -0.069192 -0.565647 211 115 53 -0.079565 0.000000 -0.996830
0.575692 -0.060773 -0.561500 211 115 53 0.648983 0.000000 -0.760803
0.558884 -0.080078 -0.505538 211 115 53 0.081005 0.000000 0.996714
0.581784 -0.020004 -0.515385 211 115 53 0.761478 0.000000 0.648191
0.555731 -0.126805 -0.505346 211 115 53 -0.323750 0.000000 0.946143
0.562593 -0.064680 -0.505839 211 115 53 0.081005 0.000000 0.996714
0.563090 -0.054750 -0.566095 211 115 53 -0.079565 0.000000 -0.996830
0.551489 -0.017365 -0.565133 211 115 53 -0.441314 0.000000 -0.897353
0.571993 -0.092201 -0.563226 211 115 53 0.322403 0.000000 -0.946602
0.554722 -0.057739 -0.565427 211 115 53 -0.079565 0.000000 -0.996830
0.588211 -0.013176 -0.545687 211 115 53 0.897656 0.000000 -0.440696
0.573462 -0.024940 -0.562726 211 115 53 0.322403 0.000000 -0.946602
0.589634 -0.104273 -0.530606 211 115 53 0.946620 0.000000 0.322352
0.557986 -0.045966 -0.505465 211 115 53 0.081005 0.000000 0.996714
0.583966 -0.043724 -0.517949 211 115 53 0.761478 0.000000 0.648191
0.549272 -0.129248 -0.507556 211 115 53 -0.323750 0.000000 0.946143
0.576447 -0.022427 -0.560857 211 115 53 0.648983 0.000000 -0.760803
0.585483 -0.065366 -0.519730 211 115 53 0.761478 0.000000 0.648191
0.589256 -0.128620 -0.529496 211 115 53 0.946620 0.000000 0.322352
0.565980 -0.126785 -0.506115 211 115 53 0.081005 0.000000 0.996714
0.539966 -0.062789 -0.513089 211 115 53 -0.648194 0.000000 0.761475
0.575885 -0.117055 -0.561336 211 115 53 0.648983 0.000000 -0.760803
0.581889 -0.022830 -0.556214 211 115 53 0.648983 0.000000 -0.760803
0.540145 -0.105235 -0.559072 211 115 53 -0.761544 0.000000 -0.648113
0.533584 -0.126436 -0.520768 211 115 53 -0.896993 0.000000 0.442044
0.535761 -0.100839 -0.516668 211 115 53 -0.648194 0.000000 0.761475
0.548480 -0.084139 -0.507827 211 115 53 -0.323750 0.000000 0.946143
0.577204 -0.135831 -0.510887 211 115 53 0.440231 0.000000 0.897884
0.556267 -0.029786 -0.505325 211 115 53 0.081005 0.000000 0.996714
0.536898 -0.045301 -0.555256 211 115 53 -0.761544 0.000000 -0.648113
0.588836 -0.109915 -0.528262 211 115 53 0.946620 0.000000 0.322352
0.539401 -0.119224 -0.558197 211 115 53 -0.761544 0.000000 -0.648113
0.589541 -0.095698 -0.538655 211 115 53 0.996830 0.000000 -0.079567
0.589585 -0.064853 -0.538097 211 115 53 0.996830 0.000000 -0.079567
0.565404 -0.097499 -0.506068 211 115 53 0.081005 0.000000 0.996714
0.562093 -0.034541 -0.566016 211 115 53 -0.079565 0.000000 -0.996830
0.531731 -0.025740 -0.546747 211 115 53 -0.946603 0.000000 -0.322402
0.534489 -0.124650 -0.552426 211 115 53 -0.761544 0.000000 -0.648113
0.552902 -0.106031 -0.506314 211 115 53 -0.323750 0.000000 0.946143
0.544432 -0.058126 -0.509287 211 115 53 -0.648194 0.000000 0.761475
0.585205 -0.096765 -0.519404 211 115 53 0.761478 0.000000 0.648191
0.587202 -0.077877 -0.547742 211 115 53 0.897656 0.000000 -0.440696
0.539493 0.071246 -0.513492 52 56 87 -0.648194 0.000000 0.761475
0.583977 0.022917 -0.554310 52 56 87 0.897656 0.000000 -0.440696
0.589280 0.030913 -0.541924 52 56 87 0.996830 0.000000 -0.079567
0.589325 0.014724 -0.541357 52 56 87 0.996830 0.000000 -0.079567
0.574960 0.100122 -0.562125 52 56 87 0.648983 0.000000 -0.760803
0.536471 0.103228 -0.516064 52 56 87 -0.648194 0.000000 0.761475
0.554156 0.026431 -0.565382 52 56 87 -0.079565 0.000000 -0.996830
0.581636 0.067270 -0.515211 52 56 87 0.761478 0.000000 0.648191
0.588584 0.081768 -0.527523 52 56 87 0.946620 0.000000 0.322352
0.529274 -0.002291 -0.539530 52 56 87 -0.946603 0.000000 -0.322402
0.529426 0.054002 -0.537498 52 56 87 -0.996843 0.000000 0.079402
0.578268 0.080587 -0.559303 52 56 87 0.648983 0.000000 -0.760803
0.531976 0.091415 -0.524029 52 56 87 -0.896993 0.000000 0.442044
0.587424 -0.002075 -0.524117 52 56 87 0.946620 0.000000 0.322352
0.529385 0.118883 -0.538008 52 56 87 -0.996843 0.000000 0.079402
0.546721 0.048094 -0.562789 52 56 87 -0.441314 0.000000 -0.897353
0.539673 0.118541 -0.558516 52 56 87 -0.761544 0.000000 -0.648113
0.560053 0.063867 -0.505633 52 56 87 0.081005 0.000000 0.996714
0.585092 0.068583 -0.552038 52 56 87 0.897656 0.000000 -0.440696
0.589763 0.053868 -0.530985 52 56 87 0.946620 0.000000 0.322352
0.579260 0.039795 -0.558457 52 56 87 0.648983 0.000000 -0.760803
0.555044 0.053141 -0.505581 52 56 87 -0.323750 0.000000 0.946143
0.579935 0.063190 -0.513213 52 56 87 0.761478 0.000000 0.648191
0.561655 0.015109 -0.505763 52 56 87 0.081005 0.000000 0.996714
0.584393 0.091469 -0.518450 52 56 87 0.761478 0.000000 0.648191
0.546214 0.075036 -0.562539 52 56 87 -0.441314 0.000000 -0.897353
0.552571 0.017304 -0.506427 52 56 87 -0.323750 0.000000 0.946143
0.578111 0.050227 -0.511332 52 56 87 0.440231 0.000000 0.897884
0.586479 0.098548 -0.521341 52 56 87 0.946620 0.000000 0.322352
0.585763 0.009501 -0.550672 52 56 87 0.897656 0.000000 -0.440696
0.565172 0.097793 -0.565550 52 56 87 0.322403 0.000000 -0.946602
0.552801 0.039499 -0.506348 52 56 87 -0.323750 0.000000 0.946143
0.530803 0.123957 -0.544019 52 56 87 -0.946603 0.000000 -0.322402
0.589224 0.029650 -0.542622 52 56 87 0.996830 0.000000 -0.079567
0.588762 0.018098 -0.528045 52 56 87 0.946620 0.000000 0.322352
0.558245 0.086900 -0.565708 52 56 87 -0.079565 0.000000 -0.996830
0.560630 0.160934 -0.565899 162 53 30 -0.079565 0.000000 -0.996830
0.565463 0.161597 -0.565450 162 53 30 0.322403 0.000000 -0.946602
0.562129 0.224187 -0.505802 162 53 30 0.081005 0.000000 0.996714
0.546904 0.249803 -0.562878 162 53 30 -0.441314 0.000000 -0.897353
0.529418 0.145327 -0.537600 162 53 30 -0.996843 0.000000 0.079402
0.574490 0.170396 -0.562376 162 53 30 0.322403 0.000000 -0.946602
0.542086 0.263013 -0.511190 162 53 30 -0.637461 -0.019894 0.770226
0.588107 0.243071 -0.545899 162 53 30 0.897656 0.000000 -0.440696
0.587746 0.150742 -0.546634 162 53 30 0.897656 0.000000 -0.440696
0.589342 0.152845 -0.541153 162 53 30 0.996830 0.000000 -0.079567
0.562275 0.187891 -0.505814 162 53 30 0.081005 0.000000 0.996714
0.577987 0.235215 -0.511271 162 53 30 0.440231 0.000000 0.897884
0.589288 0.193128 -0.541822 162 53 30 0.996830 0.000000 -0.079567
0.541244 0.140329 -0.560095 162 53 30 -0.441314 0.000000 -0.897353
0.566907 0.240598 -0.506190 162 53 30 0.081005 0.000000 0.996714
0.542227 0.246897 -0.511164 162 53 30 -0.648194 0.000000 0.761475
0.532489 0.169621 -0.522989 162 53 30 -0.896993 0.000000 0.442044
0.579643 0.194053 -0.512870 162 53 30 0.761478 0.000000 0.648191
0.534140 0.192606 -0.552015 162 53 30 -0.761544 0.000000 -0.648113
0.590059 0.224345 -0.532163 162 53 30 0.996830 0.000000 -0.079567
0.529175 0.251906 -0.539028 162 53 30 -0.996281 -0.028103 0.081450
0.562756 0.181086 -0.505853 162 53 30 0.081005 0.000000 0.996714
0.570097 0.252792 -0.563872 162 53 30 0.322403 0.000000 -0.946602
0.529879 0.249692 -0.541463 162 53 30 -0.943524 -0.027710 -0.330144
0.553665 0.161542 -0.506053 162 53 30 -0.323750 0.000000 0.946143
0.553320 0.130549 -0.506171 162 53 30 -0.323750 0.000000 0.946143
0.577017 0.249785 -0.560370 162 53 30 0.648983 0.000000 -0.760803
0.545414 0.148565 -0.562146 162 53 30 -0.441314 0.000000 -0.897353
0.565040 0.185857 -0.565594 162 53 30 0.322403 0.000000 -0.946602
0.541780 0.189695 -0.511544 162 53 30 -0.648194 0.000000 0.761475
0.531670 0.150745 -0.524650 162 53 30 -0.896993 0.000000 0.442044
0.530586 0.237083 -0.543383 162 53 30 -0.946603 0.000000 -0.322402
0.582446 0.159613 -0.555739 162 53 30 0.648983 0.000000 -0.760803
0.532915 0.149252 -0.550222 162 53 30 -0.946603 0.000000 -0.322402
0.537595 0.137773 -0.515107 162 53 30 -0.648194 0.000000 0.761475
0.569783 0.203472 -0.507247 162 53 30 0.440231 0.000000 0.897884
0.586600 0.158827 -0.548968 162 53 30 0.897656 0.000000 -0.440696
0.565265 0.193642 -0.506057 162 53 30 0.081005 0.000000 0.996714
0.532645 0.175845 -0.549428 162 53 30 -0.946603 0.000000 -0.322402
0.577732 0.173127 -0.511146 162 53 30 0.440231 0.000000 0.897884
0.577008 0.242574 -0.510791 162 53 30 0.440231 0.000000 0.897884
0.537437 0.157782 -0.555889 162 53 30 -0.761544 0.000000 -0.648113
0.574739 0.236209 -0.509678 162 53 30 0.440231 0.000000 0.897884
0.534513 0.147270 -0.518882 162 53 30 -0.896993 0.000000 0.442044
0.587649 0.215938 -0.524777 162 53 30 0.946620 0.000000 0.322352
0.568152 0.184918 -0.564534 162 53 30 0.322403 0.000000 -0.946602
0.589984 0.172880 -0.533100 162 53 30 0.996830 0.000000 -0.079567
0.538718 0.218547 -0.557395 162 53 30 -0.761544 0.000000 -0.648113
0.576382 0.148094 -0.510484 162 53 30 0.440231 0.000000 0.897884
0.535063 0.240084 -0.553100 162 53 30 -0.761544 0.000000 -0.648113
-0.214213 0.302250 -0.506056 193 29 250 0.000000 0.080910 0.996721
-0.400131 0.281632 -0.509139 193 29 250 0.000000 -0.323802 0.946125
-0.317778 0.303922 -0.564949 193 29 250 0.000000 0.322505 -0.946568
-0.255263 0.310349 -0.562759 193 29 250 0.000000 0.322505 -0.946568
-0.316752 0.315141 -0.511352 193 29 250 0.000000 0.440499 0.897753
-0.329859 0.266608 -0.535105 193 29 250 0.000000 -0.996803 0.079898
-0.224458 0.321776 -0.552656 193 29 250 0.000000 0.897325 -0.441371
-0.209377 0.305127 -0.506437 193 29 250 0.000000 0.440498 0.897754
-0.237437 0.318172 -0.514677 193 29 250 0.000000 0.761230 0.648482
-0.364425 0.268954 -0.547423 193 29 250 0.000000 -0.946501 -0.322701
-0.468493 0.301783 -0.523623 193 29 250 0.833482 0.055746 0.549728
-0.243512 0.311326 -0.562426 193 29 250 0.000000 0.322505 -0.946568
-0.233574 0.273081 -0.554302 193 29 250 0.000000 -0.761297 -0.648403
-0.228481 0.305412 -0.564442 193 29 250 0.000000 0.322505 -0.946568
-0.449863 0.298983 -0.566007 193 29 250 0.000000 -0.079579 -0.996829
-0.227952 0.324021 -0.522946 193 29 250 0.000000 0.946569 0.322502
-0.464048 0.262273 -0.531474 193 29 250 0.977203 0.065359 0.201995
-0.308654 0.311731 -0.562289 193 29 250 0.000000 0.322505 -0.946568
-0.257277 0.303061 -0.506122 193 29 250 0.000000 0.080910 0.996721
-0.437137 0.323174 -0.549813 193 29 250 0.000000 0.897325 -0.441371
-0.296337 0.308110 -0.563522 193 29 250 0.000000 0.322505 -0.946568
-0.332455 0.267227 -0.542358 193 29 250 0.000000 -0.946501 -0.322701
-0.251031 0.270853 -0.551686 193 29 250 0.000000 -0.761297 -0.648403
-0.446065 0.323456 -0.521289 193 29 250 0.000000 0.946569 0.322502
-0.454713 0.272234 -0.517386 193 29 250 0.000000 -0.897391 0.441236
-0.304918 0.290010 -0.565291 193 29 250 0.000000 -0.079579 -0.996829
-0.455625 0.266654 -0.534530 193 29 250 0.000000 -0.996803 0.079898
-0.365528 0.316889 -0.557908 193 29 250 0.000000 0.648984 -0.760802
-0.432876 0.325810 -0.528198 193 29 250 0.000000 0.946569 0.322500
-0.222293 0.321492 -0.553234 193 29 250 0.000000 0.897325 -0.441371
-0.363337 0.272390 -0.553490 193 29 250 0.000000 -0.761297 -0.648403
-0.377211 0.269889 -0.550166 193 29 250 0.000000 -0.946501 -0.322701
-0.299948 0.316564 -0.512789 193 29 250 0.000000 0.761230 0.648482
-0.457280 0.266520 -0.536204 193 29 250 0.000000 -0.996803 0.079898
-0.311792 0.325091 -0.545917 193 29 250 0.000000 0.897325 -0.441371
-0.210978 0.322999 -0.550168 193 29 250 0.000000 0.897325 -0.441371
-0.213172 0.282101 -0.508978 193 29 250 0.000000 -0.323802 0.946125
-0.327186 0.325674 -0.527797 193 29 250 0.000000 0.946569 0.322500
-0.407602 0.306056 -0.564222 193 29 250 0.000000 0.322505 -0.946568
-0.467085 0.304130 -0.530326 193 29 250 0.977129 0.065311 0.202370
-0.314289 0.310730 -0.509187 193 29 250 0.000000 0.440499 0.897753
-0.440534 0.305466 -0.506603 193 29 250 0.000000 0.440498 0.897754
-0.349214 0.269812 -0.549942 193 29 250 0.000000 -0.946501 -0.322701
-0.372991 0.271262 -0.552166 193 29 250 0.000000 -0.761297 -0.648403
-0.309155 0.269202 -0.548153 193 29 250 0.000000 -0.946501 -0.322701
-0.266721 0.269005 -0.547575 193 29 250 0.000000 -0.946501 -0.322701
-0.240242 0.288992 -0.506619 193 29 250 0.000000 -0.323802 0.946125
-0.210638 0.272414 -0.553518 193 29 250 0.000000 -0.761297 -0.648403
-0.353165 0.269060 -0.547734 193 29 250 0.000000 -0.946501 -0.322701
-0.245079 0.326766 -0.535785 193 29 250 0.000000 0.996816 -0.079732
-0.453612 0.313886 -0.510736 193 29 250 0.000000 0.440499 0.897753
-0.307009 0.315301 -0.511430 193 29 250 0.000000 0.440499 0.897753
-0.406177 0.267616 -0.543500 193 29 250 0.000000 -0.946501 -0.322701
-0.244167 0.273867 -0.515713 193 29 250 0.000000 -0.648110 0.761546
-0.409561 0.321654 -0.552905 193 29 250 0.000000 0.897325 -0.441371
-0.244235 0.277100 -0.559020 193 29 250 0.000000 -0.761297 -0.648403
-0.316475 0.281942 -0.561915 193 29 250 0.000000 -0.441580 -0.897222
-0.356628 0.293554 -0.505350 193 29 250 0.000000 0.080910 0.996721
-0.255006 0.315703 -0.511779 193 29 250 0.000000 0.761230 0.648482
-0.359983 0.320557 -0.554779 193 29 250 0.000000 0.648983 -0.760803
-0.379336 0.326152 -0.543465 193 29 250 0.000000 0.996816 -0.079732
-0.293143 0.268581 -0.524814 193 29 250 0.000000 -0.897391 0.441236
-0.339574 0.302303 -0.506060 193 29 250 0.000000 0.080910 0.996721
-0.343948 0.304406 -0.564784 193 29 250 0.000000 0.322505 -0.946568
-0.255276 0.266275 -0.539256 193 29 250 0.000000 -0.996803 0.079898
-0.287118 0.277778 -0.559816 193 29 250 0.000000 -0.761297 -0.648403
-0.257443 0.325051 -0.525970 193 29 250 0.000000 0.946569 0.322500
-0.250511 0.273643 -0.554962 193 29 250 0.000000 -0.761297 -0.648403
-0.244704 0.273746 -0.515816 193 29 250 0.000000 -0.648110 0.761546
-0.287069 0.273558 -0.515975 193 29 250 0.000000 -0.648110 0.761546
-0.224577 0.320060 -0.516893 193 29 250 0.000000 0.761229 0.648483
-0.279369 0.303009 -0.565260 193 29 250 0.000000 0.322505 -0.946568
-0.415163 0.281165 -0.561533 193 29 250 0.000000 -0.441580 -0.897222
-0.438082 0.271118 -0.519655 193 29 250 0.000000 -0.897391 0.441236
-0.326269 0.296917 -0.505623 193 29 250 0.000000 0.080910 0.996721
-0.283514 0.292082 -0.505562 193 29 250 0.000000 -0.323802 0.946125
-0.372074 0.302899 -0.565298 193 29 250 0.000000 0.322505 -0.946568
-0.384086 0.301313 -0.505980 193 29 250 0.000000 0.080910 0.996721
-0.400668 0.283379 -0.562622 193 29 250 0.000000 -0.441580 -0.897222
-0.441716 0.321969 -0.552262 193 29 250 0.000000 0.897325 -0.441371
-0.411161 0.318431 -0.514981 193 29 250 0.000000 0.761229 0.648483
-0.261088 0.323028 -0.550110 193 29 250 0.000000 0.897325 -0.441371
-0.204392 0.269561 -0.549204 193 29 250 0.000000 -0.946501 -0.322701
-0.228564 0.273571 -0.554876 193 29 250 0.000000 -0.761297 -0.648403
-0.322484 0.307885 -0.563599 193 29 250 0.000000 0.322505 -0.946568
-0.336134 0.325179 -0.545736 193 29 250 0.000000 0.897325 -0.441371
-0.424978 0.317171 -0.557667 193 29 250 0.000000 0.648984 -0.760802
-0.447681 0.276670 -0.558515 193 29 250 0.000000 -0.761297 -0.648403
-0.354587 0.268095 -0.544903 193 29 250 0.000000 -0.946501 -0.322701
-0.392545 0.321145 -0.518166 193 29 250 0.000000 0.761229 0.648483
-0.332903 0.266809 -0.532598 193 29 250 0.000000 -0.996803 0.079898
-0.429768 0.267104 -0.541998 193 29 250 0.000000 -0.946501 -0.322701
-0.377226 0.326558 -0.538394 193 29 250 0.000000 0.996816 -0.079732
-0.397517 0.326387 -0.540527 193 29 250 0.000000 0.996816 -0.079732
-0.304966 0.301731 -0.506014 193 29 250 0.000000 0.080910 0.996721
-0.206979 0.267744 -0.543875 193 29 250 0.000000 -0.946501 -0.322701
-0.397531 0.321831 -0.518972 193 29 250 0.000000 0.761229 0.648483
-0.032325 0.284792 -0.508057 81 5 133 0.000000 -0.323802 0.946125
-0.051693 0.270920 -0.551765 81 5 133 0.000000 -0.761297 -0.648403
-0.142023 0.269320 -0.548497 81 5 133 0.000000 -0.946501 -0.322701
-0.168847 0.280984 -0.561444 81 5 133 0.000000 -0.441580 -0.897222
-0.025519 0.323611 -0.548926 81 5 133 0.000000 0.897325 -0.441371
0.059742 0.326437 -0.530037 81 5 133 0.000000 0.946569 0.322502
0.036612 0.273340 -0.516161 81 5 133 0.000000 -0.648110 0.761546
-0.039693 0.277603 -0.559611 81 5 133 0.000000 -0.761297 -0.648403
-0.160889 0.269583 -0.549270 81 5 133 0.000000 -0.946501 -0.322701
0.052296 0.293112 -0.505314 81 5 133 0.000000 0.080910 0.996721
-0.122953 0.267571 -0.526868 81 5 133 0.000000 -0.897391 0.441236
-0.117898 0.317869 -0.514321 81 5 133 0.000000 0.761230 0.648482
0.023680 0.267521 -0.543219 81 5 133 0.000000 -0.946501 -0.322701
-0.003447 0.280792 -0.509819 81 5 133 0.000000 -0.648110 0.761546
-0.027561 0.323302 -0.520837 81 5 133 0.000000 0.946569 0.322502
0.058491 0.323737 -0.522112 81 5 133 0.000000 0.946569 0.322502
0.045662 0.268909 -0.547293 81 5 133 0.000000 -0.946501 -0.322701
-0.025781 0.321645 -0.552922 81 5 133 0.000000 0.897325 -0.441371
-0.186682 0.324915 -0.525571 81 5 133 0.000000 0.946569 0.322502
-0.083806 0.300090 -0.505880 81 5 133 0.000000 0.080910 0.996721
-0.092307 0.285825 -0.563826 81 5 133 0.000000 -0.441580 -0.897222
-0.168466 0.319763 -0.555456 81 5 133 0.000000 0.648983 -0.760803
-0.114046 0.276380 -0.558174 81 5 133 0.000000 -0.761297 -0.648403
-0.088150 0.325173 -0.526329 81 5 133 0.000000 0.946569 0.322502
-0.019396 0.266396 -0.537749 81 5 133 0.000000 -0.996803 0.079898
-0.172960 0.307940 -0.507817 81 5 133 0.000000 0.440498 0.897754
-0.098040 0.326610 -0.537745 81 5 133 0.000000 0.996816 -0.079732
0.007592 0.290104 -0.506239 81 5 133 0.000000 -0.323802 0.946125
-0.147535 0.306156 -0.564188 81 5 133 0.000000 0.322505 -0.946568
0.018907 0.273301 -0.516195 81 5 133 0.000000 -0.648110 0.761546
-0.021176 0.323330 -0.520917 81 5 133 0.000000 0.946569 0.322502
-0.115636 0.289192 -0.565226 81 5 133 0.000000 -0.079579 -0.996829
-0.189631 0.318821 -0.556259 81 5 133 0.000000 0.648983 -0.760803
0.052401 0.270252 -0.521416 81 5 133 0.000000 -0.897391 0.441236
-0.148664 0.290388 -0.506142 81 5 133 0.000000 -0.323802 0.946125
-0.201646 0.275581 -0.514254 81 5 133 0.000000 -0.648110 0.761546
-0.051543 0.303514 -0.565088 81 5 133 0.000000 0.322505 -0.946568
-0.178454 0.309287 -0.563121 81 5 133 0.000000 0.322505 -0.946568
0.021644 0.268860 -0.547150 81 5 133 0.000000 -0.946501 -0.322701
-0.046103 0.322587 -0.551007 81 5 133 0.000000 0.897325 -0.441371
-0.194796 0.323579 -0.548991 81 5 133 0.000000 0.897325 -0.441371
-0.192259 0.285607 -0.563719 81 5 133 0.000000 -0.441580 -0.897222
